# .PCD v0.7 - Point Cloud Data file format
VERSION 0.7
FIELDS x y z
SIZE 4 4 4
TYPE F F F
COUNT 1 1 1
WIDTH 1552
HEIGHT 1
VIEWPOINT 0 0 0 1 0 0 0
POINTS 1552
DATA ascii
9.9950914 -3.0425968 1.1337891
9.9857845 -3.0224597 1.1355232
9.9977512 -3.0036974 1.1429183
10.00693 -2.9975376 1.1388645
10.187461 -3.0388987 1.0982847
10.199891 -3.0136416 1.1166123
10.205297 -3.0039623 1.1011941
10.200005 -3.0022109 1.1071297
10.392628 -3.0412641 1.077027
10.407207 -3.0107291 1.0654379
10.408158 -3.0011005 1.0683367
10.412949 -2.9850159 1.0774353
10.60869 -3.0354807 1.0361303
10.602645 -3.0064008 1.0422589
10.612524 -3.0095882 1.0294811
10.80649 -3.038089 0.99251366
10.809374 -3.0316296 1.0062181
10.816818 -3.0146608 1.0074381
10.830176 -2.998178 1.0107186
11.018394 -3.023798 0.97479981
11.025314 -3.019969 0.96921492
11.015112 -2.995544 0.96519154
11.223965 -3.0404413 0.93525082
11.216807 -3.0236964 0.9348135
11.235757 -3.0012801 0.93638361
11.221908 -2.9985499 0.92814815
11.416553 -3.0277684 0.89606827
11.43469 -3.0029073 0.90109235
11.434025 -2.9888875 0.88750619
11.62709 -3.0303814 0.8704257
11.629034 -3.0191267 0.85702705
11.64537 -3.0022831 0.85267752
11.82834 -3.019747 0.82447839
11.845957 -3.0193453 0.8325941
11.843114 -3.00421 0.82746738
12.032701 -3.0353143 0.79418361
12.043214 -3.0177457 0.78182387
12.036846 -2.9862618 0.79838318
12.246562 -3.0270379 0.75779188
12.251651 -3.0017359 0.76476854
12.446074 -3.0455759 0.71155173
12.435924 -3.0101521 0.71416962
12.4414 -3.0066168 0.7120809
12.645285 -3.0357485 0.678662
12.645916 -3.0055964 0.67908591
12.661396 -3.0009181 0.6800797
12.85039 -3.0152073 0.64662594
12.855463 -2.9945374 0.64307946
13.048797 -3.0241325 0.61412442
13.045073 -3.0078657 0.60861611
13.048299 -2.9925852 0.60904592
3.3417327 4.8876095 2.0041664
3.3466904 4.9038615 1.9904454
3.3411767 4.8939548 2.0036962
3.3308532 4.9111714 1.9930075
3.3165452 4.9082422 2.0010667
3.311769 4.9145861 2.0038083
3.3187666 4.9099755 1.9970213
3.3086255 4.9308906 1.9868159
3.2973428 4.9239111 2.00383
3.2942777 4.9401636 1.9899372
3.2786119 4.9452376 1.9980991
3.2693851 4.9420762 1.9978527
-5.9662495 3.044549 1.8679173
-5.797483 2.9571548 1.8994714
-5.7950897 2.9516666 1.8896821
-5.804626 2.9282384 1.9016142
-5.8114095 2.9186506 1.9043229
-5.8049688 2.925771 1.9033434
-5.8087215 2.9084642 1.8907913
-5.8154497 2.8949542 1.8899076
-5.8160586 2.892647 1.8895239
-5.8284945 2.8879879 1.9014142
-5.8211651 2.8872554 1.8868871
-5.8286285 2.8637006 1.9024483
-5.8383093 2.8666351 1.9006253
-5.8377681 2.8441179 1.9034839
-5.845283 2.8388903 1.9048698
-5.8500781 2.8441658 1.901497
-5.8558412 2.8297389 1.8889439
-5.8541446 2.8126233 1.8910133
-5.8533206 2.8189266 1.8989135
-5.872869 2.7968109 1.8902979
-5.8605156 2.8060293 1.8890991
-5.8626776 2.7917783 1.8925004
-5.6909084 2.6878827 1.9207793
-5.6991925 2.6926951 1.9209241
-5.7046065 2.6739523 1.9240128
-5.7086239 2.6743631 1.9205538
-5.7160029 2.6729481 1.9308503
-5.7159233 2.657155 1.9322193
-5.7137637 2.6461 1.928085
-5.7236924 2.6394 1.9300338
-5.7222257 2.6289446 1.9294055
-5.7219467 2.6202071 1.922736
-5.738255 2.6087487 1.9243327
-5.740056 2.6127462 1.9387133
-5.7417011 2.5950584 1.9223279
-5.7402463 2.5970714 1.9343351
-5.7422395 2.575412 1.9329144
-5.7539248 2.5775275 1.9236928
-5.7642303 2.5654871 1.9314139
-5.7586584 2.5671909 1.9204373
-5.7711263 2.5540237 1.9270133
-5.7642112 2.5447865 1.9328644
-5.7639546 2.5428803 1.9352752
-5.7820902 2.5228019 1.9297066
-5.6049814 2.4462662 1.9682611
-5.6049895 2.4334733 1.9630789
-5.6129799 2.4222822 1.9642754
-5.6023798 2.4229898 1.9556305
-5.6009903 2.4169648 1.9629934
-5.6118689 2.4000731 1.9601134
-5.6137133 2.3942635 1.9721242
-5.6289701 2.3789077 1.962961
-5.6183653 2.3873363 1.9599596
-5.625339 2.3611457 1.9649527
-5.6378698 2.354717 1.9599173
-5.625618 2.3516645 1.969919
-5.6385379 2.3439953 1.9565645
-5.63025 2.3302889 1.9717574
-5.6505957 2.3213236 1.9687694
-5.643568 2.3248208 1.9567388
-5.6394091 2.3098037 1.9667522
-5.6432281 2.3028486 1.9692681
-5.6561995 2.2898061 1.9680755
-5.6521611 2.2930875 1.96856
-5.6631184 2.2871237 1.9704878
-5.6591005 2.2766867 1.9572399
-5.6650696 2.2765942 1.9642041
-5.664382 2.2680428 1.9653478
-5.6684909 2.2423875 1.9654167
-5.4920969 2.1749215 1.9906605
-5.4911013 2.1671605 1.9950039
-5.5000815 2.1587896 2.0002959
-5.5065355 2.1406457 2.0004539
-5.5141711 2.1497271 1.991806
-5.5013113 2.1310272 2.0051117
-5.5065131 2.1195107 1.9959024
-5.5249524 2.1251788 1.9945266
-5.5164161 2.1146774 1.9925301
-5.5267258 2.1031995 1.9928131
-5.5169554 2.0877569 2.0056393
-5.5357137 2.0963192 1.998392
-5.5301175 2.0788996 1.9904655
-5.5392189 2.0780144 1.9920908
-5.528151 2.0724704 1.9904977
-5.5457206 2.0627527 1.9979088
-5.5499735 2.0507886 2.0015116
-5.5434246 2.0433307 1.9984947
-5.5382409 2.0273428 1.9926932
-5.5550432 2.0239689 2.0031343
-5.5515513 2.0132778 2.0058577
-5.5552225 2.0067303 2.0048721
-5.5661302 2.0086703 1.9941996
-5.5649533 1.9843892 1.9903787
-5.5621405 1.9940453 1.9887549
-5.5609097 1.9689907 2.0051579
-5.572257 1.9625311 1.997346
-5.5799904 1.9654573 1.9898289
-5.5707302 1.9563935 1.9940808
-5.5872607 1.9533432 2.0027194
-5.573339 1.9365892 1.9884316
-5.576683 1.9389579 1.9953649
-5.5810018 1.9332021 1.9920106
-5.5959821 1.9113952 1.9921516
-5.5947719 1.9151626 1.9897289
-5.5951753 1.9029111 1.9900357
-5.5991645 1.9020519 1.9916708
-5.5909543 1.8761878 2.004024
-5.6102509 1.8823018 1.9951088
-5.6052847 1.8745927 1.9909426
-5.6116686 1.8635013 1.9978256
-5.6123295 1.8517511 1.9948844
-5.6060462 1.8383565 1.9939978
-5.623106 1.8326451 1.9991187
-5.6200137 1.830796 1.9958251
-5.6193337 1.8311853 1.9881017
-5.6183357 1.8102164 1.9873446
-5.6156912 1.8000772 1.9885526
-5.6206832 1.7932504 2.0037072
-5.6345787 1.7939882 1.9989892
-5.6326299 1.790929 1.99102
-5.6437869 1.7697849 1.9991441
-5.6378741 1.7574894 2.0017209
-5.6328373 1.7506883 2.0064371
-5.6426682 1.7495226 1.9971586
-5.6357818 1.7515694 1.9961276
-5.6366076 1.7371358 2.0019891
-5.6581798 1.7278566 2.0055761
-5.6585326 1.7160854 1.9902052
-5.6437201 1.7129068 2.003444
-5.653614 1.6941546 2.0014987
-5.6514668 1.6867119 2.0062885
-5.6611838 1.6876374 1.9866651
-5.6683135 1.6760447 1.9881265
-5.6707153 1.6770545 1.9963112
-5.662385 1.6673733 1.9944354
-5.6750746 1.6592776 2.0060217
-5.6818914 1.6520104 1.9962286
-5.6651101 1.6467798 2.0025668
-5.6836891 1.6387404 1.9936323
-5.6890178 1.6231742 1.993855
-5.676281 1.6121119 1.9945477
-5.6787429 1.6136779 2.0040817
-5.6808176 1.6104487 1.9899423
-5.6814194 1.5871408 2.004735
-5.6938257 1.5944755 1.9977723
-5.6880965 1.571422 1.9906427
-5.6907697 1.5638416 2.004178
-5.7032251 1.5553216 2.0004182
-5.6893311 1.5504909 1.9965574
-5.7043605 1.5425881 2.0050719
-5.6991563 1.5296683 1.9904691
-5.7132478 1.5365212 2.0053802
-5.6977944 1.5235233 2.005013
-5.7164693 1.5121361 1.9892921
-5.7203403 1.5105444 1.9888633
-5.7111626 1.4968723 1.9933412
-5.7091036 1.4827062 1.9982021
-5.7134981 1.478253 2.0025094
-5.7216415 1.4698508 1.9899553
-5.7136345 1.4685651 1.997471
-5.7171016 1.4546188 2.0000422
-5.7351604 1.4487045 1.9974447
-5.7182965 1.4403564 1.9898307
-5.7217889 1.4354348 1.998814
-5.7409911 1.4287328 1.9941927
-5.7406111 1.4132874 2.0038893
-5.7357416 1.4019692 1.987413
-5.7460003 1.4083135 1.9944795
-5.7319403 1.3885604 2.0011425
-5.7504234 1.3788491 1.9945215
-5.7413793 1.3676943 2.0019588
-5.749753 1.3604928 1.9914889
-5.7407131 1.3521562 2.0006812
-5.7592754 1.362317 1.9929647
-5.7488437 1.3352545 1.9865619
-5.7630219 1.3305399 1.9927323
-5.7474923 1.3326511 1.9956055
-5.7484279 1.326449 1.992847
-5.7622857 1.3162409 1.9983621
-5.7694693 1.3094728 2.0021951
-5.7632623 1.2936602 2.0029051
-5.7696071 1.2913744 2.0044487
-5.7664104 1.2800182 2.0056927
-5.7740102 1.2719773 2.0051377
-5.7693152 1.2562352 2.0055625
-5.7710118 1.2481704 1.9893181
-5.7665267 1.2574797 2.0032327
-5.7791572 1.2476867 1.9989955
-5.7745347 1.2258581 1.9926029
-5.7843862 1.2186567 1.9874977
-5.7703929 1.2194616 1.9946378
-5.7756786 1.21571 1.9875526
-5.7794094 1.1969322 1.9971741
-5.7818847 1.1923205 1.9868203
-5.784904 1.1741582 1.9887922
-5.787487 1.1760428 1.9907695
-5.786303 1.1641444 1.9901289
-5.7911935 1.1613365 1.9877704
-5.8003097 1.1448605 1.9916611
-5.7958069 1.1402314 1.99643
-5.7963982 1.1312823 1.9900864
-5.7898383 1.1187235 1.9880759
-5.7903519 1.1240982 1.9953744
-5.8012328 1.1086507 2.0061507
-5.8024564 1.1118258 1.9868562
-5.8016968 1.0940485 1.9975404
-5.7989483 1.0790745 2.0044222
-5.7968292 1.0808182 1.9965947
-5.8170571 1.0750424 2.0003917
-5.8133831 1.0553547 1.9876626
-5.8049288 1.0566498 1.9940895
-5.8028069 1.046068 1.9960649
-5.8226843 1.0365238 1.9915246
-5.8152514 1.037639 1.9996483
-5.8170314 1.0190597 1.999061
-5.8180938 1.0227576 1.9888123
-5.8284612 1.0107102 1.9917076
-5.8119354 1.0022769 2.0044668
-5.8232255 0.99509931 1.9995723
-5.8307076 0.973068 2.0031145
-5.8309069 0.98095196 1.996078
-5.8246684 0.97240758 1.9865881
-6.0310302 0.99695814 1.9619015
-6.0273776 0.97856289 1.9602455
-6.0155892 0.97980356 1.9681444
-6.0243764 0.96138573 1.9678777
-6.0234008 0.95399356 1.963702
-6.0195179 0.94450885 1.959233
-6.0228643 0.94510406 1.9557288
-6.0310931 0.91957635 1.9583371
-6.0357685 0.91519648 1.9569755
-6.0274677 0.91839153 1.9552172
-6.0286455 0.91113687 1.9546254
-6.0407152 0.88889223 1.9640616
-6.0344296 0.87978131 1.9631636
-6.2353606 0.91121376 1.9384921
-6.2414575 0.89667463 1.9286399
-6.2317181 0.88732851 1.9377338
-6.2464356 0.87593454 1.9358555
-6.2446451 0.87759829 1.9368838
-6.2402339 0.85586196 1.9219685
-6.2371721 0.84368914 1.938686
-6.235857 0.85158998 1.9365886
-6.2351208 0.82866073 1.920688
-6.2449365 0.8332454 1.9241196
-6.2556376 0.81324297 1.9194316
-6.237216 0.80838674 1.9289234
-6.2486339 0.79450089 1.9377898
-6.4465494 0.81156737 1.8902018
-6.4507613 0.80690712 1.8867847
-6.4539323 0.80785251 1.890357
-6.4520059 0.79304183 1.890484
-6.4533491 0.7807169 1.8872409
-6.4567776 0.7702859 1.8897995
-6.4560938 0.77118516 1.885675
-6.4519663 0.76251662 1.890282
-6.4525137 0.75339162 1.8987684
-6.4635568 0.73395807 1.902106
-6.4457211 0.73330981 1.886798
-6.6576338 0.73101252 1.8620602
-6.6570249 0.72493321 1.8610654
-6.6528306 0.72187394 1.8542764
-6.6484962 0.71855223 1.8641803
-6.6473918 0.69287086 1.8526727
-6.6637163 0.68892914 1.8710852
-6.6641517 0.69015861 1.8698516
-6.6599674 0.6718713 1.8685168
-6.6672835 0.66355902 1.8567736
-6.6512494 0.65408826 1.8534089
-6.6705098 0.64965391 1.8553311
-6.8569751 0.64527071 1.8266941
-6.868185 0.64737326 1.8180853
-6.8661704 0.63479435 1.8354605
-6.8542385 0.624291 1.8364617
-6.8538008 0.61842179 1.8228297
-6.8549376 0.6130622 1.819737
-6.8572941 0.59281939 1.8276682
-6.8609724 0.58617973 1.8365997
-6.85638 0.57648087 1.8253741
-6.8751392 0.56841469 1.8190293
9.2088509 -4.9431796 1.2110934
9.2248421 -4.9284267 1.2229439
9.2322063 -4.9107695 1.2118082
9.2369289 -4.9003038 1.2197633
9.2426338 -4.8885369 1.2114443
9.2546883 -4.8770566 1.227362
9.2636328 -4.8670959 1.2126346
9.2604904 -4.8399911 1.2208661
9.2662611 -4.8274837 1.2289985
9.2807884 -4.8129396 1.2186658
9.2889528 -4.814436 1.2205467
9.2972555 -4.7868276 1.2243255
9.29739 -4.7787223 1.2128974
9.3063717 -4.7727461 1.2190611
9.3032894 -4.7478967 1.2241085
9.3118706 -4.7378068 1.2277433
9.3163509 -4.7255688 1.2284359
9.326086 -4.7232518 1.2233218
9.3440351 -4.7019243 1.2177933
9.3500977 -4.692812 1.2138783
9.345809 -4.6822591 1.2155265
9.3633842 -4.6701097 1.2118335
9.3647194 -4.6445136 1.2232865
9.374608 -4.6366062 1.2277478
9.3706417 -4.6184325 1.2240806
9.3717051 -4.6183114 1.2175163
9.3963852 -4.6003256 1.2101935
9.224699 -4.4925103 1.2459652
9.2248001 -4.4802651 1.2562668
9.2193546 -4.4685187 1.2626572
9.2299767 -4.4676037 1.2465672
9.2422276 -4.4556394 1.2495843
9.2507687 -4.4288468 1.2451464
9.2507448 -4.4186544 1.2555555
9.2551632 -4.3988981 1.2510689
9.2558975 -4.404531 1.2536248
9.2700481 -4.3919177 1.2610792
9.2768593 -4.3603663 1.2565604
9.2856407 -4.3549905 1.2514287
9.2847052 -4.3413186 1.2451764
9.290143 -4.323266 1.2469634
9.2994719 -4.3191848 1.2478303
9.3118 -4.3127675 1.2625966
9.3196716 -4.2925615 1.2546538
9.317935 -4.2741051 1.253557
9.3316927 -4.261066 1.2539086
9.3279886 -4.2600083 1.2539458
9.3317204 -4.238255 1.2525986
9.3509159 -4.2338166 1.2436826
9.3449612 -4.2163925 1.2554852
9.3527365 -4.1995916 1.2523786
9.3622799 -4.1795044 1.2603831
9.3726721 -4.1731133 1.2618265
9.3778124 -4.1648574 1.250489
9.3749914 -4.1443262 1.2446123
9.3910551 -4.1360073 1.2587712
9.2070484 -4.0378895 1.2947587
9.2233543 -4.0216804 1.2856964
9.2182951 -4.0121913 1.2880436
9.2243013 -3.9945552 1.2947783
9.2420921 -3.9950237 1.2852687
9.2367592 -3.9718099 1.282793
9.2394123 -3.9640472 1.2936467
9.2434902 -3.956969 1.2796872
9.2562132 -3.938518 1.2931808
9.2630415 -3.9297915 1.2819077
9.2640104 -3.9104376 1.2962036
9.2671661 -3.900419 1.2938588
9.2812414 -3.8810833 1.2881447
9.2776461 -3.8813462 1.2872012
9.2807674 -3.8694055 1.2929156
9.2943602 -3.8483677 1.2889622
9.30546 -3.8302281 1.2798827
9.307395 -3.8135436 1.2849844
9.3153524 -3.8096516 1.2956321
9.3167858 -3.8044286 1.2820944
9.3269272 -3.783716 1.2949904
9.3313475 -3.7653093 1.2849773
9.3334036 -3.7582707 1.2813647
9.3297281 -3.740253 1.2845461
9.3450909 -3.7245216 1.2867179
9.3461494 -3.7205861 1.2969694
9.3432369 -3.710922 1.292395
9.3512268 -3.6846759 1.2915322
9.3642988 -3.6758075 1.2815809
9.3680019 -3.6708226 1.2838646
9.3781481 -3.660995 1.2938654
9.3811722 -3.6320283 1.2892703
9.3741655 -3.6262677 1.2787036
9.3835278 -3.609427 1.2931371
9.3960533 -3.6024499 1.2902772
9.2066612 -3.5090747 1.3121037
9.2114754 -3.4946067 1.3167721
9.2316961 -3.4973209 1.3146398
9.2310362 -3.4721158 1.3283224
9.2404079 -3.4683435 1.3139287
9.2320452 -3.459542 1.3162946
9.2336645 -3.4328153 1.3145516
9.2506714 -3.4181764 1.325487
9.2570934 -3.4192379 1.3201735
9.2579308 -3.3928182 1.3287405
9.2558899 -3.3967462 1.3270316
9.2618752 -3.3807697 1.3269374
9.2725105 -3.3694637 1.3112686
9.2809954 -3.3436906 1.3279375
9.283145 -3.3334019 1.3155047
9.2908831 -3.316314 1.3189924
9.2809687 -3.3024259 1.3163193
9.2892933 -3.2963328 1.3153909
9.3085346 -3.2886016 1.3205001
9.3024445 -3.2647989 1.3191212
9.304904 -3.2677844 1.3209001
9.3056364 -3.2495143 1.3257344
9.3262558 -3.2253208 1.3289472
9.3311882 -3.2173357 1.324999
9.3327723 -3.2118766 1.3183987
9.3219042 -3.2033374 1.3159392
9.334506 -3.1893523 1.314414
9.3444176 -3.171664 1.3260218
9.3533812 -3.159337 1.312394
9.3474369 -3.1376853 1.3295959
9.360095 -3.1381419 1.3308331
9.3545141 -3.1224153 1.3173543
9.3537483 -3.1106 1.3150769
9.3761778 -3.0983648 1.3277862
9.3746414 -3.069041 1.3129498
9.3664856 -3.0550613 1.3136414
9.3758526 -3.052938 1.3153009
9.3836756 -3.0453439 1.3216254
9.3830881 -3.0332079 1.3272469
9.388855 -3.0114205 1.3214842
9.3918056 -3.0013609 1.3222231
9.5837793 -3.0411503 1.2918574
9.5945349 -3.0258918 1.2940357
9.602994 -3.0125349 1.2953887
9.6041441 -3.005028 1.2929993
9.6104393 -2.9899712 1.2915173
9.8056259 -3.0284119 1.2452973
9.7943163 -3.0244367 1.2473699
9.8093119 -3.0052888 1.2484882
9.8099098 -3.0045955 1.2582977
9.993269 -3.0426912 1.2112819
10.008885 -3.0230036 1.225052
10.007899 -3.0168107 1.2207046
10.009071 -3.0063894 1.216332
10.200439 -3.0355129 1.1922957
10.220615 -3.0257897 1.1837053
10.219289 -3.0132742 1.1818625
10.225506 -2.9963064 1.1903265
10.42295 -3.0439885 1.1504813
10.412395 -3.019582 1.1514322
10.431629 -3.0045402 1.1581371
10.417611 -2.9981244 1.1505747
10.626822 -3.031286 1.1214613
10.622261 -3.0128446 1.1225852
10.633307 -2.9960802 1.1170948
10.634079 -2.9833827 1.1270851
10.83602 -3.0295436 1.0815598
10.826392 -3.0201156 1.0925311
10.845206 -3.0066009 1.0769866
11.02794 -3.0403953 1.0575355
11.041674 -3.0263953 1.0523732
11.042091 -3.0106137 1.0590849
11.225145 -3.0509984 1.0186732
11.242699 -3.0281951 1.0156679
11.241354 -3.0185599 1.0146029
11.254498 -2.9923463 1.0114055
11.448115 -3.0287995 0.98673826
11.439533 -3.0081868 0.99017537
11.4419 -2.9929647 0.99201483
11.639417 -3.0390522 0.94367296
11.640596 -3.0055192 0.94772428
11.65659 -2.9957833 0.95216179
11.850197 -3.0264642 0.9187485
11.846296 -3.0145118 0.90624857
11.859368 -3.0081255 0.90770513
12.04248 -3.0210531 0.88590777
12.05131 -3.0065231 0.87640452
12.069231 -3.0048018 0.89155185
12.261896 -3.0323741 0.85217011
12.265114 -3.0096054 0.85436624
12.253748 -2.9898865 0.85384911
12.457936 -3.0250344 0.81303287
12.455077 -3.0147617 0.80811757
12.664219 -3.0387375 0.78484148
12.669245 -3.0074615 0.78519821
12.675703 -3.0083852 0.78434223
12.865969 -3.0300224 0.74741828
12.874924 -3.012357 0.74917769
12.879 -2.9975364 0.75399411
13.069487 -3.0082328 0.71069676
13.070172 -2.989713 0.70379549
-5.7965889 2.9610243 1.9346529
-5.8001895 2.9372523 1.9405549
-5.8165393 2.9464176 1.9483857
-5.8021731 2.9301572 1.9384921
-5.8057561 2.9270751 1.9412576
-5.8109679 2.9062209 1.9491841
-5.8142519 2.9026108 1.9348387
-5.8372283 2.904321 1.9427007
-5.8318672 2.8921068 1.9513558
-5.8320827 2.875098 1.9391205
-5.8454628 2.8795395 1.9349456
-5.8475385 2.8644812 1.9351125
-5.8437004 2.857163 1.9525641
-5.8520203 2.8482888 1.9418808
-5.8502221 2.8398986 1.9362462
-5.8656473 2.8303523 1.937894
-5.8731341 2.8215661 1.9440738
-5.8749552 2.8138366 1.9401118
-5.8689027 2.8154898 1.9520891
-5.8741837 2.8009372 1.9352169
-5.6932292 2.7127049 1.9832922
-5.6947799 2.6909325 1.9721383
-5.7161527 2.696974 1.9818419
-5.7200627 2.6786609 1.970853
-5.7146444 2.6660988 1.9796609
-5.7148504 2.6620536 1.9671149
-5.713397 2.6544518 1.9739809
-5.7257524 2.648948 1.9813205
-5.7220588 2.6534045 1.9785224
-5.7263765 2.6364758 1.9693862
-5.7475557 2.6259272 1.9845363
-5.7329893 2.6175835 1.9658899
-5.7495661 2.6116116 1.9812665
-5.7564273 2.6054635 1.9663161
-5.7542667 2.5884557 1.9667956
-5.7632871 2.5949533 1.9712266
-5.7648416 2.5866044 1.9760581
-5.7595196 2.5695887 1.9833931
-5.7668462 2.5599442 1.9831967
-5.7769599 2.5496485 1.9740895
-5.7761984 2.5418291 1.9824562
-5.7802753 2.5322201 1.970507
-5.7829881 2.5296679 1.9806188
-5.6092381 2.4453502 2.004962
-5.6113925 2.4455819 2.0079985
-5.6130562 2.420393 2.0055809
-5.6102777 2.4172375 2.0028672
-5.6226568 2.4029815 2.0111961
-5.6276903 2.4049642 1.9979435
-5.6329088 2.400388 2.0024633
-5.627224 2.3801165 2.0072367
-5.6331611 2.3792999 2.0104792
-5.6310363 2.3792915 1.999252
-5.6387887 2.3754683 2.0103202
-5.6345286 2.3528798 2.00946
-5.6472211 2.3520052 2.0112555
-5.6423197 2.337276 1.9977446
-5.6401215 2.3335235 1.9978315
-5.6495829 2.3280826 2.0077598
-5.6522861 2.3207569 2.0009754
-5.6504583 2.3024395 2.0017872
-5.663846 2.301497 2.0096548
-5.6739802 2.28598 2.0053914
-5.6753306 2.2860005 2.0051866
-5.6656017 2.2735603 2.0102797
-5.6767216 2.2716961 2.0023892
-5.6860356 2.2579901 2.0076649
-5.688849 2.2497287 2.0170882
-5.6915646 2.2552407 2.008975
-5.6843405 2.2412739 2.0014455
-5.6838899 2.2323477 2.0035124
-5.7026162 2.2132359 2.0125544
-5.6934643 2.2071807 2.0140023
-5.7085638 2.202955 2.0033977
-5.7038574 2.191627 2.0082846
-5.714047 2.1923366 1.999243
-5.7121158 2.1868792 2.0044355
-5.7048979 2.1817441 2.0093117
-5.7082453 2.1770179 2.0076487
-5.7196951 2.1626291 1.9999723
-5.7186627 2.1517935 2.0113275
-5.7155523 2.1453223 2.011533
-5.7233891 2.1310837 2.0136497
-5.7297664 2.1248145 1.9995115
-5.7267375 2.1263094 2.0020204
-5.7388101 2.1206615 2.0132179
-5.7399135 2.0999806 2.0069418
-5.7358127 2.0895422 2.0035181
-5.7468252 2.0787697 2.00336
-5.7394891 2.07955 2.0168097
-5.7598181 2.0643539 2.0074241
-5.7487803 2.0552478 1.9995718
-5.7575264 2.0612738 2.0054896
-5.7641439 2.0438802 2.0131509
-5.7648892 2.0324619 2.010324
-5.763114 2.0319064 2.0098705
-5.7701297 2.0131714 2.0167613
-5.763411 2.02145 2.0012429
-5.7801042 2.0016181 2.0029855
-5.7769442 1.9920129 2.0135455
-5.780323 1.9849578 2.0169511
-5.7730765 1.9918084 1.9992957
-5.7936711 1.97277 2.0157158
-5.7883363 1.9699593 2.0027959
-5.7953291 1.9492379 2.006515
-5.7851372 1.953115 1.9977397
-5.7953877 1.9327879 1.9982948
-5.7987361 1.9419806 2.0151978
-5.7975917 1.9172693 2.0003419
-5.794693 1.9184964 2.0039577
-5.8012233 1.9191113 2.0085998
-5.8043365 1.9097283 2.0081768
-5.8050942 1.9024951 2.016804
-5.8094196 1.8833297 2.0107129
-5.8266544 1.8798935 2.0119967
-5.820158 1.8693595 2.0052576
-5.8224263 1.8512743 2.0062952
-5.8241277 1.8525286 2.0046332
-5.8289146 1.8376039 2.0063713
-5.828546 1.8282429 1.9974512
-5.8245506 1.8350058 2.0172648
-5.8359013 1.8212978 2.0158181
-5.8276639 1.8094639 2.0152643
-5.8307881 1.7959241 2.003675
-5.8399916 1.7877585 2.0167828
-5.8479004 1.7886863 2.0074937
-5.8425364 1.769932 2.0082603
-5.8561234 1.772051 1.9984255
-5.8513613 1.7719461 2.0018141
-5.8448496 1.7547615 2.003993
-5.8472462 1.7441131 2.00109
-5.8498178 1.7446429 2.0126376
-5.8538251 1.7359277 2.0005133
-5.8583741 1.7265949 2.003015
-5.8745017 1.7105535 2.0055203
-5.8775096 1.7090871 2.0171261
-5.8697953 1.6954569 1.9981536
-5.8813028 1.6907003 2.0094798
-5.8826337 1.6731554 2.0088837
-5.8805642 1.6645602 1.9992898
-5.8763046 1.6559947 2.0072372
-5.8749366 1.6472727 2.0039074
-5.8820095 1.6569474 2.0000591
-5.8811951 1.6444649 2.0150781
-5.8978677 1.6382358 2.0022588
-5.8920231 1.6313682 2.0161798
-5.8945618 1.6145729 2.0046804
-5.8960609 1.6086167 2.0166376
-5.9062228 1.6036648 1.9992661
-5.8969688 1.5831056 2.0015192
-5.8972974 1.5891181 2.0034297
-5.909667 1.5787994 2.0048444
-5.905355 1.5636969 2.0041633
-5.9048796 1.5516865 1.9992321
-5.9093738 1.54527 2.0163076
-5.9066758 1.5469526 2.0147543
-5.9100451 1.5283401 2.0046477
-5.9249024 1.5304601 2.0168302
-5.9277906 1.5246385 2.0123091
-5.9280391 1.5102797 2.01548
-5.926023 1.4977894 2.012918
-5.9220843 1.495115 2.0082948
-5.9367199 1.4789271 2.0168297
-5.932025 1.4653772 2.0016179
-5.9322495 1.4694844 2.008256
-5.9353867 1.4584295 2.0048466
-5.9400663 1.4461333 2.011097
-5.9348402 1.4410963 2.0077431
-5.9374204 1.4352759 2.0068462
-5.94451 1.4313008 1.9998717
-5.9484167 1.4114237 2.0086913
-5.954874 1.4175555 2.003124
-5.9459429 1.3911109 2.0096588
-5.9484653 1.3914086 2.010937
-5.9461884 1.3735175 2.0046179
-5.9572611 1.374513 2.015543
-5.9517322 1.3728418 2.0024731
-5.9599404 1.3583975 2.0126708
-5.9514918 1.3433627 2.0053551
-5.9639277 1.3432162 2.0023742
-5.9633269 1.3411288 2.0078287
-5.9738946 1.3145388 2.0077307
-5.9700179 1.318823 2.009506
-5.9595952 1.3025162 1.9999
-5.9678822 1.2904065 2.0007265
-5.9824767 1.289132 2.0108745
-5.9661345 1.2752835 2.0076802
-5.982851 1.2751113 1.9983733
-5.969358 1.2652615 2.0023656
-5.9831686 1.2648374 2.0145481
-5.979949 1.2468643 2.0129828
-5.9912624 1.240162 2.0131693
-5.9826627 1.2391633 2.0059845
-5.9922757 1.2304028 2.0108397
-5.9914832 1.2151587 2.011935
-5.9898524 1.2071121 2.0001078
-5.9980621 1.1971879 2.0027866
-5.9894543 1.1923161 2.0136504
-5.9901419 1.1826946 2.0030239
-5.986825 1.1810075 2.0003352
-5.9913139 1.164274 2.0080378
-5.9973569 1.1579489 2.017405
-6.0032015 1.1419338 2.0141428
-5.9962192 1.1380044 2.0104914
-6.0043697 1.1365546 1.9999701
-6.0114131 1.1184108 2.0097785
-6.0102725 1.1137211 1.9980412
-6.0064406 1.0992913 2.0098131
-6.0117335 1.1058145 2.0003467
-6.0076413 1.097283 1.9975789
-6.0062261 1.0858793 2.0064654
-6.0170965 1.0700381 2.0174167
-6.0185881 1.0699458 2.0007453
-6.0233297 1.0584178 2.0085392
-6.0117116 1.0403093 2.0032799
-6.0306025 1.0367156 2.0082757
-6.0196738 1.0358096 2.016983
-6.0204701 1.0202701 1.9996637
-6.0294833 1.0209609 2.0172729
-6.0279508 1.0072556 2.0147581
-6.0291743 0.99646527 2.0092494
-6.0214996 0.99629277 2.0163112
-6.0228615 0.97610521 2.0116942
-6.0408835 0.97264028 2.0039651
-6.0310993 0.96224672 2.0065455
-6.0265632 0.9544031 2.0139523
-6.0370193 0.93891788 2.0088747
-6.0387559 0.94405377 2.0166817
-6.0378003 0.92158276 2.0136051
-6.0392237 0.92203844 2.0052509
-6.0431504 0.92265302 2.0145364
-6.0525737 0.91231298 2.0120809
-6.0349236 0.90196967 1.9978716
-6.0418782 0.89495182 2.0086327
-6.0365505 0.87905324 1.9974377
-6.2440367 0.8967731 1.9744968
-6.2487364 0.89731753 1.9768533
-6.238502 0.87742507 1.9727885
-6.2404485 0.87977642 1.9746972
-6.2454591 0.86198086 1.9655082
-6.2588115 0.86152363 1.9653821
-6.2428665 0.85289592 1.9833659
-6.2493649 0.8431595 1.9794581
-6.2500601 0.82769752 1.9769861
-6.2599821 0.81878096 1.9670705
-6.2610869 0.81899029 1.9755733
-6.252779 0.79573214 1.9733521
-6.4579458 0.80840963 1.94763
-6.4513559 0.81559479 1.9453356
-6.4628448 0.79896522 1.9339821
-6.46351 0.79016691 1.9509096
-6.4642887 0.7784853 1.9479493
-6.4670706 0.78146499 1.9439939
-6.4537482 0.76489657 1.9333196
-6.4628849 0.75954127 1.9424734
-6.4619246 0.75420398 1.9405829
-6.4724488 0.7382853 1.944182
-6.4651818 0.73414159 1.9447272
-6.471283 0.71770805 1.9414818
-6.6558919 0.7320897 1.9182916
-6.6556454 0.7254312 1.9076718
-6.6584578 0.71907651 1.9143993
-6.6642175 0.71100944 1.913137
-6.6739202 0.69732237 1.9043382
-6.6742835 0.67554307 1.9192176
-6.6654801 0.6757561 1.9177945
-6.6585546 0.66646433 1.909489
-6.6680164 0.66544646 1.9060776
-6.6769204 0.63932192 1.9152718
-6.6690564 0.64579624 1.9066919
-6.8685575 0.65169609 1.8684281
-6.8621616 0.63731432 1.8854681
-6.8690248 0.61814517 1.8837599
-6.8771367 0.61023313 1.8776844
-6.8740344 0.60290402 1.8791509
-6.876039 0.60531169 1.8701531
-6.8794532 0.59556568 1.8811873
-6.8711596 0.57726502 1.880529
-6.8662639 0.57095492 1.8830726
-6.8721604 0.55339015 1.8814182
9.2008009 -4.9633155 1.2946682
9.2081165 -4.9532404 1.3052853
9.2324533 -4.9491506 1.2863389
9.2350645 -4.9323082 1.2890875
9.2315817 -4.9115124 1.2941152
9.249548 -4.9118829 1.2911599
9.2584982 -4.8948441 1.2880689
9.2584639 -4.8687005 1.2962888
9.2577543 -4.8568645 1.2878115
9.2795696 -4.8501406 1.291383
9.2797127 -4.83711 1.3049011
9.2952328 -4.8236942 1.2956431
9.3013506 -4.8128538 1.2976143
9.3085051 -4.8062968 1.3035575
9.2983894 -4.7900991 1.2974167
9.313283 -4.782794 1.2980155
9.3252039 -4.7533793 1.3027539
9.3340149 -4.7508211 1.300727
9.331028 -4.7357769 1.2976183
9.3395452 -4.7257037 1.2883053
9.3516169 -4.7022562 1.2990859
9.3571873 -4.6900396 1.2903354
9.3534822 -4.6784368 1.2994691
9.3717299 -4.6663947 1.3021941
9.3759022 -4.651165 1.288142
9.3739157 -4.6477189 1.2884107
9.3925095 -4.6390128 1.3051004
9.2188101 -4.520844 1.3236873
9.2199574 -4.5198259 1.3319647
9.2179775 -4.4968967 1.3372937
9.2266674 -4.4884839 1.3330399
9.2461195 -4.4810696 1.3279628
9.2368031 -4.463912 1.3214391
9.2566032 -4.45504 1.3338994
9.2591095 -4.4485102 1.3285224
9.2675457 -4.4304638 1.3335152
9.2762327 -4.4203014 1.3341286
9.2815914 -4.3932853 1.3325232
9.2931776 -4.3914423 1.3190794
9.2930231 -4.3778811 1.3357
9.2981796 -4.3619142 1.3278596
9.2990637 -4.3527617 1.3345507
9.3148527 -4.3391738 1.325508
9.3041 -4.3320165 1.3324372
9.3257895 -4.3085656 1.3329872
9.3220844 -4.3028727 1.3186662
9.3233538 -4.2746696 1.3215812
9.3452177 -4.2672658 1.3185776
9.345458 -4.2544165 1.3244737
9.3522377 -4.2478442 1.3309793
9.3556185 -4.2222195 1.3204913
9.3711405 -4.2217965 1.3261868
9.3733368 -4.2116523 1.3324926
9.3664713 -4.1983109 1.3329695
9.3865166 -4.1693115 1.323903
9.3870935 -4.1700315 1.3275263
9.3933315 -4.1554785 1.3263417
9.4024658 -4.1450381 1.3195412
9.4085779 -4.120316 1.3325621
9.400569 -4.1147571 1.3191191
9.4190464 -4.0917392 1.3182561
9.4270182 -4.0791039 1.3247633
9.4206667 -4.0701594 1.3283534
9.4406023 -4.0539494 1.3322158
9.4409971 -4.0435433 1.3319999
9.4523067 -4.0383925 1.3379784
9.4472208 -4.0128174 1.3254163
9.4609327 -4.0039034 1.3301928
9.4678249 -3.9946535 1.326581
9.46772 -3.9791718 1.3354105
9.4741535 -3.970953 1.3341315
9.4797058 -3.960485 1.3323538
9.4717474 -3.9420724 1.3263783
9.48736 -3.9294095 1.3234631
9.4868164 -3.9220192 1.3377955
9.5060387 -3.9089682 1.3241129
9.5112209 -3.8866332 1.3228315
9.5038223 -3.8761985 1.3372829
9.5211821 -3.8644648 1.3277946
9.5149107 -3.8584116 1.3205906
9.5174513 -3.8314817 1.3284003
9.5386934 -3.8245378 1.3334651
9.5381403 -3.8110733 1.323722
9.5315924 -3.7874978 1.3334135
9.5421114 -3.7899487 1.3372593
9.5469437 -3.7786424 1.3209126
9.558074 -3.7476001 1.3336498
9.5679054 -3.7493842 1.3235627
9.5721693 -3.739218 1.3319428
9.566926 -3.7207134 1.3331022
9.574461 -3.7050409 1.3279101
9.5897856 -3.6934795 1.3363727
9.5901575 -3.6678069 1.3250035
9.6007671 -3.6539986 1.3239059
9.6010494 -3.6549702 1.327046
9.6051598 -3.6363888 1.3281739
9.6129036 -3.6319375 1.3270177
9.6133661 -3.6028972 1.3307441
9.623723 -3.5948169 1.3312961
9.6224413 -3.5771852 1.3370045
9.6223001 -3.5772054 1.3250302
9.6369486 -3.5470684 1.3312547
9.6400404 -3.5417092 1.329782
9.6517448 -3.5308709 1.3287406
9.6423321 -3.5248621 1.3333436
9.6560411 -3.4998372 1.3231367
9.6508589 -3.4921424 1.3239828
9.6645021 -3.4690411 1.3204637
9.6618528 -3.4606202 1.3316123
9.6797361 -3.4384995 1.3269734
9.6833096 -3.4415197 1.3288877
9.6748896 -3.4148731 1.3275055
9.6926756 -3.4100969 1.3380421
9.6889696 -3.3985605 1.3259696
9.7042036 -3.3813612 1.3264515
9.7040224 -3.3753593 1.3184975
9.7136145 -3.3594267 1.3247701
9.7040339 -3.3347199 1.3206693
9.7109146 -3.317512 1.3315078
9.7289267 -3.3072517 1.3309786
9.7222795 -3.2982302 1.3339341
9.7375278 -3.2824218 1.3300343
9.7313757 -3.2736022 1.3374021
9.7357407 -3.2532439 1.3227912
9.7480145 -3.2423887 1.3318578
9.7407513 -3.2364333 1.3333979
9.7455149 -3.225585 1.3373355
9.7565327 -3.2089972 1.3324386
9.7634296 -3.1901896 1.3312012
9.7611465 -3.1780133 1.3266697
9.7783155 -3.1571069 1.3375987
9.7784204 -3.1455567 1.3307685
9.7746067 -3.1447449 1.3191839
9.778142 -3.1241343 1.3343773
9.7870474 -3.1157982 1.3268392
9.7849998 -3.0992541 1.3316635
9.8044739 -3.0824566 1.3337368
9.8078661 -3.0591328 1.3187919
9.8063421 -3.0533834 1.3290429
9.8035622 -3.0343702 1.3378521
9.8162308 -3.0226223 1.3339431
9.8198099 -3.0151844 1.3279538
9.8165398 -2.9959562 1.3291397
10.01044 -3.0351763 1.3049519
10.01082 -3.0319791 1.2877926
10.023643 -3.0151682 1.2935221
10.021271 -3.0032034 1.3023883
10.230044 -3.0486982 1.2685699
10.23484 -3.0231833 1.259169
10.229867 -3.0247114 1.2551022
10.233684 -2.9978135 1.2690982
10.422976 -3.0470552 1.2244998
10.436932 -3.0280139 1.2377741
10.432053 -3.0080323 1.2357321
10.435307 -2.9919176 1.2229148
10.631093 -3.0416431 1.2005891
10.642953 -3.0232489 1.2085854
10.643658 -3.0093617 1.1936481
10.642865 -2.9949267 1.1899658
10.842664 -3.023068 1.1581486
10.848436 -3.0179608 1.171299
10.848184 -2.9971545 1.1764244
11.045888 -3.039217 1.1337019
11.046683 -3.0175395 1.1287485
11.045415 -3.0168126 1.1253501
11.051308 -2.9941959 1.1320963
11.257721 -3.035475 1.110059
11.261655 -3.0084872 1.0994081
11.250629 -3.0064907 1.1083442
11.44664 -3.0296035 1.0753188
11.452483 -3.0201921 1.0646169
11.471454 -2.995244 1.0595905
11.666479 -3.0369334 1.0376018
11.660219 -3.0118845 1.0342238
11.668983 -3.0123234 1.0361582
11.865485 -3.0401847 1.0129478
11.857619 -3.0269516 0.996889
11.880035 -2.9940114 1.0121201
12.06314 -3.0246181 0.98130268
12.063862 -3.0255542 0.97472101
12.083877 -3.0048788 0.98156875
12.264729 -3.0369558 0.94503558
12.269033 -3.021364 0.93307823
12.283668 -2.9962661 0.94990367
12.46666 -3.0333273 0.91767675
12.479868 -3.002255 0.90276921
12.482182 -2.9832823 0.90454423
12.680367 -3.012013 0.87036133
12.68187 -3.0070143 0.86966681
12.876952 -3.0308974 0.83885938
12.89341 -3.0133352 0.84422725
12.89669 -2.9906693 0.848185
13.088024 -3.0124929 0.81827247
13.095167 -2.9990513 0.80867255
-5.8073149 2.9678481 1.9828154
-5.8050947 2.9590361 1.9816911
-5.8092141 2.9505627 1.9826982
-5.8193598 2.9339995 1.9821082
-5.8092003 2.9280534 1.9905041
-5.8128395 2.9178734 1.990276
-5.823832 2.9239376 1.9921294
-5.8328037 2.9076784 1.9946952
-5.8432708 2.9035499 1.9816573
-5.8417811 2.8847477 1.988525
-5.8487263 2.8811383 1.9996079
-5.8502836 2.8838663 1.9899963
-5.8529539 2.8665807 2.0000348
-5.8546052 2.8632436 1.9816389
-5.8568358 2.8541489 1.9854319
-5.8706584 2.8454864 1.9871852
-5.8646979 2.8298924 1.9831489
-5.876873 2.8293755 1.9910052
-5.8664703 2.8224292 1.9828905
-5.8690944 2.8209984 1.9841366
-5.8848391 2.7966378 1.9899421
-5.8894892 2.794723 1.9866499
-5.8837395 2.7941303 1.9942518
-5.8879404 2.7758665 1.9867021
-5.8905249 2.7793415 1.9982488
-5.9093056 2.7529516 1.9893297
-5.9063206 2.7564683 1.9930185
-5.907361 2.7517455 1.9843981
-5.9205332 2.7413485 1.9970444
-5.9218092 2.7322395 1.9964788
-5.9218268 2.7112865 1.9997765
-5.916028 2.7095723 1.9893889
-5.9335093 2.6974852 1.9866436
-5.9233775 2.7050638 1.9938745
-5.9407835 2.6939123 1.9928263
-5.9466314 2.6878233 1.9936395
-5.9413867 2.6685507 1.9862257
-5.9524417 2.6720581 1.9823508
-5.9521055 2.6462016 1.9963462
-5.9591112 2.6428666 1.9895052
-5.966671 2.6432991 1.9899889
-5.9709215 2.6333046 1.9970415
-5.9655476 2.6295912 2.0002952
-5.9629078 2.6197605 1.9994212
-5.9730253 2.5962629 1.9956944
-5.9841795 2.5906453 1.9941828
-5.9745088 2.5939884 1.9817078
-5.99224 2.5699813 1.9810545
-5.9938345 2.5700033 1.9828644
-5.9814215 2.5667009 1.989664
-5.9958386 2.5595086 1.9852259
-5.9897599 2.551724 1.9991286
-5.9966168 2.5329595 1.9976578
-6.0002084 2.5204697 1.9947015
-6.004662 2.5214856 1.9965981
-6.0128312 2.5149591 1.9812324
-6.0225 2.5017033 1.9975702
-6.024632 2.4943044 1.998266
-6.0274057 2.488888 1.9873544
-6.0283575 2.4794488 1.9815159
-6.0224981 2.4791462 1.9968654
-6.0410652 2.4684639 1.9928156
-6.0457172 2.4544544 1.9983915
-6.0318289 2.4403715 1.9998729
-6.040885 2.4453413 1.9907702
-6.0480323 2.4256368 1.9835463
-6.0505338 2.4197466 1.9914764
-6.0566859 2.4151955 1.9804225
-6.06213 2.4113305 1.9923716
-6.0584741 2.3899612 1.9833059
-6.0606446 2.3778875 1.982367
-6.0674539 2.3706713 1.9991798
-6.0783014 2.362215 1.9904219
-6.063561 2.351048 1.9960247
-6.067327 2.3542142 1.9950455
-6.080184 2.3336101 1.982815
-6.0802531 2.3338697 1.993152
-6.0923805 2.3313313 1.9874005
-6.0955496 2.3266902 1.9862511
-6.0867577 2.3090353 1.9922043
-6.0870199 2.2925279 1.9945604
-6.1082087 2.2925177 1.998181
-6.0925732 2.2849548 1.9818312
-6.1056833 2.2754149 1.9828048
-6.1131787 2.2653797 1.9954394
-6.1016417 2.2657466 1.9959692
-6.122323 2.2492914 1.9852629
-6.1126552 2.2439444 1.9805264
-6.1287274 2.2386515 1.9996622
-6.1259365 2.2253621 1.9896605
-6.1171808 2.2150104 1.9916735
-6.1260571 2.2066576 1.9822026
-6.1313009 2.1971164 1.9936997
-6.1328826 2.197629 1.9841924
-6.1334782 2.1737981 1.9931897
-6.1414275 2.1646447 1.9910979
-6.1488352 2.1579382 1.9810997
-6.1469369 2.1640158 1.9943073
-6.1497631 2.1371257 1.9907794
-6.1534419 2.1361189 1.9825237
-6.14711 2.1269486 1.9924822
-6.1587534 2.1119704 1.9826581
-6.1598554 2.1148052 1.9918674
-6.1694484 2.0991035 1.990168
-6.1685362 2.0858383 1.9932207
-6.1786151 2.0876448 1.9957073
-6.1707735 2.0850525 2.0000789
-6.1729183 2.0673552 1.9991237
-6.1818438 2.0698164 1.9998784
-6.1742845 2.0515716 1.9882303
-6.1949692 2.0426197 1.99602
-6.1856828 2.0249734 1.9974437
-6.1862087 2.0291619 1.9903187
-6.1975136 2.0266824 1.9961123
-6.1905055 2.0080276 1.9972656
-6.2004323 2.0021944 1.9888538
-6.2078609 1.9870918 1.9864825
-6.2109056 1.9727209 1.9950504
-6.2148933 1.9722897 1.9947205
-6.2181139 1.9622701 1.9847906
-6.2129707 1.9544065 1.9945575
-6.220026 1.9386575 1.9953307
-6.2256455 1.945199 1.9889492
-6.2183776 1.9232402 1.9887487
-6.2253036 1.9310819 1.9985576
-6.2310648 1.9117767 1.991202
-6.2252254 1.907811 1.9974158
-6.241745 1.9035569 1.9979349
-6.2296844 1.8780589 1.9867027
-6.2379417 1.8720717 1.9941348
-6.2361169 1.8739474 1.9823909
-6.244513 1.8514755 1.9835893
-6.2521234 1.8460797 2.0000243
-6.2461033 1.8506352 1.9831995
-6.2602715 1.8309356 1.982919
-6.2446184 1.8281341 1.9920396
-6.256309 1.8138189 1.9859048
-6.2617736 1.8056189 1.9842297
-6.2667065 1.7921019 1.985774
-6.2628598 1.792938 1.9900522
-6.2715683 1.7781973 1.9849309
-6.2720089 1.7776468 1.986066
-6.2712388 1.7720597 1.9905374
-6.2740216 1.7550545 1.9882998
-6.2736168 1.7464306 1.9951018
-6.2734799 1.7359971 1.9878449
-6.2842102 1.7363983 1.9950192
-6.2810636 1.7138481 1.9827431
-6.2795792 1.7088655 1.9857035
-6.2965384 1.7102185 1.9982567
-6.2892075 1.6853392 1.9848294
-6.2869854 1.6824834 1.9996153
-6.3036156 1.6828498 1.9975812
-6.2957625 1.6628734 1.9873126
-6.2901344 1.6657293 1.9971939
-6.2976923 1.6511371 1.9854192
-6.3124948 1.6482176 1.9828262
-6.3001103 1.6308357 1.9864672
-6.2999897 1.6173166 1.9939131
-6.3168964 1.6092044 1.9915025
-6.321238 1.6107775 1.9930067
-6.318994 1.5969145 1.9804524
-6.3219523 1.5887505 1.9970651
-6.326932 1.5707569 1.982505
-6.3221679 1.5606964 1.9996079
-6.3275104 1.5653706 1.990929
-6.3246155 1.5575228 1.9881438
-6.3243008 1.5443274 1.9967935
-6.3203325 1.5335082 1.9807439
-6.3289065 1.5280257 1.985405
-6.3398786 1.5204332 1.9804652
-6.3293343 1.5173032 1.9904916
-6.3313313 1.4934218 1.9811863
-6.3367038 1.4867549 1.9827228
-6.3366237 1.4870338 1.983037
-6.3394284 1.4641399 1.9968669
-6.3508997 1.4662985 1.9916935
-6.3451438 1.4509166 1.9821721
-6.3507261 1.4416353 1.9906821
-6.3523455 1.4459003 1.9825631
-6.3492908 1.4213014 1.9957079
-6.3511639 1.4293424 1.9945821
-6.3629985 1.4174693 1.998437
-6.3641257 1.4022946 1.9844903
-6.3637037 1.3892584 1.9996904
-6.3629556 1.3754635 1.9808677
-6.3683648 1.3722311 1.9930773
-6.3589349 1.356776 1.9987814
-6.379014 1.3577479 1.9840838
-6.3705711 1.3390971 1.9825335
-6.3702345 1.3454849 1.9852691
-6.3767405 1.3319713 1.9849335
-6.3843598 1.328583 1.9816153
-6.3881121 1.3060145 1.9920157
-6.3857985 1.3058025 1.9982758
-6.3882723 1.2882611 1.9996396
-6.3895564 1.2872201 1.9866724
-6.3786182 1.2775065 1.9871541
-6.3819637 1.2695985 1.9975144
-6.3799939 1.2520063 1.9981331
-6.3995624 1.2566109 1.9940513
-6.3963828 1.2365571 1.9853705
-6.3935261 1.2307191 1.9822185
-6.3939753 1.2229519 1.9854175
-6.4040112 1.2193086 1.9973266
-6.4077749 1.2149897 1.9806191
-6.4101624 1.1911722 1.9917977
-6.4055042 1.1800659 1.9821923
-6.400352 1.1873747 1.9936111
-6.4048271 1.1784014 1.9963722
-6.4086709 1.1515952 1.9926749
-6.416584 1.1496922 1.9978634
-6.4131651 1.1523565 1.9861555
-6.4128861 1.1362702 1.9956248
-6.4093957 1.1318336 1.9903972
-6.4139833 1.1253066 1.9897997
-6.415266 1.0980532 1.9943361
-6.4253573 1.0971063 1.9967196
-6.4250417 1.0829477 1.9953679
-6.4132948 1.0859374 1.9940009
-6.4187741 1.0666941 1.9947883
-6.4279385 1.0611362 1.9826351
-6.4319015 1.0605831 1.9821112
-6.4275603 1.0418824 1.9944681
-6.4337368 1.0282334 1.9913574
-6.4251285 1.0315453 1.9906914
-6.4371052 1.0151103 1.9917456
-6.4245329 1.0101072 1.9808286
-6.4295645 1.0069306 1.984731
-6.435935 0.99699932 1.9806027
-6.4436603 0.98307449 1.9862134
-6.4305854 0.98145884 1.9952503
-6.4496512 0.95734084 1.9927202
-6.4492283 0.95901269 1.9804778
-6.4364362 0.93594354 1.9835764
-6.4467421 0.94290596 1.9989792
-6.4377012 0.91930252 1.9869411
-6.4475937 0.90966952 1.9988961
-6.4483905 0.9163906 1.9966726
-6.4452724 0.89811385 1.993518
-6.44627 0.89347243 1.9854405
-6.4616442 0.88325369 1.9847511
-6.447969 0.87530446 1.9889494
-6.456811 0.86910099 1.9838271
-6.4578834 0.85699999 1.9846451
-6.4558439 0.85589099 1.9814368
-6.4583898 0.84510785 1.983638
-6.4529605 0.82570487 1.9852211
-6.455564 0.82676512 1.9825419
-6.4603782 0.81219083 1.9906044
-6.4683342 0.79785383 1.9830455
-6.4643555 0.78936487 1.9942895
-6.4610534 0.77576095 1.9866079
-6.4735403 0.77451187 1.981748
-6.471137 0.77337521 1.993814
-6.4679027 0.75544971 1.9937994
-6.4678645 0.75613803 1.9920319
-6.4656124 0.74340206 1.9998931
-6.4617643 0.72919697 1.9978479
-6.4805827 0.7112993 1.9902632
-6.6677828 0.72777534 1.96648
-6.6661019 0.7278313 1.954144
-6.6731639 0.71227312 1.9572436
-6.6678948 0.70529908 1.9681351
-6.6674724 0.70178699 1.9669325
-6.6749711 0.68255484 1.9568484
-6.6824713 0.68439436 1.956498
-6.6717262 0.66950673 1.9524586
-6.6731067 0.65947521 1.9632624
-6.6765189 0.65162051 1.9652183
-6.6875033 0.63400501 1.9514803
-6.8681183 0.63727123 1.936227
-6.8843231 0.63598579 1.9256417
-6.8774147 0.62094325 1.9374119
-6.879601 0.62728369 1.9350009
-6.882977 0.60707301 1.92269
-6.8764234 0.60029674 1.9215522
-6.8902068 0.58518732 1.9348614
-6.8880157 0.58960599 1.9274755
-6.8750081 0.57150757 1.921572
-6.8800306 0.5633074 1.9273918
9.4434834 -4.986588 1.3405529
9.4481115 -4.9703031 1.3491077
9.4421358 -4.9662304 1.332237
9.4679127 -4.9434791 1.3513248
9.4712591 -4.9432507 1.3398215
9.4622765 -4.9156303 1.3511623
9.4721384 -4.9009686 1.3370155
9.4952898 -4.9033041 1.3369101
9.4910374 -4.8918333 1.3483304
9.5008631 -4.8646007 1.3411756
9.4964905 -4.8553438 1.3324598
9.5123234 -4.8484182 1.3468615
9.5166922 -4.8344092 1.3321583
9.5241718 -4.8215466 1.3470197
9.5307217 -4.8122416 1.3489122
9.5457487 -4.7988048 1.3452185
9.5520983 -4.7823739 1.342971
9.544282 -4.7696404 1.3451623
9.5563421 -4.7479897 1.345589
9.559804 -4.7433257 1.3400038
9.5760918 -4.7298284 1.3504212
9.5836458 -4.7072735 1.3345003
9.5855827 -4.6871057 1.3393152
9.5927982 -4.6861968 1.3437101
9.5948553 -4.6654582 1.344118
9.5987873 -4.656394 1.3446614
9.6190062 -4.6476626 1.3483245
9.6169596 -4.6334109 1.3514012
9.6170845 -4.6137447 1.3427992
9.6376181 -4.5972438 1.3455225
9.6325474 -4.591063 1.3483953
9.6378756 -4.5839176 1.3404659
9.6472645 -4.5614066 1.3393375
9.6614485 -4.5582323 1.3457426
9.6600094 -4.5395346 1.3395015
9.6789589 -4.5234203 1.348931
9.6784334 -4.5135827 1.333689
9.6815519 -4.49227 1.3392864
9.6877289 -4.4772911 1.3511291
9.7052841 -4.4682188 1.3460428
9.7055435 -4.4506383 1.3336984
9.7086582 -4.4341321 1.3350513
9.7238235 -4.4346218 1.3454584
9.7178421 -4.4072924 1.3455735
9.7182465 -4.4077482 1.3509119
9.7323904 -4.3955827 1.3388811
9.7359457 -4.3702512 1.3431952
9.7442389 -4.3680911 1.3353207
9.758112 -4.3460259 1.3489153
9.7638073 -4.3326578 1.3380636
9.7643986 -4.325263 1.3512648
9.7726259 -4.3009691 1.3474357
9.7821865 -4.2877049 1.3495721
9.782136 -4.2866001 1.3454847
9.7821817 -4.2712483 1.347379
9.7875462 -4.2478914 1.3478683
9.8008614 -4.2270994 1.3401097
9.7984715 -4.2241149 1.3409232
9.8081875 -4.2133403 1.3502054
9.8114786 -4.2029328 1.339251
9.8239002 -4.1779785 1.3420781
9.8295031 -4.1708226 1.3355775
9.8312578 -4.1601119 1.3487105
9.8351297 -4.1354389 1.3493103
9.8548946 -4.1166887 1.3316149
9.8565359 -4.1185231 1.343621
9.8586464 -4.0929732 1.3427554
9.8729792 -4.0757241 1.3512025
9.8681068 -4.0746512 1.3367442
9.8724966 -4.0561595 1.3390052
9.8859129 -4.0511007 1.3325237
9.8821373 -4.0262737 1.3394935
9.8918419 -4.0255075 1.3434615
9.89466 -4.0066662 1.3383814
9.8980589 -3.9938366 1.3383224
9.9037428 -3.9651248 1.3426918
9.9214144 -3.9600413 1.3388662
9.9182005 -3.9463449 1.3385364
9.9234142 -3.943222 1.3455185
9.9341497 -3.9213908 1.3372232
9.9271278 -3.9118054 1.3402097
9.9336052 -3.8916388 1.3342384
9.947032 -3.8873913 1.3352402
9.9444084 -3.8659303 1.341283
9.9566851 -3.8466561 1.3463469
9.9688826 -3.8272638 1.3463061
9.9654312 -3.8157477 1.3375249
9.9781342 -3.8129733 1.3486083
9.9704885 -3.7904932 1.3489748
9.9898043 -3.7827661 1.3373257
9.9808064 -3.7675309 1.3414072
9.9947758 -3.7512691 1.3317928
10.002753 -3.7470109 1.3325558
10.011714 -3.7307887 1.3409021
10.006698 -3.7076821 1.3346374
10.006726 -3.6977503 1.3338722
10.026693 -3.6766241 1.3507229
10.01786 -3.668129 1.3364406
10.040092 -3.6525948 1.350723
10.04267 -3.6430395 1.33881
10.033579 -3.6277583 1.3482021
10.048551 -3.6037648 1.3399187
10.053887 -3.5970304 1.3419489
10.059969 -3.5865533 1.3462493
10.054376 -3.5662906 1.3396972
10.062499 -3.5511789 1.3491102
10.069838 -3.5412583 1.3456758
10.074007 -3.5253105 1.3367556
10.083875 -3.5122521 1.3493816
10.088005 -3.5017166 1.3375676
10.100203 -3.485353 1.3470323
10.101772 -3.47908 1.3464811
10.095039 -3.4525118 1.3386477
10.110317 -3.4448855 1.347268
10.109875 -3.427855 1.3421204
10.122862 -3.407685 1.338047
10.125241 -3.4051406 1.3498497
10.124167 -3.3833711 1.3435488
10.134153 -3.3766589 1.3362478
10.136745 -3.3507216 1.3454174
10.147504 -3.3374722 1.3368784
10.147707 -3.3275189 1.3405337
10.147339 -3.3091447 1.3366715
10.159119 -3.3003197 1.3463432
10.159498 -3.2967436 1.3389461
10.15471 -3.2649682 1.3376133
10.16583 -3.2555807 1.3447125
10.168732 -3.2520154 1.3394619
10.185312 -3.2231925 1.3467978
10.174573 -3.2164862 1.3459386
10.192984 -3.2037106 1.3441896
10.182835 -3.1954007 1.3382486
10.196321 -3.1721082 1.3365296
10.205926 -3.1616662 1.3494772
10.205183 -3.1554546 1.3318361
10.197022 -3.1386209 1.3317989
10.20751 -3.1152384 1.3469715
10.225076 -3.1135049 1.3315252
10.217372 -3.099721 1.3507113
10.216984 -3.0811875 1.3424067
10.235716 -3.0687354 1.3326747
10.23268 -3.0509033 1.337043
10.243683 -3.0240362 1.3504882
10.232946 -3.011996 1.3401535
10.255138 -3.0051115 1.3418025
10.259668 -2.9907792 1.346051
10.433846 -3.0256267 1.3085434
10.453549 -3.0117011 1.3094212
10.457786 -3.0098121 1.3098304
10.651123 -3.0471234 1.2836163
10.646276 -3.0352304 1.2864879
10.651676 -3.0106463 1.2729211
10.661424 -2.9993122 1.271945
10.854833 -3.0363848 1.2578285
10.847724 -3.0217755 1.2472064
10.862243 -3.0068288 1.2566223
10.860989 -2.9915817 1.2521851
11.063636 -3.0332363 1.2162045
11.056682 -3.0222237 1.2184342
11.070114 -2.9919987 1.2232692
11.258959 -3.0424411 1.1942457
11.259976 -3.0198655 1.1858448
11.267405 -2.9917452 1.1939125
11.464799 -3.0354121 1.1525757
11.46806 -3.0193808 1.1616037
11.480676 -3.0130455 1.1504295
11.673861 -3.0421343 1.1284497
11.67148 -3.013037 1.1329273
11.683994 -3.0151191 1.132985
11.870098 -3.0371463 1.0969316
11.889701 -3.0158176 1.0974654
11.891154 -2.9977033 1.0848587
12.07577 -3.0447431 1.0537517
12.076912 -3.0209002 1.0649245
12.087591 -2.9980333 1.056128
12.279062 -3.0343342 1.026762
12.287615 -3.0249794 1.033169
12.285061 -3.002244 1.0323882
12.498946 -3.0379767 1.002336
12.500945 -3.0161471 0.9940325
12.497765 -2.998955 1.0104878
12.687273 -3.0304868 0.97758317
12.692034 -3.0069523 0.98032767
12.888869 -3.0319383 0.93916172
12.904609 -3.0247655 0.93489963
12.911526 -3.0020993 0.94503945
13.092446 -3.0197327 0.91649514
13.107315 -2.9992411 0.90443766
-6.0000582 3.0261099 2.0008283
-6.0036821 3.0247402 2.0116234
-6.0095716 3.0160861 2.0070908
-6.0001192 3.0137472 2.0162077
-6.0160971 2.9932797 2.0071733
-6.0126295 3.0006201 2.0170202
-6.0279708 2.9848034 2.0005574
-6.018311 2.9781961 2.0076261
-6.0370169 2.9602814 2.0076866
-6.0268888 2.9686346 2.0042794
-6.0336037 2.94753 2.0057616
-6.0354686 2.9470129 2.0142648
-6.0465264 2.9248064 2.0025103
-6.0421052 2.9162397 2.0168192
-6.0485554 2.9158719 1.9990691
-6.0640278 2.9031358 2.0170732
-6.0696421 2.8992116 2.0076804
-6.0717068 2.8890884 2.0001061
-6.0666909 2.8843889 2.0030484
-6.0816031 2.8739347 2.0027809
-6.0799103 2.8608718 2.0098522
-6.0767236 2.8500381 2.0048549
-6.085022 2.8522286 2.0061052
-6.0850625 2.8429108 2.0072494
-6.0907826 2.8312016 2.0164909
-6.0942407 2.8280668 2.0014682
-6.0996828 2.8233531 2.0109985
-6.1145058 2.8005977 1.998888
-6.1168914 2.8068693 2.0105662
-6.1163225 2.7822287 2.0002844
-6.1160092 2.7832682 2.0054393
-6.128613 2.7714703 2.0082653
-6.1262016 2.7553384 2.0017927
-6.1225281 2.7631178 2.0145183
-6.1376987 2.7491176 2.0040565
-6.1436157 2.7355876 1.9989867
-6.1445432 2.7205317 2.0177362
-6.1359286 2.7145576 2.0022683
-6.1394129 2.7100909 2.0016158
-6.151206 2.7100735 2.0048714
-6.1532698 2.6942382 2.0177212
-6.170166 2.6896565 2.007333
-6.1642246 2.6713307 2.009378
-6.1647439 2.6605115 2.0077729
-6.1725254 2.6583428 2.0007436
-6.1707563 2.6540663 2.0087655
-6.1740456 2.6526594 2.0103183
-6.1785727 2.6436522 2.0144889
-6.178556 2.6349342 2.0027897
-6.1991796 2.6181839 1.9996758
-6.1965356 2.6031194 2.0093343
-6.2010293 2.5948956 2.0030239
-6.1958995 2.5963385 2.0070057
-6.2087126 2.5809753 2.0087919
-6.2031188 2.581532 2.0170376
-6.2045417 2.5675461 2.0096409
-6.2179308 2.5539489 2.0094759
-6.2097549 2.539489 2.0089476
-6.2173967 2.5486989 2.0083506
-6.2167249 2.520926 1.9996575
-6.2391553 2.5194263 2.0045593
-6.231915 2.5170493 2.0099013
-6.2309728 2.5034068 2.0053558
-6.2460365 2.5005438 2.0141215
-6.2393022 2.4868553 2.0121231
-6.2443094 2.475312 2.0048237
-6.2567019 2.4739358 2.0126159
-6.2492466 2.4642797 2.014643
-6.2623076 2.4505138 2.0145791
-6.2559533 2.4409397 2.0154467
-6.2582798 2.4324429 2.0035236
-6.2756925 2.4346821 2.0179377
-6.2677507 2.4213469 2.0074279
-6.2643423 2.416419 2.0027792
