# .PCD v0.7 - Point Cloud Data file format
VERSION 0.7
FIELDS x y z
SIZE 4 4 4
TYPE F F F
COUNT 1 1 1
WIDTH 1572
HEIGHT 1
VIEWPOINT 0 0 0 1 0 0 0
POINTS 1572
DATA ascii
5.4227414 2.4835773 1.3083355
5.4174824 2.489197 1.3038328
5.4282413 2.4921906 1.2963179
5.4232268 2.5064354 1.3069818
5.420331 2.5187378 1.3019189
5.4227557 2.5307691 1.294425
5.4136968 2.5386879 1.3042269
5.3984323 2.5466516 1.3017477
5.4063578 2.5481308 1.3003074
5.3920741 2.5637431 1.2951183
5.4020534 2.553515 1.3016597
5.3963723 2.5614867 1.3062552
5.386178 2.5836868 1.3062832
5.3884587 2.5843525 1.293
5.3813925 2.5856128 1.304468
5.3692532 2.5927982 1.3004211
5.3696094 2.6144364 1.2967514
5.3797569 2.624332 1.293509
5.3674145 2.6256855 1.3042141
5.353622 2.6362982 1.3030049
5.3546295 2.6404438 1.3040458
5.3621683 2.6424723 1.3055419
5.3542919 2.657881 1.3017265
5.3464332 2.6591554 1.29107
5.3452806 2.6769586 1.2941719
5.3355861 2.6662283 1.2969627
5.3418341 2.6794705 1.2939003
5.3244019 2.686487 1.2932466
5.3237171 2.7047985 1.3064651
5.3337269 2.7129645 1.30282
5.3225174 2.7057965 1.2958491
5.3123384 2.7098355 1.3034406
5.3236446 2.729677 1.2989799
5.3111258 2.7253487 1.3083376
5.3079395 2.7435679 1.308048
5.3078451 2.7558024 1.3095827
5.2905312 2.7580054 1.2969192
5.2901449 2.7665067 1.3038371
5.289094 2.7780645 1.3016365
5.2812519 2.7833834 1.3001773
5.2897539 2.7812545 1.3041308
5.2712746 2.7927184 1.3047091
5.2803769 2.7992716 1.29772
5.2650084 2.8170986 1.2989992
5.2589869 2.8155425 1.2910994
5.272666 2.8177056 1.3080413
5.2678695 2.8263783 1.2997985
5.2503991 2.8384986 1.2926748
5.2598362 2.8534126 1.309732
5.2470627 2.8443387 1.3047366
5.2528195 2.8676319 1.3102463
5.2425199 2.8763211 1.2998594
5.2327881 2.8779981 1.3086705
5.2360573 2.888202 1.3079586
5.2205954 2.8962903 1.2983463
5.2172236 2.9019737 1.3035582
5.2107835 2.9067869 1.3101096
5.2160907 2.9180665 1.3014535
5.2142639 2.9227297 1.3003888
5.2094841 2.9185765 1.3029335
5.1996984 2.9241476 1.30146
5.1954126 2.9433963 1.30137
5.2007303 2.9369009 1.2956568
5.1948481 2.9576724 1.2928528
5.1882443 2.96699 1.2908481
5.192018 2.9769537 1.3072436
5.180994 2.9845059 1.3011745
5.1765108 2.9814031 1.2991127
5.1633615 2.9805222 1.2944478
5.1691375 2.99892 1.2983688
5.1574483 3.0116012 1.3006058
5.1642752 3.0040755 1.2948421
5.1510024 3.0259562 1.2953392
5.1520061 3.0260539 1.3093699
5.1501961 3.0236571 1.3054857
5.1463709 3.0491533 1.3043391
5.1389318 3.0477545 1.3035235
5.1254129 3.0460119 1.2923906
5.1298227 3.0552695 1.2931674
5.1295576 3.0744627 1.3051387
5.1132035 3.0661356 1.3025937
5.1190763 3.0888157 1.3053313
5.1191754 3.082412 1.3027638
5.099762 3.101212 1.2931141
5.0943694 3.1024113 1.2938933
5.105082 3.1040051 1.2930006
5.0946388 3.1223891 1.3035467
5.0833697 3.1314943 1.3051939
5.0809579 3.1292584 1.3089482
5.0793128 3.131017 1.304751
5.0696297 3.1406908 1.3050885
5.0773911 3.1605172 1.3009734
5.0678806 3.164732 1.3033282
5.0557928 3.1738324 1.2973623
5.0540452 3.1818492 1.3054811
5.0530667 3.1848981 1.3080853
5.0511861 3.1818326 1.3019711
5.0398417 3.1918371 1.2978655
5.0501347 3.2037785 1.3044338
5.0441718 3.2184336 1.3056765
5.0340023 3.2077739 1.3095149
5.0241604 3.2292542 1.3061074
5.0301938 3.2256122 1.2998489
5.0185719 3.2342803 1.2956312
5.0209746 3.245609 1.2923766
5.0114861 3.2603772 1.3051237
5.0045924 3.2576923 1.3077638
4.9915743 3.2681005 1.2933735
4.994441 3.2732487 1.3038956
4.9838667 3.2768912 1.3020504
4.994525 3.2948313 1.3025289
4.9890118 3.287406 1.2974777
4.980082 3.3105004 1.3017806
4.9648838 3.306469 1.3077542
4.9654579 3.3093462 1.2980651
4.9627681 3.3272505 1.296159
4.9528155 3.3227863 1.3045896
4.9454937 3.3298395 1.296456
4.9437714 3.3443041 1.3065046
4.9525619 3.3527486 1.2932364
4.9394975 3.3564157 1.2909547
4.9269018 3.3591437 1.294301
4.9292459 3.3775253 1.2938012
4.935883 3.3853018 1.302336
4.928484 3.3782556 1.3068203
4.911386 3.393132 1.3022878
4.9123731 3.4026783 1.3063766
4.9017806 3.4095342 1.2906102
4.9030452 3.4193096 1.3024067
4.8943491 3.4225266 1.2957524
4.892375 3.4173398 1.3058765
4.8881097 3.424228 1.2918464
4.8871813 3.4381397 1.3093221
4.8857431 3.443378 1.3077053
5.0297713 3.5569501 1.2370329
5.0211782 3.5673184 1.2495277
5.0280433 3.5833917 1.2447194
5.0189872 3.5936 1.2399242
5.0141549 3.5898101 1.2380682
5.0011091 3.6020703 1.2525996
5.0014 3.5971127 1.2551215
4.9918046 3.6126554 1.2377152
4.9881697 3.6120446 1.2474111
4.9820004 3.6347806 1.2355425
5.12958 3.7426121 1.1842692
5.126091 3.7538123 1.1915027
5.135087 3.7568455 1.1878076
5.1192641 3.7758007 1.1873264
5.1186366 3.7749114 1.1960676
5.1161432 3.7859738 1.1900885
5.108171 3.7823341 1.1921781
5.1027107 3.794116 1.1828437
5.0998344 3.8072896 1.1859388
5.0866442 3.8193305 1.1848174
5.2353544 3.9239941 1.1362212
5.2339878 3.935225 1.1268165
5.2198448 3.9406755 1.1332971
5.2219963 3.9555371 1.1315922
5.2236567 3.9550145 1.1418644
5.2140479 3.977252 1.1360732
5.1984501 3.9767807 1.1395235
5.2049313 3.9761229 1.1276444
5.2020683 3.9978719 1.141835
5.3346081 4.1090193 1.0858229
5.3335347 4.1233177 1.08716
5.3390012 4.1217241 1.0724317
5.315053 4.1314712 1.0758653
5.317575 4.1488638 1.0868793
5.3183818 4.1534214 1.0700976
5.3094501 4.1538854 1.0882877
5.2947173 4.1642756 1.0787487
5.4544225 4.2856717 1.0261549
5.4310737 4.3109708 1.0232146
5.441905 4.3020468 1.0268915
5.4318609 4.3177781 1.0174276
5.4231429 4.3247156 1.0189384
5.4196863 4.3334541 1.022773
5.4196525 4.3304749 1.0165852
5.4106221 4.3540721 1.0275478
5.5544591 4.4751868 0.97642791
5.5466475 4.4869003 0.96345401
5.5292864 4.4931211 0.96550375
5.5344677 4.5019712 0.96526712
5.5166979 4.5076408 0.96852928
5.522594 4.5092645 0.95995408
5.5190153 4.5281796 0.97075588
5.4969368 4.5296574 0.96274424
-0.71778786 3.5899642 1.9568529
-0.72091234 3.5857704 1.9543802
-0.73307276 3.5818071 1.9648272
-0.7412048 3.5762649 1.9592605
-0.74230927 3.5796044 1.9721965
-0.74136251 3.5743787 1.9662728
-0.74065095 3.5776474 1.9583179
-0.75667572 3.5730877 1.9642944
-0.76127416 3.5712354 1.9615027
-0.75506938 3.5736017 1.9525144
-0.77687478 3.5840206 1.9633347
-0.77721339 3.5763049 1.9709831
-0.78002322 3.5814168 1.9556971
-0.79238439 3.5833836 1.9559044
-0.79031086 3.569231 1.9604939
-0.79529983 3.5810091 1.9609073
-0.8062107 3.5784812 1.9656461
-0.80507499 3.5649095 1.9668888
-0.81796116 3.5717185 1.9673498
-0.8136375 3.5697103 1.9712543
-0.81830049 3.570873 1.9666624
-0.83214158 3.5566721 1.9554461
-0.83833259 3.5646346 1.9704401
-0.83980805 3.5652077 1.9685062
-0.84107447 3.5528247 1.9535321
-0.83774984 3.5604215 1.9714552
-0.85401011 3.5620747 1.9679765
-0.84552985 3.5498288 1.972059
-0.85580522 3.5496609 1.9640906
-0.86561799 3.5587792 1.955261
-0.87152445 3.5481954 1.9687481
-0.88202113 3.5487294 1.969195
-0.88373238 3.5480301 1.9587723
-0.89044785 3.5508111 1.9700975
-0.87909555 3.5572801 1.9702214
-0.90271562 3.5520263 1.9591305
-0.88841087 3.5554633 1.9708883
-0.89758301 3.5523298 1.9716027
-0.90267086 3.5438685 1.9533585
-0.91572529 3.5505404 1.965449
-0.91760749 3.5362499 1.9681785
-0.92600083 3.5364053 1.9526722
-0.93394542 3.5397904 1.9577037
-0.93231082 3.541399 1.96676
-0.93934923 3.5392973 1.9635361
-0.946262 3.538511 1.9563162
-0.94426364 3.5369632 1.9537978
-0.95050579 3.5311754 1.9694173
-0.95603162 3.5252302 1.957854
-0.95979965 3.5311589 1.9542478
-0.97147536 3.5201321 1.9576434
-0.98041964 3.5256367 1.9624935
-0.98486829 3.52812 1.9720346
-0.98428363 3.517159 1.9644971
-0.99464059 3.5240791 1.9561775
-0.98821956 3.5290039 1.9683982
-0.98901647 3.5208428 1.9604046
-0.99232984 3.5113535 1.9679637
-1.0000217 3.5212502 1.9709245
-1.0192748 3.512289 1.9611681
-1.0221323 3.5165603 1.9617459
-1.021592 3.5167935 1.9691961
-1.0161997 3.5174825 1.9605042
-1.0212643 3.5036588 1.9622329
-1.0338644 3.5043786 1.95227
-1.0347821 3.5164177 1.9686271
-1.0434769 3.512557 1.9582251
-1.0601634 3.5102773 1.9597428
-1.0492886 3.5051985 1.9525728
-1.055451 3.5057573 1.9578643
-1.0713677 3.5083475 1.9688565
-1.0667046 3.4963646 1.9615182
-1.0745891 3.4946587 1.9563119
-1.0711634 3.4927709 1.9587319
-1.0860069 3.5031638 1.9633281
-1.0908111 3.4975178 1.9614275
-1.099256 3.4880533 1.957136
-1.0981009 3.4867771 1.9720423
-1.0954258 3.4812481 1.9633539
-1.0999187 3.4944272 1.956715
-1.1191177 3.4765577 1.9541638
-1.1273226 3.4882178 1.9611342
-1.1228634 3.4768574 1.9679099
-1.1236082 3.4737849 1.9543159
-1.1419309 3.4807286 1.9526397
-1.1356552 3.467726 1.966849
-1.1512779 3.4711342 1.9531323
-1.1511897 3.480551 1.9596845
-1.156193 3.477494 1.9622598
-1.1498826 3.4747934 1.9595727
-1.1702087 3.4777408 1.9605819
-1.1730837 3.4773281 1.9548235
-1.1689861 3.4662173 1.9592837
-1.1781104 3.4592018 1.9622573
-1.1808263 3.4587018 1.9537673
-1.1852162 3.4693139 1.9538741
-1.1953945 3.4691367 1.9589951
-1.1992872 3.4538791 1.9551458
-1.1966252 3.4584475 1.9698592
-1.2113857 3.4541533 1.9634985
-1.2088308 3.4543579 1.9617182
-1.2052643 3.4565096 1.9611652
-1.2274539 3.4475791 1.971148
-1.2251809 3.4543421 1.9557687
-1.2199318 3.4432046 1.9615498
-1.2431704 3.4524906 1.9596095
-1.2462996 3.436409 1.9591656
-1.2443055 3.4412434 1.9651445
-1.2461582 3.4335458 1.957379
-1.2532951 3.4358916 1.9670129
-1.2667902 3.4255936 1.9585516
-1.262063 3.4436612 1.9539493
-1.2578865 3.424336 1.9621305
-1.2637247 3.4320781 1.9587952
-1.2849395 3.4298611 1.9660498
-1.280371 3.4291949 1.9643242
-1.2777401 3.4301865 1.9682579
-1.2955506 3.4179571 1.9587731
-1.2873796 3.4286571 1.9633449
-1.3069717 3.4170001 1.9720231
-1.2969272 3.416625 1.9721708
-1.3153415 3.4057519 1.9721603
-1.3183554 3.4038277 1.9546053
-1.3131857 3.4208353 1.9665798
-1.3313485 3.4013951 1.9581313
-1.3222543 3.4112885 1.9708176
-1.334883 3.4085751 1.966303
-1.3435755 3.4128108 1.971373
-1.34175 3.4099748 1.9689636
-1.3553501 3.3923016 1.9567245
-1.3602694 3.389425 1.9659445
-1.3650383 3.3928838 1.9661322
-1.3698151 3.3980756 1.9662429
-1.3721441 3.3931816 1.9652152
-1.362496 3.3948665 1.9666078
-1.3812937 3.3903849 1.9597611
-1.3874024 3.3780115 1.9720746
-1.378023 3.3816795 1.9705045
-1.3835709 3.3919044 1.9679856
-1.3915255 3.3732579 1.969687
-1.3917164 3.3744183 1.9704121
-1.4026845 3.3755333 1.9565028
-1.4134622 3.3765924 1.9696989
-1.4241263 3.3800404 1.959921
-1.4158155 3.3778522 1.9537549
-1.4261092 3.3615789 1.9650404
-1.4232469 3.3639071 1.9658924
-1.4280682 3.360322 1.9523588
-1.4344567 3.3558936 1.9710032
-1.4433615 3.3682127 1.9529607
-1.450562 3.3650398 1.9580449
-1.4570345 3.3555956 1.9662168
-1.4574134 3.3600671 1.957427
-1.4645935 3.3585656 1.9540713
-1.4615484 3.3500628 1.9705197
-1.4646668 3.355952 1.9526938
-1.4764967 3.3493857 1.9592017
-1.4874717 3.3426783 1.9641365
-1.4919775 3.334259 1.9666617
-1.4978358 3.341609 1.9635309
-1.5017337 3.3464301 1.9592593
-1.5005445 3.329447 1.9675815
-1.5111805 3.3367505 1.9624201
-1.5106033 3.3415368 1.9578083
-1.513379 3.334028 1.9667517
-1.5197033 3.328058 1.9636484
-1.5238504 3.3349121 1.9560498
-1.5214868 3.3154426 1.9638209
-1.5341852 3.3161156 1.9652566
-1.5443555 3.3155758 1.9561327
-1.5376534 3.3157806 1.9539264
-1.5352201 3.3218141 1.9568405
-1.5444615 3.3218484 1.9691679
-1.5588614 3.3070936 1.968398
-1.5578698 3.3141937 1.9622419
-1.5679319 3.2995975 1.952245
-1.5610942 3.305479 1.9712379
-1.581852 3.2983458 1.9529035
-1.5748355 3.3031332 1.9573907
-1.5863804 3.3023663 1.9634932
-1.587046 3.2929139 1.971962
-1.5899148 3.2905049 1.9686322
-1.5898663 3.2834613 1.9675112
-1.5974873 3.2866216 1.9538162
-1.6058751 3.2953742 1.9694085
-1.6004159 3.2786622 1.9525985
-1.6049504 3.2733827 1.9638699
-1.6104889 3.2719369 1.9702148
-1.6143585 3.2820959 1.9635602
-1.6337378 3.2652955 1.9583578
-1.6270114 3.2724116 1.9659292
-1.631813 3.2612381 1.9533235
-1.6399412 3.2746892 1.9559128
-1.6491871 3.2650921 1.9639074
-1.6521249 3.271677 1.9629059
-1.6594671 3.2682879 1.9674504
-1.6636161 3.2649274 1.9689794
-1.6564904 3.2605891 1.9713331
-1.6630164 3.2569382 1.9661229
-1.676194 3.258462 1.9663955
-1.6745704 3.2512629 1.9560738
-1.6853724 3.2438099 1.9568747
-1.6887767 3.252773 1.953429
-1.6895884 3.2370315 1.962695
-1.7024021 3.2428899 1.9608608
-1.6962141 3.2459409 1.9579589
-1.7054782 3.2293744 1.9540246
-1.71321 3.224462 1.9680858
-1.7185845 3.2375484 1.9608365
-1.7091662 3.2219789 1.9574578
-1.7194717 3.2325513 1.969233
-1.7200956 3.2168369 1.9559146
-1.7399153 3.2222302 1.9539249
-1.7431773 3.2113202 1.9585657
-1.7371699 3.2121015 1.9714432
-1.752993 3.203573 1.9697564
-1.7517147 3.210279 1.953894
-1.7543675 3.2137482 1.9555161
-1.7629554 3.1963348 1.952628
-1.7587893 3.2128286 1.9565803
-1.7579983 3.2035017 1.953521
-1.7654288 3.1980329 1.9571695
-1.7861741 3.1972227 1.9686399
-1.7889056 3.1976254 1.9716349
-1.786993 3.1885073 1.9578524
-1.7921993 3.1880343 1.9579887
-1.7990888 3.1933045 1.9672844
-1.8018373 3.1803832 1.9625093
-1.8029602 3.1833317 1.9627868
-1.8069675 3.1749012 1.9620302
-1.8070191 3.1717124 1.9544252
-1.8101264 3.1655409 1.963836
-1.8295817 3.1630683 1.9549274
-1.8175631 3.1623046 1.9689189
-1.8225459 3.1678908 1.9562956
-1.8413075 3.1727042 1.9657089
-1.8399292 3.1550584 1.9629078
-1.8492516 3.1590908 1.9697075
-1.8433456 3.1464233 1.9619838
-1.8571583 3.1541681 1.9683638
-1.8517241 3.1462774 1.9540955
-1.8538913 3.1396918 1.9562024
-1.8666439 3.1380601 1.9583893
-1.8683015 3.1328523 1.9623715
-1.875964 3.1470635 1.9545051
-1.8762461 3.1469114 1.9540234
-1.8871113 3.1325321 1.9584733
-1.8807738 3.1332214 1.969539
-1.887633 3.1242044 1.9705269
-1.9022121 3.1257584 1.9618555
-1.8904076 3.1171267 1.9678954
-1.9128675 3.1307046 1.9699577
-1.9132169 3.1159029 1.9530025
-1.9113758 3.1238127 1.9534596
-1.9255486 3.1084256 1.9707545
-1.9275841 3.1171186 1.9705297
-1.9300973 3.0993044 1.9585643
-1.9281571 3.1121826 1.9699328
-1.9351473 3.1025524 1.9549352
-1.9411458 3.1026902 1.9641483
-1.9358119 3.0989761 1.9673929
-1.9444344 3.097142 1.9668844
-1.9509907 3.0992942 1.954249
-1.9544984 3.0876203 1.9722046
-1.9575452 3.086102 1.9574604
-1.9632932 3.0868731 1.9541023
-1.9692621 3.0894518 1.9556293
-1.9671926 3.0782883 1.95274
-1.9737507 3.0844481 1.9629318
-1.9753026 3.0689189 1.9559788
-1.9876375 3.06303 1.9680351
-1.9967239 3.0728204 1.9609866
-1.9863149 3.060353 1.9588258
-1.9885374 3.0686724 1.9677324
-1.9928004 3.0582356 1.9578682
-2.0118036 3.0463378 1.9715286
-2.0141611 3.0527542 1.9705272
-2.0149875 3.0455191 1.9611276
-2.0186994 3.0560014 1.9606591
-2.0322154 3.0492029 1.9674391
-2.0326805 3.0343375 1.9711132
-2.0410855 3.0346491 1.9673672
-2.0365348 3.0296295 1.9539491
-2.0341408 3.0266433 1.9716514
-2.0428364 3.0236461 1.9617243
-2.0413921 3.0258937 1.9627125
-2.0462835 3.0300281 1.9529362
-2.0521722 3.0175762 1.9587495
-2.0674562 3.0256488 1.9578761
-2.063205 3.0244374 1.9530411
-2.0721698 3.0069895 1.9561832
-2.0774562 3.0053608 1.9624857
-2.0864847 3.0125034 1.9666232
-2.0889273 3.0062563 1.9706348
-2.0936635 2.9955261 1.9545157
-2.0883224 2.9904487 1.9635165
-2.1019893 3.0046842 1.9595295
-2.1054285 2.9972315 1.9659748
-2.10305 2.9986911 1.9633824
-2.1015408 2.9885943 1.9624743
-2.1048627 2.973721 1.9670199
-2.1250381 2.9777453 1.9528445
-2.118907 2.9769216 1.9687248
-2.1286342 2.9778314 1.9612771
-2.1343458 2.9781771 1.966024
-2.1361721 2.9680316 1.9686244
-2.1289937 2.9683833 1.9683969
-2.1457977 2.9694557 1.9636593
-2.1361527 2.9570622 1.9633292
-2.1490958 2.9503293 1.9558564
-2.1629424 2.944422 1.9564703
-2.1522393 2.9424827 1.9640741
-2.1557076 2.9508135 1.9538256
-2.1632912 2.9535522 1.967464
-2.1783185 2.9347103 1.9644312
-2.1685944 2.9381688 1.9542418
-2.1762657 2.9329281 1.9673984
-2.1841602 2.9350016 1.9646279
-2.1767881 2.9308345 1.9524698
-2.1897418 2.9178345 1.9565907
-2.1901639 2.9150934 1.957822
-2.1899681 2.9271569 1.9601371
-2.2021639 2.9198496 1.9538121
-2.2046041 2.9090517 1.9532605
-2.2134016 2.9073155 1.9569075
-2.2052274 2.8993881 1.967059
-2.2272384 2.9078698 1.9550217
-2.2160883 2.8925328 1.9681157
-2.2277045 2.8886399 1.9601059
-2.2314744 2.8958611 1.962165
-2.2311189 2.8867233 1.9645576
-2.229528 2.8818402 1.9620942
-2.2456174 2.8888161 1.9554093
-2.2480273 2.8774023 1.9610182
-2.2509847 2.881237 1.9679884
-2.2502904 2.8772879 1.9701339
-2.2594404 2.875365 1.9638698
-2.260623 2.8686252 1.9653831
-2.2687075 2.8742981 1.9661235
-2.2647972 2.8602254 1.9572103
-2.2788234 2.8505282 1.9622905
-2.2704525 2.8664379 1.9656246
-2.2845407 2.8502691 1.9590768
-2.2853091 2.8556974 1.9642632
-2.3004642 2.842171 1.9564379
-2.2886446 2.853337 1.9678227
-2.2946751 2.8393466 1.9604493
-2.3069651 2.8281629 1.9695066
-2.2977374 2.8328795 1.9674127
-2.3077648 2.8254871 1.9544277
-2.3067007 2.8280444 1.9549326
-2.3205521 2.8229442 1.9545395
-2.3310647 2.8277228 1.9611762
-2.3281205 2.8156958 1.9564446
-2.3199854 2.8124716 1.9613961
-2.3396711 2.8050206 1.9607282
-2.3279674 2.8154886 1.9692901
-2.3436325 2.797611 1.9698943
-2.3502357 2.7929015 1.9584465
-2.3589282 2.8021002 1.9628429
-2.3606009 2.7962942 1.9530392
-2.3617644 2.8005636 1.9613829
-2.3633163 2.7982421 1.9577585
-2.358227 2.7827826 1.9653659
-2.3778646 2.7793713 1.9530135
-2.372546 2.7801826 1.9564799
-2.3678906 2.7766016 1.9536893
-2.3746688 2.781255 1.956302
-2.3808382 2.7631998 1.9574913
-2.3784504 2.7603424 1.9711708
-2.3916619 2.7596977 1.9623412
-2.3946722 2.7617702 1.9610834
-2.4093342 2.7461677 1.9608121
-2.4076159 2.759526 1.9683944
-2.3982854 2.7571139 1.955884
-2.4013026 2.7438831 1.967509
-2.4208486 2.7391653 1.9588826
-2.4231806 2.7315226 1.9582443
-2.4228952 2.7415593 1.9628911
-2.4214158 2.7378273 1.9680262
-2.4262521 2.7247233 1.9558674
-2.4399133 2.7324436 1.9691378
-2.4348273 2.7293315 1.970167
-2.4500082 2.7117631 1.9679219
-2.4376018 2.7073457 1.9666371
-2.457701 2.7037268 1.9554992
-2.4461703 2.7043729 1.9630264
-2.4632614 2.7064934 1.9662995
-2.4609859 2.6927009 1.9630028
-2.4740586 2.7041845 1.9593734
-2.4619918 2.6946242 1.9660441
-2.4620786 2.6951902 1.9638448
-2.4688904 2.6846247 1.9619483
-2.474668 2.682656 1.9659038
-2.4826858 2.6768672 1.9688672
-2.4919837 2.6747475 1.9716426
-2.4924147 2.6679218 1.9585
-2.4853134 2.6677639 1.9709193
-2.4949343 2.6736352 1.9529926
-2.5078468 2.6701832 1.9700013
4.5187793 -4.9753652 1.0700582
4.5273981 -4.9726219 1.082623
4.5303006 -4.9697804 1.0773276
4.5409312 -4.9741998 1.0864072
4.415205 -4.809494 1.1280261
4.4255629 -4.8057704 1.1279559
4.4338164 -4.8129997 1.1362369
4.4461722 -4.7940779 1.1262149
4.4367256 -4.7953963 1.1436793
4.4474292 -4.7886472 1.1258878
4.463553 -4.7721758 1.1253074
4.4704351 -4.7740455 1.1411706
4.4698739 -4.759964 1.1335658
4.4840083 -4.7621946 1.1352226
4.4872136 -4.7474756 1.1332698
4.4968824 -4.749125 1.1288829
4.5064721 -4.7492394 1.1310999
4.504334 -4.7437077 1.1260626
4.5121655 -4.734323 1.133521
4.5174522 -4.7209272 1.1415336
4.5249386 -4.7180915 1.1398134
4.531836 -4.7150488 1.1300098
4.5345879 -4.6992331 1.1280645
4.549726 -4.695941 1.1376565
4.4129887 -4.5577803 1.1908728
4.4276199 -4.5550895 1.1810417
4.4378562 -4.5494409 1.1848359
4.4303002 -4.5325532 1.1878927
4.4376988 -4.5344491 1.1940552
4.4525471 -4.517663 1.1873255
4.455399 -4.5199876 1.1971343
4.4565225 -4.5020027 1.1836796
4.4678335 -4.5078449 1.1997248
4.4771905 -4.5051198 1.1927373
4.4761305 -4.4921699 1.1992646
4.4931316 -4.4909482 1.182326
4.5002928 -4.4858418 1.1848704
4.4912395 -4.4746337 1.198128
4.5052342 -4.4623609 1.1833068
4.5053825 -4.461565 1.1990793
4.5187926 -4.4642339 1.1863264
4.5220027 -4.4520874 1.1853487
4.5317492 -4.4349294 1.1923102
4.5375323 -4.4347048 1.1957698
4.5363188 -4.4218221 1.185943
4.4041028 -4.2838731 1.2462398
4.4122729 -4.2795577 1.2502426
4.4229789 -4.2705522 1.2391911
4.4269338 -4.2737989 1.2541412
4.436059 -4.2631359 1.2436073
4.440948 -4.2652926 1.2441158
4.4530754 -4.2504606 1.2504736
4.4442167 -4.2520947 1.2476835
4.4623108 -4.234149 1.2388031
4.4638557 -4.2236114 1.2364824
4.475565 -4.2339544 1.25144
4.4724159 -4.2221169 1.2445645
4.4732604 -4.2055545 1.2405379
4.4830451 -4.2110095 1.247099
4.487771 -4.1933031 1.2381496
4.5019541 -4.1966629 1.2408615
4.4966373 -4.1938419 1.252215
4.5176692 -4.1858177 1.2357363
4.5159025 -4.1856284 1.2509964
4.5252466 -4.1698155 1.250579
4.5322609 -4.1682048 1.2535952
4.5342245 -4.1556463 1.2422173
4.5493035 -4.148138 1.2411619
4.5403471 -4.1367311 1.2484034
4.4159985 -4.0168195 1.3022417
4.4244552 -3.9984472 1.2913086
4.4156151 -3.9912519 1.2969239
4.4181199 -3.9888756 1.3042824
4.4241371 -3.9941084 1.3055409
4.4454064 -3.975831 1.2963154
4.4462495 -3.9763639 1.3023952
4.4500999 -3.9607494 1.2947197
4.462564 -3.9558632 1.3082309
4.4539638 -3.9457321 1.3068192
4.4725966 -3.9437945 1.3093253
4.4699121 -3.9390004 1.3040562
4.4762859 -3.9286373 1.2998269
4.488266 -3.9213521 1.2918105
4.487596 -3.9136236 1.2923901
4.4881763 -3.9101913 1.3050683
4.4995217 -3.9114733 1.2910269
4.4969387 -3.8944526 1.3064055
4.506671 -3.8905077 1.3004682
4.5099058 -3.9006937 1.2984521
4.5117202 -3.8777692 1.2921559
4.5360317 -3.8830431 1.3044285
4.5350657 -3.8674479 1.3008311
4.529861 -3.8653688 1.2982781
4.5366316 -3.869447 1.2972052
4.543973 -3.8584242 1.2933084
4.5439835 -3.8415256 1.3018659
4.5499434 -3.8326716 1.3011727
4.5712738 -3.8395381 1.2981453
4.5666575 -3.8286133 1.2986453
4.5800166 -3.8213093 1.2957754
4.58707 -3.81512 1.30133
4.5863876 -3.8153143 1.2961701
4.5820985 -3.8061216 1.3067725
4.5952477 -3.7955585 1.306972
4.6073151 -3.7830453 1.2918625
4.6154766 -3.7759035 1.3073117
4.6121869 -3.7681751 1.3052676
4.6081948 -3.7644808 1.3100026
4.6211662 -3.7707586 1.2993002
4.6346292 -3.7490242 1.309532
4.6252127 -3.745574 1.2995763
4.6413422 -3.7481356 1.3030417
4.6523023 -3.7403059 1.3093076
4.6538558 -3.7246382 1.2997372
4.6556001 -3.7222054 1.2962734
4.6622257 -3.7169044 1.2935367
4.6642914 -3.7201777 1.292107
4.6643043 -3.7127182 1.3079424
4.6690426 -3.6975536 1.2910637
4.6830697 -3.6941841 1.3094755
4.6873193 -3.6854792 1.3048865
4.6816044 -3.6858845 1.2912776
4.6993456 -3.6805599 1.2990326
4.7033434 -3.6589029 1.2959821
4.6977615 -3.6607141 1.3088841
4.7087069 -3.6611032 1.3005995
4.7169065 -3.6446209 1.3025466
4.7236671 -3.6333113 1.3054509
4.7262545 -3.6424394 1.2970104
4.7319531 -3.6227076 1.305423
4.7360549 -3.623884 1.2960167
4.7355585 -3.6159241 1.2996739
4.7414436 -3.6153634 1.3021175
4.7550745 -3.5959351 1.2996725
4.765646 -3.5872099 1.3088636
4.7691102 -3.5926518 1.2911059
4.7642803 -3.5749974 1.3032635
4.7813883 -3.5756764 1.3001568
4.7813911 -3.5588534 1.3013409
4.7729445 -3.5614071 1.2956687
4.792901 -3.5449257 1.3022248
4.783442 -3.5539982 1.3101381
4.7976308 -3.5422337 1.2920029
4.7942538 -3.541877 1.3066794
4.8084226 -3.5359786 1.3034574
4.8117733 -3.5116365 1.3081628
4.8173566 -3.5171359 1.3038851
4.8150883 -3.5105288 1.2922838
4.8297038 -3.5089114 1.290854
4.8254943 -3.5007241 1.3002118
4.8356032 -3.4775543 1.2993854
4.8322582 -3.4888086 1.3028141
4.8368177 -3.4708292 1.2913281
4.8432322 -3.4611731 1.2935122
4.8643141 -3.462285 1.2949016
4.862164 -3.4449739 1.2939328
4.8647103 -3.4469976 1.3007578
4.8629694 -3.4361987 1.3074759
4.8696179 -3.4356833 1.3090905
4.8748264 -3.4242675 1.2921649
4.8893838 -3.427624 1.2916746
4.8831053 -3.4191961 1.2931889
4.9002461 -3.4110711 1.3059344
4.9058909 -3.4013836 1.3015813
4.8937106 -3.3954577 1.3093545
4.9029102 -3.3765154 1.3076705
4.9111314 -3.3798509 1.2971876
4.926168 -3.3697419 1.290722
4.9279132 -3.35779 1.2979832
4.931263 -3.3654249 1.3098645
4.9376783 -3.3432889 1.2915877
4.943593 -3.3522081 1.2949299
4.9310131 -3.3287542 1.299582
4.9511685 -3.3244131 1.3070993
4.9469614 -3.3170006 1.2937138
4.9505181 -3.3251274 1.2924355
4.9523811 -3.3097625 1.3009799
4.9637513 -3.3040805 1.2927846
4.968646 -3.3013635 1.3096862
4.9807925 -3.2799969 1.292091
4.9848108 -3.2769065 1.3097637
4.9905429 -3.2725825 1.2916422
4.9796071 -3.2655106 1.3100934
4.9933133 -3.2629452 1.3059977
4.9945278 -3.2492394 1.3024201
5.0023465 -3.2566202 1.3038149
5.0088778 -3.2467716 1.2936674
5.0039434 -3.2301762 1.3022881
5.0108042 -3.2333002 1.3067054
5.0145564 -3.2288821 1.3055624
5.0207038 -3.2050405 1.3005767
5.0245142 -3.2000523 1.2929754
5.0301933 -3.1905751 1.3055003
5.0343137 -3.1919572 1.293638
5.0343289 -3.1766813 1.3085226
5.0507565 -3.1781328 1.3090614
5.0485692 -3.1775897 1.2924773
5.0562243 -3.166508 1.3055106
5.0524902 -3.1530828 1.308436
5.073164 -3.1404128 1.3087891
5.0726848 -3.1460929 1.3059871
5.0672097 -3.1324506 1.3011702
5.0741239 -3.1376073 1.2988212
5.0735526 -3.123112 1.3080744
5.0811095 -3.11306 1.3055818
5.0835409 -3.1110294 1.2946098
5.0865016 -3.0956252 1.2971466
5.0928679 -3.0969949 1.3037246
5.112258 -3.086518 1.2966812
5.114563 -3.079777 1.2952551
5.1172113 -3.0779152 1.3010899
5.1170483 -3.065918 1.293502
5.1120577 -3.0513866 1.2936862
5.1247087 -3.0417967 1.3012885
5.1266022 -3.04901 1.291859
5.1259937 -3.038142 1.2973708
5.1344028 -3.0286543 1.2911912
5.145339 -3.0171306 1.2965401
5.1428432 -3.0105379 1.3052584
5.1532941 -3.0059505 1.2936037
5.1623087 -3.0030158 1.2966912
5.1571479 -2.9845352 1.3046502
5.3305945 -3.0719423 1.2448617
5.3381448 -3.0741212 1.2426727
5.3332868 -3.0586674 1.2461264
5.3389893 -3.068073 1.2532985
5.350193 -3.0533104 1.2428027
5.355207 -3.0518425 1.2366691
5.3455596 -3.0370915 1.2499607
5.3646197 -3.0361009 1.2406664
5.3720145 -3.0302966 1.2471278
5.3624868 -3.0138438 1.2448845
5.3809071 -3.0143306 1.2446595
5.3746758 -2.9915726 1.2548265
5.3862448 -2.997968 1.2530127
5.5491886 -3.0765293 1.1992053
5.5514932 -3.074343 1.1878605
5.5632911 -3.0714071 1.1905307
5.5689445 -3.0623724 1.180493
5.5678787 -3.0385208 1.1839813
5.5775075 -3.0315068 1.1858033
5.5735869 -3.0382431 1.1966014
5.5874128 -3.0307708 1.1994302
5.5810022 -3.0137312 1.1975285
5.5847483 -3.0093136 1.1817373
5.586669 -2.9940643 1.1934683
5.5899186 -3.0008111 1.199645
5.7712884 -3.070807 1.1258643
5.7859683 -3.0684347 1.1285126
5.7905989 -3.0513964 1.1272541
5.778707 -3.048986 1.1252451
5.7886257 -3.0347426 1.1287295
5.789331 -3.0309093 1.13191
5.7928543 -3.0177109 1.1443478
5.7944641 -3.0249805 1.133415
5.800272 -3.0145321 1.1299375
5.8177991 -3.0050263 1.1319134
5.8214917 -2.9878078 1.1268448
5.9973884 -3.0683496 1.0809532
5.9851961 -3.0601645 1.0791925
5.9917331 -3.0681453 1.071782
5.9962497 -3.0504706 1.0705485
6.0042391 -3.0363421 1.0850763
6.0153966 -3.0429313 1.0847243
6.018981 -3.0321398 1.0890186
6.0116205 -3.0197585 1.0756713
6.020771 -3.0140567 1.0837342
6.0318856 -3.0088577 1.0809138
6.0379195 -2.9827952 1.0775875
6.2053804 -3.0587306 1.0189476
6.2190051 -3.0666628 1.0191156
6.2252069 -3.0543509 1.0285941
6.2301636 -3.0383103 1.0238311
6.2296352 -3.0353606 1.0241032
6.2287436 -3.0330641 1.0267849
6.2321334 -3.0223534 1.0334601
6.2421641 -3.0067062 1.0174434
6.2402458 -3.0041466 1.0182263
6.2554946 -2.999743 1.0166661
6.4207649 -3.0673373 0.96112162
6.429286 -3.062254 0.9641341
6.4379625 -3.0552428 0.97079492
6.4361053 -3.0475371 0.96482682
6.449472 -3.0246091 0.97313291
6.4430985 -3.0268106 0.97505403
6.4593945 -3.0098479 0.97899842
6.4623528 -3.0070677 0.96989685
6.4492817 -2.9904075 0.97465587
6.631372 -3.0635993 0.91996658
6.6376109 -3.0479026 0.90721601
6.6434398 -3.047965 0.91058981
6.6522684 -3.0436194 0.91201007
6.6477447 -3.0253866 0.91216528
6.6572399 -3.0180299 0.90627182
6.6550283 -3.0012772 0.90919405
6.6747251 -2.9924469 0.92009062
6.6783528 -2.9848635 0.904773
6.8482599 -3.0532584 0.86196846
6.8476291 -3.059175 0.8530246
6.8674426 -3.0431328 0.85052216
6.8544917 -3.0255291 0.85869551
6.864902 -3.0233519 0.86194712
6.8767185 -3.0099399 0.8541581
6.8686771 -3.0112615 0.86444652
6.8747292 -2.9990106 0.86220235
7.0599513 -3.0680163 0.80435055
7.0599022 -3.0405874 0.79993188
7.0645218 -3.0428221 0.79652983
7.0814695 -3.0299611 0.79765749
7.0694599 -3.0215468 0.80526781
7.074934 -3.0103302 0.80091614
7.0885677 -2.9929373 0.80917037
7.0854392 -2.9879477 0.80125922
7.271616 -3.049983 0.74729633
7.2710633 -3.0551362 0.75114208
7.2882528 -3.0355086 0.75313747
7.2827229 -3.0202038 0.75271463
7.2927599 -3.0245397 0.74020427
7.2993808 -2.9961736 0.75069594
7.2871156 -3.0040495 0.73973686
7.4802766 -3.0637124 0.69497681
7.491343 -3.0406556 0.69287997
7.4906492 -3.0449185 0.6858902
7.4820294 -3.0242898 0.70175338
7.4945793 -3.008481 0.70232195
7.4909601 -2.9997368 0.69237059
7.5093222 -3.0007615 0.68757045
7.685782 -3.0472748 0.63312835
7.6912808 -3.0398283 0.63203388
7.6872563 -3.0288439 0.63289225
7.6922574 -3.0267115 0.63695312
7.7076306 -3.0177827 0.6336394
7.700892 -2.993803 0.63562578
7.7071486 -2.9826841 0.64779776
7.8884773 -3.0527945 0.59018254
7.8912325 -3.0409327 0.58600366
7.9040208 -3.0349064 0.59033918
7.911994 -3.0151384 0.58899528
7.9206562 -3.0141389 0.58437622
7.9082084 -3.0014167 0.58001375
8.0964041 -3.0559788 0.53190315
8.1089401 -3.0310907 0.53712863
8.1181459 -3.0371487 0.53558809
8.1093225 -3.0211425 0.53441501
8.1126556 -3.0072091 0.52192694
8.1135044 -2.9947796 0.53028709
8.310523 -3.0603456 0.47850734
8.3115892 -3.0353754 0.47061723
8.3112955 -3.0259562 0.47269535
8.3263664 -3.0131819 0.47645882
8.3170595 -2.9961948 0.48266569
8.3347721 -2.9909339 0.4824608
7.8579402 0.90469968 0.80833709
7.8643055 0.91660535 0.81049478
7.8634067 0.94407505 0.79685628
7.8536367 0.94803417 0.80328262
7.8575892 0.96051699 0.81662238
7.8493543 0.97186446 0.8124935
7.8552685 0.97784227 0.81530738
7.8386183 0.98205459 0.81238121
7.8508782 1.0018812 0.81363606
7.8486714 1.0133773 0.80944484
7.8511887 1.0155338 0.81182563
7.8414617 1.0253212 0.81515723
7.8338771 1.0354906 0.81500536
7.8326383 1.0571861 0.80786133
7.646894 1.038401 0.85599107
7.6454272 1.0581853 0.85078025
7.6398168 1.0652258 0.86060143
7.6370053 1.0769731 0.86369103
7.6312528 1.082353 0.85566539
7.64674 1.0869137 0.86819571
7.638021 1.0953947 0.85194445
7.6316686 1.1155666 0.85454452
7.6286321 1.1295873 0.85637975
7.6254296 1.143818 0.8689785
7.6350679 1.1446853 0.85760635
7.6390805 1.1655287 0.85535699
7.6378675 1.1622195 0.86948872
7.626461 1.1775714 0.86471027
7.427752 1.1591873 0.90839678
7.4314213 1.1669983 0.9122504
7.4276061 1.1876078 0.91393387
7.427525 1.1833968 0.90514028
7.4300299 1.1976967 0.91972053
7.4343553 1.2103558 0.91788679
7.4312654 1.2142298 0.90627784
7.4167886 1.2237083 0.90487206
7.4200478 1.2335802 0.90951902
7.4174247 1.2536668 0.91888219
7.4100084 1.2670575 0.90869874
7.4125237 1.2657269 0.91596079
7.4188786 1.2822052 0.91346931
7.4069023 1.3002411 0.91640592
7.4061179 1.3024347 0.92328387
7.2101812 1.2771697 0.96620506
7.2221613 1.2836828 0.96890599
7.2225184 1.2974156 0.97073382
7.2214561 1.3161185 0.9720844
7.2050261 1.3139231 0.96317476
7.2179456 1.3260512 0.97731155
7.2006674 1.3424488 0.95977587
7.2106376 1.3469694 0.96837902
7.198102 1.3612965 0.96468115
7.2084889 1.3766366 0.97284234
7.20574 1.3875698 0.95885807
7.1921577 1.3922623 0.96132249
7.2012625 1.3991053 0.96745753
7.1921806 1.4066927 0.96223599
7.1844358 1.4196718 0.96476215
7.1877675 1.4274056 0.96936196
7.1852217 1.4397105 0.96030748
6.9962554 1.4059039 1.0194647
7.0048022 1.4191202 1.0291622
6.9896374 1.4246149 1.0241556
6.9826202 1.449266 1.0200409
6.9816055 1.4622542 1.03058
6.9830413 1.4662805 1.0179262
6.9905987 1.4631727 1.0228266
6.9929209 1.4742812 1.0306755
6.9777555 1.4906964 1.0162303
6.9871764 1.5065553 1.024065
6.9875293 1.5043219 1.0260158
6.9732852 1.5125996 1.031427
6.9687252 1.5276904 1.01258
6.9791451 1.5377554 1.0286338
6.9654369 1.5488104 1.0279286
6.962254 1.5633196 1.0215049
6.9664035 1.5674182 1.0222316
6.9554405 1.5758847 1.0243279
6.7644544 1.5485661 1.0668439
6.7669277 1.555158 1.0817451
6.7772222 1.5641892 1.0846828
6.7694545 1.5810765 1.0661708
6.7670846 1.5755174 1.0730252
6.7658544 1.6025053 1.0802231
6.7606649 1.5979254 1.0687577
6.7547574 1.612317 1.082086
6.7624125 1.6130261 1.0698005
6.7507815 1.6249532 1.0762722
6.7412338 1.635947 1.068398
6.7404485 1.6515623 1.0776746
6.7545509 1.6596341 1.0665444
6.7515783 1.662113 1.0828668
6.7500801 1.6844101 1.084198
6.7354236 1.6876785 1.0830884
6.7279515 1.6879719 1.0679731
6.729001 1.7045851 1.0778269
6.7233658 1.7110944 1.0789702
6.5387726 1.6805794 1.1363646
6.5473642 1.6901698 1.1215992
6.548069 1.701255 1.1330392
6.5380373 1.7087359 1.1231441
6.5368629 1.7155505 1.1263244
6.5319982 1.7231866 1.1224014
6.5284519 1.7384986 1.1323495
6.5237832 1.7486844 1.1331974
6.5239868 1.7422786 1.1212678
6.5140309 1.7526095 1.1264603
6.5252061 1.7673914 1.1194007
6.5200224 1.7730963 1.1328117
6.520061 1.7818499 1.128191
6.5115266 1.8029286 1.1219378
6.5130844 1.8052022 1.1333889
6.4978099 1.8049934 1.1233693
6.4986 1.8236331 1.1195583
6.509325 1.8400116 1.1368331
6.5008855 1.8390139 1.1386052
6.500504 1.8504936 1.1216148
6.485302 1.8555939 1.1303166
6.2978458 1.8248703 1.189377
6.3090444 1.829496 1.1743674
6.29561 1.8280711 1.191357
6.2959099 1.8507005 1.1815442
6.2876492 1.8405644 1.1824498
6.2893562 1.8537397 1.1729261
6.28724 1.8601747 1.1907153
6.2823868 1.8807172 1.1784447
6.2792931 1.8834374 1.1885955
6.2791967 1.8935281 1.1747917
6.2877898 1.9039296 1.1743115
6.2816911 1.9080527 1.1896679
6.2805705 1.9212767 1.1748139
6.2764268 1.9373485 1.1738071
6.2624583 1.9477192 1.1738858
6.2693834 1.9423691 1.178365
6.2667727 1.9574875 1.1805078
6.2619386 1.9703487 1.1744254
6.264822 1.982725 1.1822991
6.257844 1.9776262 1.1915033
6.25705 1.9837538 1.1823523
6.2557635 2.0064278 1.1885713
6.2498212 2.0106387 1.1792651
6.0656309 1.9543591 1.2310256
6.0638862 1.965554 1.2306745
6.0622087 1.9663682 1.2362353
6.0449982 1.9872781 1.2281801
6.0499187 1.9860727 1.2442555
6.0487452 1.9904814 1.2439809
6.0354333 2.0106552 1.2298844
6.0513144 2.01279 1.2331964
6.0380325 2.0164056 1.2304673
6.0309577 2.0368586 1.2432377
6.034565 2.039295 1.2300382
6.036181 2.0427077 1.2395861
6.0374336 2.0671756 1.2415045
6.0242357 2.0571778 1.235893
6.0229707 2.074857 1.24064
6.0177693 2.0741308 1.2413638
6.0122819 2.0828731 1.233833
6.0126858 2.1102879 1.2400125
6.0163903 2.1072242 1.2413874
6.017354 2.1199012 1.2347987
6.0110765 2.1190124 1.2422336
6.0115876 2.1425781 1.2446728
6.0016351 2.1502469 1.2431751
5.9935894 2.1475799 1.2432791
5.9999204 2.1665215 1.2326657
5.8097758 2.0977669 1.2866738
5.8016458 2.1115496 1.2872952
5.8059735 2.1086454 1.286947
5.7964692 2.1323664 1.2951548
5.7883291 2.1399837 1.287663
5.7935886 2.1442673 1.2909102
5.7862716 2.1520178 1.289355
5.781383 2.1527832 1.2871047
5.7949853 2.1684818 1.2938275
5.7886801 2.1735022 1.2911365
5.7717505 2.1925914 1.29672
5.7750773 2.1864729 1.287992
5.7790146 2.2076161 1.2882695
5.7625918 2.2022004 1.2841821
5.7743659 2.2116005 1.2996297
5.758637 2.229228 1.2912831
5.7661443 2.2225177 1.2826136
5.7520847 2.2339087 1.2866399
5.755764 2.2419033 1.2982996
5.7461548 2.2466059 1.2869185
5.7538433 2.2574024 1.2865697
5.7471042 2.2745612 1.2920499
5.751626 2.278703 1.2906247
5.736414 2.28948 1.2957398
5.7371035 2.2951 1.2822151
5.7332292 2.3080709 1.2982824
5.7209973 2.3116403 1.2996081
5.7200851 2.3242526 1.2842981
5.5446706 2.2512445 1.3427005
5.5395231 2.263916 1.3440468
5.5429835 2.2674122 1.3481759
5.5260849 2.2873166 1.3414543
5.5346551 2.2949009 1.3508694
5.5217896 2.2904432 1.3430612
5.5340285 2.3098552 1.3528767
5.512732 2.3085852 1.3476715
5.5274916 2.3182864 1.3380483
5.5235667 2.3302891 1.3530549
5.5043206 2.32862 1.3394881
5.509726 2.3449383 1.3508685
5.4964671 2.347863 1.3380247
5.5073266 2.3570454 1.3373698
5.4914536 2.3579657 1.3365879
5.5049853 2.3691986 1.3436412
5.4906979 2.3758593 1.3424044
5.4862151 2.3844228 1.3521994
5.4765167 2.3909566 1.3440022
5.4771843 2.3967867 1.3401188
5.4728479 2.4066026 1.3468816
5.4749341 2.4250662 1.3422828
5.46839 2.4335241 1.3529333
5.4689913 2.4361055 1.3450954
5.4689274 2.4460886 1.3505114
5.4680705 2.4528885 1.3394988
5.4542565 2.4486969 1.3474895
5.6348562 2.5424192 1.2826511
5.6294684 2.5509155 1.2904391
5.6158729 2.5634074 1.2964139
5.6183825 2.5549014 1.284566
5.6076446 2.5718307 1.283548
5.6122961 2.5855756 1.2833588
5.6075878 2.5832922 1.2981265
5.6150308 2.604326 1.2952573
5.6078787 2.6078947 1.2915729
5.5897026 2.6210513 1.2960868
5.5995069 2.6225595 1.2876275
5.5982022 2.6222143 1.2998186
5.5846748 2.6318183 1.2966609
5.5771112 2.6474879 1.2971611
5.5776887 2.6559863 1.2867595
5.5772371 2.6527143 1.2822769
5.5765858 2.6683226 1.2876899
5.5706911 2.6749732 1.2863206
5.5619168 2.6780822 1.2807089
5.569447 2.6866367 1.2804482
5.5614805 2.6886277 1.293895
5.5450435 2.7129571 1.2992007
5.5407872 2.7074132 1.2863197
5.5533619 2.7179701 1.2813228
5.5464263 2.7327805 1.297044
5.5490785 2.7308259 1.281718
5.5272369 2.7519174 1.2942302
5.530798 2.7508223 1.2856281
5.5329785 2.764672 1.2923752
5.5295367 2.7697816 1.2999225
5.5258241 2.7706652 1.2817116
5.5155468 2.7788634 1.300086
5.5105648 2.7865674 1.2851776
5.512691 2.7906194 1.2930926
5.5098095 2.8115194 1.2880896
5.5026383 2.8188663 1.2934093
5.5001307 2.8281767 1.2921028
5.4901247 2.8248644 1.281989
5.4915056 2.8275595 1.2980179
5.4796233 2.8506508 1.2914549
5.4752774 2.8538771 1.2980793
5.4727097 2.8506854 1.285211
5.4685059 2.8663814 1.2923613
5.4693832 2.868084 1.2958834
5.4581647 2.8907964 1.2926313
5.4619327 2.8902397 1.2890567
5.4510098 2.891088 1.287129
5.4587698 2.9058533 1.2942308
5.4564052 2.9059336 1.2963752
5.4500589 2.9180758 1.2939633
5.437139 2.9298277 1.2871362
5.4308329 2.9429777 1.2894813
5.4316483 2.9359007 1.2998918
5.4196029 2.9536879 1.28438
5.4310694 2.9642546 1.2839611
5.4192729 2.9625976 1.2953719
5.4238915 2.9740367 1.3000226
5.4065719 2.9772654 1.2918361
5.4163437 2.9821699 1.2961329
5.4082489 3.0047789 1.2849808
5.3977323 2.9985292 1.2979947
5.4003778 3.0100458 1.2965789
5.3853574 3.0264597 1.2805117
5.3807378 3.0149217 1.2946634
5.3805952 3.0389538 1.291819
5.380024 3.0353036 1.2997605
5.3708525 3.0403967 1.2915899
5.3663216 3.0523057 1.2991024
5.3735938 3.0581319 1.2839797
5.3651519 3.0600197 1.283932
5.3655477 3.0755575 1.2901068
5.3589473 3.0779181 1.3002757
5.3509202 3.0894463 1.2993423
5.3468161 3.1005528 1.2993603
5.336853 3.1157258 1.2959057
5.3440347 3.1145463 1.2813021
5.339148 3.1284251 1.2842989
5.3260803 3.1220131 1.2917175
5.3205147 3.1271234 1.2974814
5.3198161 3.1480532 1.2976581
5.3190589 3.1536503 1.2859035
5.3044667 3.1569283 1.2890463
5.3000331 3.1564717 1.2962601
5.2946553 3.1762133 1.2871294
5.2892857 3.1903045 1.2857265
5.3004508 3.1959012 1.2957052
5.2970023 3.2009447 1.2921298
5.2765403 3.1972642 1.2947153
5.2834868 3.2123728 1.2949904
5.2761865 3.2111471 1.2887806
5.269053 3.2335396 1.280759
5.2701545 3.2257252 1.2886131
5.2543883 3.2378728 1.288614
5.2658257 3.2490487 1.2809664
5.2481227 3.2592714 1.3000261
5.2490063 3.2650859 1.2973044
5.2398582 3.2718887 1.2922546
5.2471247 3.2826765 1.2961589
5.2369661 3.284868 1.2878125
5.2270727 3.2842271 1.2908874
5.2309594 3.3009305 1.289008
5.2268143 3.3032236 1.2919738
5.2105131 3.3142488 1.299753
5.2142029 3.3212204 1.2913803
5.2102346 3.3350074 1.2859086
5.2053161 3.3342071 1.298936
5.1976657 3.348798 1.2914574
5.1849556 3.3552046 1.2874641
5.1961393 3.3560126 1.2983662
5.1789665 3.3714969 1.2813375
5.1848588 3.3754478 1.2937288
5.1688619 3.3798435 1.2811362
5.1758204 3.3925383 1.2922982
5.170548 3.393533 1.2831676
5.1568928 3.3951802 1.2805662
5.1577559 3.4165392 1.2899133
5.1516366 3.4148886 1.2866066
5.1380281 3.4251785 1.2824682
5.1404171 3.4313133 1.2919061
5.1336975 3.4449463 1.2896031
5.1299396 3.4491525 1.2840322
5.1185632 3.4420524 1.295645
5.114584 3.4666119 1.292747
5.1217566 3.4706104 1.2836448
5.1197886 3.4656749 1.2889973
5.1152096 3.4863336 1.2885232
5.0999675 3.4856143 1.2992193
5.101409 3.496038 1.2930329
5.098702 3.4936116 1.2858151
5.0854235 3.5092373 1.2850713
5.0898314 3.5058861 1.281381
5.0686588 3.5159495 1.2834448
5.0790892 3.5268345 1.2829291
5.0666118 3.5297036 1.2992793
5.065022 3.5354259 1.2835685
5.0487752 3.5414 1.2813975
5.0520439 3.556973 1.2913948
5.0459995 3.5588381 1.2847106
5.0337586 3.5628572 1.2885015
5.0342903 3.5784678 1.2808261
5.0340681 3.5833671 1.2827146
5.0301461 3.591984 1.2875882
5.0282779 3.5959318 1.2962757
5.0258842 3.6123118 1.2807679
5.0198312 3.6120222 1.2839247
4.9980574 3.6204152 1.2860048
4.994103 3.617017 1.2966143
5.0001364 3.6325235 1.282052
4.9994755 3.6407483 1.2844788
5.138134 3.7681394 1.2417527
5.1334105 3.7668386 1.2306504
5.1305652 3.7666037 1.241156
5.1325836 3.789499 1.2286071
5.12328 3.7950087 1.2454431
5.1184583 3.7994828 1.2350013
5.1167836 3.8072104 1.2459717
5.0971789 3.8160207 1.2265697
5.1081738 3.8159108 1.2357072
5.1045961 3.8201966 1.2461096
5.2373719 3.9484954 1.1895442
5.2470541 3.9616938 1.1782556
5.2256236 3.9572916 1.1795768
5.2346883 3.9601626 1.1766452
5.2311945 3.9789939 1.1920823
5.2245259 3.9782782 1.18486
5.207406 4.0011716 1.1782395
5.2012463 3.9897549 1.1733105
5.3483067 4.1321754 1.1274201
5.3516974 4.1390071 1.1324521
5.3454809 4.1300025 1.1228603
5.3364282 4.1561751 1.1191633
5.3360772 4.1464233 1.123768
5.3170366 4.1512523 1.1239552
5.3150539 4.178113 1.1356933
5.3084984 4.1838417 1.1194427
5.3147101 4.1779966 1.1388205
5.4454346 4.3109946 1.0657837
5.439909 4.3247509 1.0841199
5.4422231 4.3276396 1.0818331
5.4295588 4.3300619 1.0830947
5.4272919 4.3491931 1.0830904
5.4213171 4.353745 1.0659035
5.4199367 4.3650384 1.066123
5.4187331 4.3601422 1.0657886
5.5590572 4.4956203 1.0300363
5.5531507 4.5022049 1.0147809
5.5466113 4.5141931 1.0256865
5.5407643 4.5066566 1.0227559
5.5332432 4.5274453 1.015129
5.5234246 4.5215907 1.0223484
5.5148563 4.5395017 1.0211315
-0.72306299 3.5883522 1.9842343
-0.72751224 3.6023073 1.983753
-0.73174071 3.6011243 1.9908327
-0.73630196 3.5965412 1.9847293
-0.74287379 3.5923076 1.997476
-0.7446996 3.5878012 1.9944856
-0.75561827 3.5837257 1.996242
-0.74946606 3.598417 1.9910789
-0.75093931 3.5895886 1.992362
-0.76519161 3.5785022 1.9838656
-0.78065926 3.5851533 1.9856664
-0.78034955 3.592355 1.9824461
-0.78051978 3.580327 1.9790735
-0.79360873 3.5887346 1.9921558
-0.79279953 3.5755661 1.9820492
-0.79924202 3.5855658 1.9884882
-0.80867332 3.5696394 1.9919102
-0.79634666 3.5848567 1.9910895
-0.80918157 3.5835903 1.9825131
-0.8207317 3.57306 1.98393
-0.8207767 3.5720487 1.9930847
-0.81901926 3.5763321 1.9905348
-0.84048057 3.565429 1.9970574
-0.84531271 3.5664191 1.9930953
-0.83706099 3.5731988 1.997079
-0.8389141 3.5785153 1.9921842
-0.85432667 3.5593777 1.9924915
-0.84631544 3.5575426 1.9891515
-0.85912329 3.567847 1.9856876
-0.86050582 3.5715737 1.9928426
-0.8604697 3.5602267 1.9801425
-0.87127727 3.5556066 1.9928892
-0.88463295 3.554493 1.9959029
-0.89146429 3.5535133 1.9810838
-0.88225609 3.5657499 1.9942287
-0.88906229 3.5610962 1.993881
-0.90076166 3.5459914 1.9955937
-0.91215181 3.5638571 1.9966761
-0.90688026 3.5538731 1.9892749
-0.90507078 3.5474625 1.9868191
-0.91610456 3.5460424 1.9942421
-0.91983658 3.5587676 1.9982775
-0.93082017 3.5430882 1.9824388
-0.93878818 3.5455265 1.986867
-0.94157338 3.5421209 1.9847851
-0.95121187 3.5368545 1.9793098
-0.9411962 3.5448332 1.9799969
-0.94946605 3.5463636 1.9798238
-0.95665145 3.5381062 1.9909477
-0.97123629 3.536597 1.996949
-0.96827495 3.528991 1.982825
-0.97788864 3.542588 1.9827281
-0.98346508 3.5301344 1.9882603
-0.98487824 3.5346446 1.9975464
-0.98186135 3.5412989 1.9847493
-1.0009245 3.5232427 1.9880153
-1.0054609 3.5201278 1.9805959
-1.0093082 3.5336671 1.9960504
-1.0133265 3.5249434 1.9845973
-1.0062191 3.5265548 1.9929919
-1.0131084 3.516046 1.9951441
-1.0141196 3.5208399 1.9922639
-1.0352257 3.524972 1.9983077
-1.0307977 3.5126035 1.9902461
-1.0370814 3.5081625 1.9902298
-1.0361602 3.5095673 1.9935555
-1.051971 3.5113423 1.9951713
-1.0551989 3.5141747 1.9917382
-1.0629705 3.5178919 1.9809999
-1.0621932 3.513617 1.9932986
-1.073019 3.5073519 1.996521
-1.0816905 3.5049725 1.9859765
-1.0732403 3.5063818 1.9810101
-1.0787439 3.4971118 1.985128
-1.0923072 3.506449 1.9862648
-1.0858846 3.501596 1.9902729
-1.0961341 3.5058191 1.9975294
-1.1047657 3.491699 1.9890988
-1.0968281 3.4946897 1.9858723
-1.1196266 3.5033383 1.9798648
-1.1101243 3.4860394 1.9890931
-1.1173974 3.4849453 1.9974494
-1.135213 3.4971759 1.9887291
-1.1379926 3.4887748 1.9922602
-1.1366521 3.4916801 1.9866564
-1.1341726 3.4858763 1.9977345
-1.1476828 3.4746885 1.9945774
-1.1539341 3.4797328 1.9988484
-1.1486138 3.4775758 1.9876654
-1.1665179 3.4774797 1.9866929
-1.170427 3.4717429 1.9899905
-1.1651056 3.4835875 1.9937695
-1.1714256 3.4824696 1.9913614
-1.1864635 3.4634221 1.9821411
-1.1779681 3.4705634 1.9974225
-1.1950741 3.4650304 1.9885025
-1.2010996 3.4708309 1.9900043
-1.19028 3.4552214 1.9981666
-1.1951869 3.4697714 1.985795
-1.2112745 3.4712543 1.994957
-1.2083322 3.4536629 1.9800185
-1.22209 3.4662251 1.9985682
-1.2320664 3.4572976 1.9976499
-1.2244484 3.4581599 1.9793409
-1.2260484 3.452343 1.9898369
-1.2323645 3.4542432 1.9964702
-1.2475982 3.4549387 1.9905808
-1.2413276 3.4512725 1.9907658
-1.2468923 3.4475155 1.9871914
-1.2648262 3.4524844 1.9867972
-1.2535957 3.4452071 1.9905155
-1.2573011 3.448981 1.9885068
-1.2624543 3.4475851 1.979288
-1.2685233 3.4386115 1.9926554
-1.2728988 3.4328396 1.9819369
-1.2867757 3.4255512 1.9948561
-1.294017 3.4278257 1.9902153
-1.2871449 3.4211657 1.983659
-1.3000854 3.4337327 1.9951034
-1.2965977 3.4331558 1.9932812
-1.3135017 3.4285963 1.9859527
-1.3066847 3.4251163 1.984176
-1.321874 3.4212651 1.9827878
-1.3262795 3.4161246 1.9942172
-1.337315 3.411386 1.9816724
-1.3390663 3.4175448 1.9836437
-1.3278958 3.4212351 1.9897008
-1.3413635 3.4165666 1.9909155
-1.3413849 3.4037249 1.986522
-1.3499591 3.3991356 1.9833826
-1.360353 3.4024041 1.9975215
-1.3580726 3.397249 1.9900249
-1.3575664 3.4016616 1.9805284
-1.3784455 3.4064229 1.9877491
-1.3678927 3.4049006 1.9920955
-1.389882 3.3863759 1.9844722
-1.3898972 3.4037681 1.9824164
-1.3838527 3.3924365 1.9975767
-1.3965907 3.3858247 1.9817864
-1.3937194 3.3953772 1.9833041
-1.3939849 3.3792717 1.9899948
-1.4001086 3.3901799 1.9934412
-1.4137261 3.3863249 1.9832176
-1.4168376 3.3863187 1.9796795
-1.4127254 3.3815906 1.9965496
-1.4242641 3.3795955 1.9968324
-1.4234233 3.3823051 1.9964513
-1.4446354 3.3757765 1.986689
-1.4506844 3.3612242 1.992272
-1.452521 3.3742549 1.9893712
-1.4528369 3.3717289 1.9923352
-1.4464593 3.3677855 1.9881842
-1.4566325 3.3549278 1.9821616
-1.4570264 3.3636594 1.9981229
-1.4609555 3.361201 1.9913526
-1.4680116 3.3518989 1.9845904
-1.4747821 3.34813 1.9825476
-1.4819309 3.3478384 1.9959924
-1.4788389 3.3461843 1.9969077
-1.4901611 3.3473775 1.992883
-1.5043809 3.3529358 1.9883682
-1.4956341 3.3495498 1.9819524
-1.5110351 3.3406658 1.9847279
-1.5124557 3.3360603 1.9982905
-1.5179121 3.3321955 1.9914567
-1.530136 3.3259411 1.9973896
-1.5291189 3.33758 1.9816285
-1.5301417 3.326731 1.9876574
-1.5377166 3.323632 1.9941204
-1.5443734 3.3338659 1.9838712
-1.5350518 3.314532 1.9812815
-1.5502421 3.3285942 1.9974134
-1.551845 3.3119016 1.9867755
-1.5506693 3.3184316 1.9936529
-1.555928 3.3241458 1.9987925
-1.5680174 3.3222733 1.9798113
-1.5741708 3.3060524 1.9946091
-1.5760822 3.3134401 1.9807045
-1.5719618 3.2978811 1.985854
-1.5813751 3.3002908 1.983397
-1.5810345 3.2966447 1.9837719
-1.6032805 3.3024275 1.9803815
-1.5893916 3.2912238 1.9824774
-1.6061373 3.285809 1.9932889
-1.6160024 3.2997458 1.9920062
-1.620725 3.2862005 1.9910493
-1.6244255 3.2911057 1.9960762
-1.613325 3.2787006 1.9907019
-1.6361259 3.2750139 1.9919862
-1.6337742 3.2865088 1.9979043
-1.6338763 3.2829359 1.9824065
-1.6336002 3.2817056 1.9949284
-1.6367115 3.2789497 1.9984899
-1.6577234 3.2640307 1.9988861
-1.6479207 3.2638254 1.9954753
-1.6593975 3.263474 1.9807816
-1.6718279 3.2639949 1.9932618
-1.6592282 3.260186 1.9956123
-1.6719995 3.2581427 1.9965576
-1.6834832 3.2630148 1.9912858
-1.6890455 3.2523448 1.9847354
-1.6901025 3.2465079 1.9792556
-1.6986341 3.2421136 1.993327
-1.703601 3.2412579 1.9947929
-1.7081683 3.2547522 1.9983735
-1.696143 3.2413137 1.9839288
-1.6988082 3.2399857 1.9923376
-1.7089897 3.235795 1.9792764
-1.7168175 3.2433674 1.9865172
-1.7236965 3.2439871 1.9809816
-1.735844 3.2235723 1.987134
-1.7345384 3.226625 1.9898136
-1.7387093 3.225667 1.9904695
-1.7488054 3.2242603 1.9926465
-1.7374321 3.2228007 1.990701
-1.7424748 3.2178776 1.9977065
-1.7619588 3.2147973 1.98578
-1.7530305 3.2060399 1.992065
-1.7571602 3.2139561 1.9883307
-1.7740455 3.2194908 1.9876308
-1.7764629 3.2173727 1.988937
