# .PCD v0.7 - Point Cloud Data file format
VERSION 0.7
FIELDS x y z
SIZE 4 4 4
TYPE F F F
COUNT 1 1 1
WIDTH 1509
HEIGHT 1
VIEWPOINT 0 0 0 1 0 0 0
POINTS 1509
DATA ascii
-5.5372839 -3.4117224 1.9913081
-5.530848 -3.4140239 1.9816549
-5.5266242 -3.4309044 1.9950433
-5.5338445 -3.4225278 1.9929147
-5.5283122 -3.4411321 1.9870764
-5.5148821 -3.4398489 1.9937345
-5.510561 -3.4467866 1.9995724
-5.5166817 -3.453902 1.9892607
-5.5076313 -3.4736223 1.9948281
-5.5091653 -3.4752517 1.9806945
-5.4911189 -3.4859455 1.9851546
-5.4952917 -3.494972 1.9950651
-5.4891071 -3.5045536 1.9958401
-5.4895229 -3.5061455 1.9927298
-5.4720573 -3.5070057 1.9987471
-5.4804192 -3.5192473 1.9937723
-5.4621119 -3.5319905 1.989578
-5.4579563 -3.5356872 1.9859797
-5.4641013 -3.5351772 1.9903659
-5.4446688 -3.5610559 1.9808204
-5.4393592 -3.5537531 1.9882723
-5.4495788 -3.5754993 1.9943819
-5.4298768 -3.5759473 1.9985871
-5.42939 -3.5817091 1.9888712
-5.4320025 -3.5949128 1.9859588
-5.428587 -3.601397 1.9984616
-5.4101357 -3.6145036 1.9858712
-5.4158683 -3.6083949 1.9972272
-5.4051886 -3.6133819 1.9967293
-5.4101119 -3.6238978 1.9979819
-5.4045706 -3.6340759 1.9941596
-5.3915663 -3.639456 1.9962064
-5.3924422 -3.6501279 1.9854136
-5.3891025 -3.6653163 1.9964604
-5.3754678 -3.6681316 1.9818978
-5.3647351 -3.6725566 1.9884384
-5.3614893 -3.6835661 1.9894525
-5.3508234 -3.6853545 1.984149
-5.3487911 -3.7015195 1.9814245
-5.3472462 -3.7076755 1.9957433
-5.3444381 -3.7133675 1.9874359
-5.3454423 -3.711144 1.9812934
-5.3443885 -3.734895 1.9920169
-5.3341174 -3.7404156 1.9950825
-5.3327894 -3.7374215 1.9828563
-5.3260131 -3.7488251 1.9937214
-5.3126864 -3.7621236 1.981086
-5.2983346 -3.7699075 1.9941646
-5.3092766 -3.7608206 1.9985728
-5.3029323 -3.7753608 1.9843125
-5.302259 -3.7922759 1.9918406
-5.2898827 -3.7953877 1.9890652
-5.2836385 -3.8026497 1.9900044
-5.2666607 -3.8048544 1.9928815
-5.2666068 -3.810955 1.986204
-5.258769 -3.8155143 1.9955668
-5.2600555 -3.8319914 1.9990677
-5.2539673 -3.8393726 1.9822139
-5.2547903 -3.8429611 1.9818689
-5.251195 -3.8454814 1.994398
-5.2418494 -3.8526149 1.9974192
-5.2249656 -3.872669 1.9847282
-5.2308469 -3.8717856 1.9921677
-5.2157793 -3.8792417 1.9847873
-5.217824 -3.8919716 1.9986837
-5.2065358 -3.9022014 1.9953908
-5.2058749 -3.8990662 1.9829832
-5.2017026 -3.9152012 1.9905496
-5.1943746 -3.9175279 1.9818748
-5.1873808 -3.921638 1.9980198
-5.1878481 -3.9417915 1.9943637
-5.1852841 -3.9304607 1.9979787
-5.1754007 -3.9504211 1.9897943
-5.1580677 -3.9607329 1.9814634
-5.1681051 -3.9585197 1.9877051
-5.1642365 -3.9704583 1.9910114
-5.1436501 -3.9671862 1.9847399
-5.1554613 -3.9852028 1.9896128
-5.1396966 -3.9813614 1.9994309
-5.132596 -3.9960072 1.992403
-5.1293406 -3.9966111 1.9924779
-5.1297317 -4.0201521 1.9911323
-5.1264973 -4.0193205 1.9970675
-5.1114373 -4.0266771 1.9999239
-5.1046982 -4.029603 1.9922194
-5.0917077 -4.0342007 1.9997941
-5.0954008 -4.0437636 1.9978508
-5.0853553 -4.0506997 1.9850935
-5.0904274 -4.0674419 1.983372
-5.0856709 -4.062665 1.9941914
-5.0679326 -4.0802245 1.9915859
-5.0701098 -4.0837765 1.9926107
-5.0536222 -4.089705 1.9816301
-5.0511899 -4.1061954 1.9904482
-5.0458913 -4.1015782 1.9834882
-5.0482869 -4.109612 1.99907
-5.0430984 -4.1269903 1.9922206
-5.0398431 -4.1199841 1.9855592
-5.0293355 -4.1237211 1.9892715
-5.0205398 -4.1483831 1.9848684
-5.0209146 -4.1409979 1.9900061
-5.0038848 -4.1614904 1.998684
-5.0058208 -4.1512065 1.9885174
-4.9987273 -4.1642103 1.9889363
-4.9828062 -4.1776466 1.9810406
-4.9938354 -4.1792188 1.9921713
-4.9892731 -4.1813526 1.9929761
-4.97155 -4.1859913 1.9878308
-4.9604793 -4.2058926 1.9859843
-4.9656858 -4.2027769 1.986504
-4.9552865 -4.2058263 1.9814286
-4.9597392 -4.2176447 1.9828724
-4.9355044 -4.2372084 1.9816037
-4.9414268 -4.2354975 1.9943264
-4.9269209 -4.2436943 1.9806002
-4.9203005 -4.2487578 1.992281
-4.9225402 -4.2551074 1.9887989
-4.923965 -4.2695918 1.9876407
-4.9105258 -4.2788725 1.9935362
-4.8989239 -4.2792368 1.9894935
-4.9067922 -4.2750888 1.9893399
-4.8997264 -4.3012896 1.9842975
-4.8912072 -4.2891622 1.9866132
-4.8839474 -4.3088732 1.9975531
-4.863955 -4.3200026 1.9872016
-4.8576798 -4.3104472 1.998683
-4.859714 -4.3290758 1.9907036
-4.8452206 -4.335084 1.9951202
-4.8518763 -4.3336167 1.9971279
-4.8326268 -4.3465204 1.9856347
-4.8374104 -4.3532753 1.9851449
-4.8223386 -4.3589573 1.9853007
-4.8322992 -4.3621221 1.9844224
-4.8199353 -4.3640385 1.9906635
-4.8166218 -4.3719835 1.9925965
-4.8036504 -4.379684 1.990898
-4.7991881 -4.3954587 1.9973757
-4.8026958 -4.4027896 1.9846417
-4.7817779 -4.4028354 2.0001626
-4.7788429 -4.4096999 1.9895594
-4.7673912 -4.4274263 1.9989718
-4.7764206 -4.4361677 1.9894648
-4.7652845 -4.4409671 1.9835467
-4.7550178 -4.4395084 1.9824576
-4.7585001 -4.4408517 2.00016
-4.7400408 -4.455349 1.9968903
-4.7432704 -4.4515181 1.9845655
-4.7400126 -4.4573388 1.9916208
-4.7294803 -4.4683948 1.985333
-4.7234173 -4.4826779 1.9988744
-4.7079487 -4.4916816 1.981375
-4.7030582 -4.4958954 1.9818103
-4.7076659 -4.4951634 1.9841144
-4.6981821 -4.5103645 1.9945364
-4.6897783 -4.5152569 1.9902656
-4.6836629 -4.5279078 1.9981396
-4.6808085 -4.5300159 1.9964775
-4.670269 -4.5351028 1.9956191
-4.6526656 -4.5359039 1.9903204
-4.6613412 -4.5368967 1.9973459
-4.6564655 -4.5486851 1.9819661
-4.6490808 -4.5618567 1.9889621
-4.6412516 -4.5659189 1.9832705
-4.6311088 -4.5667892 1.98895
-4.6305351 -4.5855565 1.9963003
-4.6142235 -4.5845189 1.9975538
-4.6100287 -4.5869455 1.9832449
-4.6074872 -4.6051621 1.9903853
-4.6057949 -4.6121125 1.9832529
-4.5893922 -4.6140847 1.9816463
-4.5859551 -4.617537 1.9947612
-4.577889 -4.6199698 1.9812057
-4.5628176 -4.6209469 1.9900805
-4.5734291 -4.6381645 1.9845684
-4.5583525 -4.6412001 1.9867632
-4.5559163 -4.654325 1.9964613
-4.5522175 -4.6496654 1.9901888
-4.542819 -4.6688828 1.9921477
-4.5262713 -4.6728363 1.9935946
-4.5168471 -4.6668234 1.999499
-4.5290208 -4.6838198 1.9883713
-4.5080705 -4.6792049 1.9812225
-4.5006671 -4.6859822 1.9994992
-4.5043797 -4.6898441 1.9869519
-4.4935961 -4.7051105 1.9977533
-4.4806089 -4.7044315 1.9818048
-4.4779148 -4.726553 1.9968826
-4.4814839 -4.7257843 1.9990999
-4.4630861 -4.7349849 1.983712
-4.463232 -4.7412877 1.9806755
-4.4574652 -4.7462983 1.9869726
-4.4428172 -4.7569022 1.9842052
-4.4353094 -4.746655 1.9809719
-4.4295163 -4.7666821 2.0001793
-4.4362617 -4.7624955 1.9904132
-4.4121971 -4.7719002 1.9876102
-4.4240723 -4.7851982 1.9889604
-4.4008613 -4.788662 1.9973449
-4.3954244 -4.8003325 1.9827849
-4.3853664 -4.7987628 1.9881697
-4.3783364 -4.798049 1.9947815
-4.3850012 -4.8093181 1.9970179
-4.3744245 -4.8197188 1.9957205
-4.3670726 -4.8309751 1.9806061
-4.3605046 -4.8356338 1.9958789
-4.3636947 -4.8428936 1.9879385
-4.3496785 -4.8487034 1.9928821
-4.3343043 -4.8379846 1.9805348
-4.3305368 -4.8485203 1.9826802
-4.321321 -4.8556986 1.9925493
-4.3267117 -4.8625555 1.989277
-4.3054824 -4.8627949 1.980871
-4.3020082 -4.8791828 1.9881897
-4.2998228 -4.8749533 1.9903686
-4.2927437 -4.8908987 1.9939958
-4.2903833 -4.8967853 1.9964607
-4.2759547 -4.8954158 1.9992043
-4.2765741 -4.9054408 1.9987453
-4.2695327 -4.9184747 1.9938196
-4.2603378 -4.9290781 1.9877754
-4.2612653 -4.9318662 1.9809244
-4.2454567 -4.9402275 1.9998751
-4.2380457 -4.9319243 1.9884689
-4.2233076 -4.9482555 1.987314
-4.2263827 -4.9443345 1.9962258
-4.2258224 -4.964889 1.9852535
-4.2027888 -4.957859 1.9816434
-4.1970034 -4.9583015 1.9939922
-4.1916685 -4.9785628 1.9992807
-4.1912513 -4.9764981 1.99993
-4.1768699 -4.9822383 1.9837458
18.548697 -0.97028065 0.1143745
18.558569 -0.92728442 0.1003025
18.569214 -0.8942675 0.1148349
18.567772 -0.87060183 0.10067699
18.566078 -0.84848893 0.10886397
18.556568 -0.81753552 0.11126477
18.574495 -0.79597175 0.10233153
18.576811 -0.7614392 0.11555447
18.575867 -0.74707401 0.10403907
18.575811 -0.72043723 0.10221914
18.580797 -0.66297197 0.10928766
18.566446 -0.63979214 0.10578116
18.566591 -0.61930555 0.10003679
18.572542 -0.58172894 0.1105001
18.566643 -0.55484283 0.10600987
18.571289 -0.48343307 0.10520335
18.580421 -0.46166152 0.11416798
18.587696 -0.44109643 0.10086007
18.572626 -0.41630173 0.11545952
18.586899 -0.38678566 0.10732156
18.577627 -0.35801581 0.11375172
18.582575 -0.32415017 0.11183877
18.577951 -0.29700187 0.11089101
18.5888 -0.27417007 0.10769066
18.590778 -0.24458809 0.10344538
18.582441 -0.19702043 0.10467756
18.581305 -0.17237017 0.10785598
18.586823 -0.1433921 0.10990226
18.586905 -0.12070798 0.11553698
18.578812 -0.087824367 0.10401311
18.577112 -0.070485674 0.10042571
18.588833 -0.015543547 0.11258935
18.403875 0.012176548 0.27604976
18.411722 0.037587851 0.2778568
18.412224 0.052620534 0.27174449
18.40123 0.086239181 0.26435012
18.413378 0.10513582 0.28000107
18.407537 0.14390986 0.27240309
18.407295 0.15442328 0.27175543
18.415493 0.18310621 0.26251298
18.400068 0.20804565 0.27959388
18.402239 0.24829377 0.27342612
18.398905 0.26065019 0.26560268
18.413719 0.30086958 0.27750394
18.410305 0.32164469 0.27875137
18.400742 0.35151485 0.26793101
18.403749 0.37365842 0.27032104
18.402372 0.39012164 0.26579902
18.39336 0.42653918 0.26610461
18.403666 0.45138708 0.2694076
18.404692 0.48107791 0.27196482
18.402763 0.49324277 0.26908544
18.39463 0.52241409 0.27287811
18.39864 0.54677534 0.27120638
18.394514 0.56813353 0.26462647
18.3916 0.60037619 0.26223406
18.397829 0.63610899 0.2763032
18.386412 0.6509828 0.26115423
18.390438 0.67739964 0.27674225
18.394733 0.69471169 0.27149838
18.402296 0.73367655 0.27026644
18.392382 0.75137508 0.27552137
18.399549 0.78163934 0.26427054
18.390476 0.79664594 0.27170491
18.379694 0.82829612 0.27482241
18.579905 0.86694854 0.23505558
18.580067 0.88383603 0.23480192
18.574261 0.91018397 0.24375051
18.573271 0.94147032 0.2334456
18.587831 0.97800058 0.23478377
18.577112 1.0030777 0.24941915
-5.9998999 -3.0027895 2.0135453
-6.0019464 -2.9962018 2.0010347
-5.9902768 -3.0175669 2.0034957
-5.9984159 -3.0188065 2.0064399
-5.9974065 -3.0363021 2.0025067
-5.976202 -3.0445342 2.0096066
-5.9807601 -3.0394096 2.0039556
-5.9810133 -3.0600901 2.015373
-5.9759026 -3.0663788 2.0029631
-5.9732351 -3.0723169 2.0112965
-5.9571891 -3.0841842 2.0152328
-5.9579167 -3.0822954 2.0141542
-5.9511428 -3.0929472 2.0001016
-5.9418969 -3.0959589 2.013195
-5.9496951 -3.1221948 2.0171723
-5.9414144 -3.1314707 2.0012913
-5.9460225 -3.1295607 1.9989024
-5.9362698 -3.1321723 2.004195
-5.9350886 -3.1539526 2.0115542
-5.9263053 -3.1573567 2.0013256
-5.9291773 -3.169018 2.0075734
-5.9081011 -3.1657212 2.0040476
-5.908092 -3.1799769 2.0182018
-5.9021244 -3.1893241 2.0176699
-5.9030514 -3.190819 1.9992217
-5.8999901 -3.2083945 1.9998111
-5.8927979 -3.2149506 2.010618
-5.8879828 -3.2161384 2.0071144
-5.8778644 -3.2205403 2.0101259
-5.8803744 -3.2405663 2.0180218
-5.8731022 -3.2478828 2.0025396
-5.8795705 -3.2585537 1.9986308
-5.8695531 -3.2536578 2.0087366
-5.8653698 -3.2672474 2.0177593
-5.8617072 -3.2862294 2.013545
-5.8564816 -3.2866261 2.0000072
-5.8506551 -3.3043187 2.0081584
-5.8340101 -3.3016958 2.0033615
-5.8408575 -3.3134654 2.0023952
-5.8246818 -3.3122675 2.0096297
-5.8205991 -3.3283312 2.0177677
-5.8319869 -3.3354087 2.0034485
-5.8272719 -3.3370254 2.0022328
-5.8124399 -3.3590271 2.0156286
-5.8085742 -3.3619461 2.0182371
-5.8089108 -3.3642306 2.0086374
-5.8027744 -3.3852909 2.009527
-5.7884755 -3.3943202 2.0012147
-5.7989621 -3.3948221 2.0093019
-5.7904034 -3.4037852 2.0067494
-5.7745991 -3.4133132 2.0162892
-5.7706456 -3.4188886 2.0069013
-5.7810001 -3.4244201 2.0040395
-5.7725592 -3.4398017 2.0073125
-5.7707109 -3.4360111 2.0157962
-5.766243 -3.457262 2.010119
-5.7513633 -3.4570925 2.0114982
-5.7555828 -3.4673514 2.0119581
-5.7481036 -3.4728355 2.0000198
-5.7325258 -3.4745111 2.007215
-5.7394891 -3.4851439 2.0129726
-5.7369018 -3.4965959 2.0012383
-5.723691 -3.503186 2.0120497
-5.7133307 -3.5061302 2.0155492
-5.7196865 -3.5120327 2.0109031
-5.7175474 -3.5382848 2.0130627
-5.7010746 -3.5344858 2.0034418
-5.7032113 -3.5397468 2.0116055
-5.6848764 -3.5623794 2.0023215
-5.6984692 -3.554297 1.9993913
-5.6848555 -3.5780516 2.0138514
-5.6854734 -3.5841036 2.0048754
-5.677814 -3.581841 2.0173187
-5.6593328 -3.5941255 2.0148199
-5.6573405 -3.5976841 2.0144143
-5.6599832 -3.604033 2.0157452
-5.6604557 -3.6188493 2.0088568
-5.6505375 -3.620754 2.0046821
-5.6524448 -3.6292872 2.0058427
-5.6436253 -3.6363869 2.0030468
-5.6377249 -3.6548581 2.0044501
-5.6373534 -3.6589429 2.0077481
-5.6259465 -3.6603756 2.0012491
-5.622086 -3.6683455 2.0103984
-5.6207128 -3.6793523 2.0039151
-5.5997343 -3.6780424 1.9990017
-5.597414 -3.702256 2.007184
-5.6019716 -3.7016141 2.0013661
-5.5906925 -3.7079532 2.0149128
-5.5782418 -3.710557 2.0092506
-5.5885763 -3.7323558 2.0130005
-5.577497 -3.7388897 2.0005422
-5.563108 -3.7391343 2.0145199
-5.5752077 -3.7406466 2.0083902
-5.558147 -3.7659249 1.9991086
-5.5475588 -3.7753754 1.9989843
-5.541873 -3.7676666 2.0024869
-5.5479941 -3.7896874 2.0144644
-5.5399222 -3.7856123 2.0079291
-5.5382929 -3.7942805 2.0066085
-5.522315 -3.7984881 2.0113006
-5.5225763 -3.8168318 2.0172632
-5.5152855 -3.8260136 2.0107777
-5.5140057 -3.8325322 2.0105698
-5.4988451 -3.8272386 2.0128658
-5.4929552 -3.836616 2.0134861
-5.5071793 -3.8455777 2.0095828
-5.4978895 -3.8659418 2.0114188
-5.4766116 -3.8635254 2.0050826
-5.4818587 -3.8647821 2.0178237
-5.4684153 -3.8753743 2.0140951
-5.4702692 -3.891552 1.9997531
-5.4661498 -3.9057734 2.0039525
-5.4685049 -3.9040608 2.0093489
-5.4510579 -3.9125438 2.0077469
-5.451304 -3.9205041 2.004468
-5.4509187 -3.9280663 1.9999206
-5.4344263 -3.9317272 2.0026948
-5.4360876 -3.9395096 2.0155632
-5.4240742 -3.9579487 2.0148454
-5.4193096 -3.9483652 2.0111983
-5.4182625 -3.9660666 1.9990289
-5.4115472 -3.965091 2.0002859
-5.4006214 -3.9719234 2.0108955
-5.4042892 -3.9867713 2.0006545
-5.3895483 -3.9873397 2.0100777
-5.3780756 -4.0130072 1.9995564
-5.39114 -4.007678 2.0129833
-5.3814192 -4.0095158 2.0062296
-5.3788199 -4.0248566 2.008631
-5.3569279 -4.0409594 2.0082023
-5.3586721 -4.0415525 2.0176506
-5.3525758 -4.0409784 2.0156455
-5.345212 -4.0550375 2.0143712
-5.3472281 -4.0583334 2.0058041
-5.3394747 -4.0724678 2.0042162
-5.3222876 -4.0807199 2.0045004
-5.3156114 -4.0876374 2.0176456
-5.3154979 -4.0904455 2.0164773
-5.3221273 -4.0962753 2.0074847
-5.3063455 -4.1058459 2.0098975
-5.3109818 -4.1228032 1.9992174
-5.3061595 -4.1193175 2.0166039
-5.2833323 -4.134131 2.007416
-5.2817688 -4.1366348 2.002409
-5.2887621 -4.1370697 2.0107362
-5.2773333 -4.1460123 2.0182719
-5.2656093 -4.1539836 2.0063434
-5.2607303 -4.1675572 1.9990519
-5.257009 -4.1734867 2.0133669
-5.24227 -4.1893702 2.0055406
-5.2451086 -4.1956367 2.0081775
-5.2386165 -4.2028384 2.0017133
-5.2347279 -4.2129798 2.0078399
-5.2200165 -4.2073355 1.9988596
-5.2303023 -4.2144728 2.0168328
-5.2122507 -4.2159786 2.0132442
-5.2066531 -4.2315698 2.0090563
-5.1929741 -4.2481003 1.998659
-5.2065763 -4.2467389 2.0096886
-5.185853 -4.2564783 2.0121825
-5.1929464 -4.2549052 2.0157495
-5.1773925 -4.2726998 1.9994464
-5.1682925 -4.2724757 2.0003252
-5.1730561 -4.283421 2.0141637
-5.1667895 -4.2905426 2.008172
-5.16254 -4.3055134 2.0079727
-5.1418691 -4.300797 1.999473
-5.1453757 -4.3083224 2.0017247
-5.1392698 -4.3153811 2.0126116
-5.1221242 -4.3276577 2.0010252
-5.1224747 -4.3329792 2.0182691
-5.1192484 -4.3487082 2.004967
-5.1123147 -4.3413086 1.9991293
-5.1044927 -4.3646541 2.0095787
-5.1028218 -4.3677254 2.0001304
-5.0871334 -4.3725486 2.0029271
-5.0916333 -4.3827124 2.017647
-5.0846238 -4.3824053 2.0120401
-5.0753522 -4.3820238 2.0065649
-5.0751839 -4.3905392 2.0159948
-5.0665922 -4.4054565 2.0072765
-5.0607467 -4.4032097 2.0099945
-5.0481935 -4.4201012 2.0072682
-5.0414681 -4.4352527 2.0083442
-5.0442834 -4.4348249 2.0134885
-5.0365372 -4.4448104 2.0009403
-5.0259848 -4.4454079 2.0053506
-5.0207024 -4.4451175 2.0171819
-5.0210166 -4.4616871 2.0164995
-5.0067968 -4.4642296 2.0143986
-5.0031371 -4.4843321 2.0044682
-4.9881859 -4.4847503 2.003864
-4.9905071 -4.4987864 2.0134392
-4.9755449 -4.4922781 2.0149252
-4.979497 -4.4947758 2.0038922
-4.9782948 -4.5157285 2.0099187
-4.9696307 -4.5123382 2.0023837
-4.9565473 -4.5298862 2.002167
-4.9516225 -4.5339785 2.0123994
-4.947371 -4.5300908 2.0070992
-4.94521 -4.5487933 2.0086977
-4.9329705 -4.5588036 2.0168707
-4.9213247 -4.5574045 2.0179915
-4.920095 -4.5673218 2.0125957
-4.9173689 -4.5674796 2.0116682
-4.9056668 -4.5727334 2.0167458
-4.907928 -4.5956316 2.0121622
-4.8977151 -4.5917635 2.0169704
-4.8877091 -4.6092987 2.0046172
-4.8874617 -4.6089187 2.0030737
-4.8725047 -4.6127243 2.0097413
-4.8759394 -4.6306467 2.0133028
-4.8711915 -4.6232891 2.0051591
-4.8453135 -4.6410775 2.0139844
-4.8448219 -4.6425247 2.0095301
-4.8452482 -4.6386642 2.00669
-4.8405876 -4.6634698 2.007812
-4.8205013 -4.6644759 1.9996525
-4.8155971 -4.6618996 2.0008001
-4.8230367 -4.6655083 2.0091608
-4.8120103 -4.6806026 2.0005391
-4.7943072 -4.6855831 2.0008101
-4.7930326 -4.6922774 2.0152445
-4.7798929 -4.6995649 1.9986873
-4.7779183 -4.7128406 2.0074704
-4.7803888 -4.7130332 2.0068927
-4.7656898 -4.7150636 2.0082788
-4.7698598 -4.7235169 2.0154195
-4.7621803 -4.7335835 2.0118878
-4.7533431 -4.7376175 2.0114899
-4.7361369 -4.7571621 2.0027308
-4.7275424 -4.7455497 2.0157149
-4.7386675 -4.7592187 2.0087197
-4.7153492 -4.7663131 2.0011427
-4.7085791 -4.7780066 2.0069861
-4.7130165 -4.7787547 1.9993247
-4.6980224 -4.7913971 2.0163105
-4.701633 -4.7948117 2.011512
-4.6980939 -4.7971578 2.0033064
-4.6780772 -4.8172879 2.0177171
-4.6784496 -4.8068419 1.9992242
-4.6675715 -4.8144403 1.9989756
-4.6637001 -4.8198128 2.0116806
-4.6468153 -4.8285251 2.0039046
-4.6574979 -4.8371344 2.0110385
-4.6423283 -4.8568573 2.0040188
-4.6348109 -4.8482714 2.0109422
-4.6302986 -4.8699908 2.0010269
-4.6305757 -4.8748751 2.015332
-4.6190495 -4.8664556 2.0160639
-4.6131034 -4.8851299 2.0137899
-4.6056414 -4.8796577 2.0104554
-4.5984187 -4.8970547 2.0082772
-4.5784826 -4.9043159 2.0039062
-4.5863132 -4.9090185 2.017436
-4.5670013 -4.9053183 2.0177436
-4.5746999 -4.9208779 2.0131283
-4.5554662 -4.9187107 2.0132747
-4.5461388 -4.9236155 2.0150094
-4.5424972 -4.9437976 2.0116262
-4.538115 -4.9448466 2.0160217
-4.5359983 -4.9452553 2.0123327
-4.5172071 -4.9652724 2.0176811
-4.5205851 -4.9721923 2.0021927
-4.5083251 -4.9737916 2.0084167
-4.5025268 -4.9829369 2.004746
-4.4964118 -4.9866467 2.0119114
-4.4949036 -4.9779978 2.0076299
18.584131 -0.97153062 0.24945988
18.574972 -0.9604997 0.23848228
18.579884 -0.93277514 0.2401505
18.588831 -0.9055562 0.23351888
18.581541 -0.88005155 0.2433084
18.590643 -0.85952801 0.23779061
18.391745 -0.8101896 0.2630066
18.38323 -0.79397845 0.26676813
18.382225 -0.7706089 0.27174604
18.382936 -0.73524159 0.27826193
18.391417 -0.71411908 0.27629524
18.390461 -0.68351692 0.27943254
18.398493 -0.6693297 0.26436555
18.388157 -0.62748367 0.27058682
18.391153 -0.61418241 0.2763803
18.403902 -0.59299731 0.2767632
18.3911 -0.55427051 0.27167657
18.394022 -0.5251919 0.27713957
18.400671 -0.49821603 0.28030902
18.392263 -0.47158989 0.2731812
18.410334 -0.45750952 0.26150981
18.406403 -0.42537406 0.27477315
18.405573 -0.40616119 0.27655482
18.409639 -0.37820271 0.27451244
18.399893 -0.34813035 0.2800999
18.395903 -0.32615462 0.26119986
18.41226 -0.29779333 0.27535287
18.403496 -0.26728368 0.27290964
18.400158 -0.25086421 0.27176633
18.399954 -0.22355704 0.2715722
18.412584 -0.19884634 0.2797806
18.413509 -0.17869885 0.27444565
18.407661 -0.13997732 0.26264393
18.403561 -0.1177488 0.27312019
18.397379 -0.10579208 0.26798761
18.416752 -0.078313701 0.27914882
18.397186 -0.034930825 0.27298874
18.411739 -0.020730127 0.27165511
18.42334 0.013160497 0.39558238
18.434229 0.043119423 0.40660739
18.424889 0.065400645 0.39665839
18.423721 0.088332735 0.40117174
18.417183 0.10517895 0.39872113
18.418806 0.13772094 0.41281325
18.43087 0.16391627 0.41317606
18.417765 0.18935233 0.41533098
18.415785 0.21512906 0.41518238
18.42761 0.23539941 0.40354797
18.418066 0.26772007 0.39670846
18.417887 0.29094771 0.41411403
18.428698 0.32488817 0.40808704
18.429523 0.33774975 0.39927846
18.414825 0.36419749 0.40160257
18.417643 0.39242959 0.41075531
18.414515 0.41292226 0.4003903
18.411715 0.44054288 0.40974855
18.411034 0.46645263 0.39917108
18.430168 0.50449139 0.40315196
18.417631 0.53332543 0.41374189
18.418221 0.54235685 0.40184841
18.41618 0.58261055 0.39818481
18.408073 0.60413754 0.40167287
18.411125 0.63145107 0.40589938
18.416464 0.66210049 0.41264942
18.410919 0.67017794 0.41418433
18.414976 0.69604605 0.39763281
18.408352 0.72185975 0.40128487
18.411118 0.74747044 0.39727041
18.417826 0.78124362 0.3963857
18.415089 0.81633967 0.39882907
18.400423 0.83016425 0.3958239
18.402058 0.85669023 0.40864459
18.407145 0.88710898 0.40307879
18.396421 0.90374464 0.40246361
18.412413 0.93574977 0.40422827
18.409903 0.95275933 0.40616482
18.410807 0.98413157 0.4082202
-6.077548 -3.6928358 2.0060728
-6.0668316 -3.7021725 2.0016036
-6.058465 -3.7237539 2.0083272
-6.0615559 -3.7246761 2.003736
-6.0653143 -3.7248716 1.9941689
-6.0580616 -3.7507451 2.0026338
-6.0481105 -3.7519352 2.0089405
-6.0439696 -3.7576458 1.9993037
-6.0436502 -3.766108 2.0106049
-6.0225105 -3.7727866 1.9971501
-6.0265856 -3.7907579 1.9937102
-6.0269709 -3.7831905 2.0094304
-6.0118141 -3.7924457 1.9920585
-6.0099216 -3.8099935 2.0022464
-6.012609 -3.8165128 2.0007138
-6.0048513 -3.8210042 2.001775
-5.9886174 -3.8407812 2.0101063
-5.9860649 -3.841666 2.0011797
-5.9731374 -3.8474917 1.9922366
-5.9688973 -3.8574498 2.005053
-5.9781003 -3.8767669 2.0083289
-5.9707313 -3.8817654 2.0075958
-5.9676304 -3.876914 2.0060232
-5.9618897 -3.8954895 1.9953115
-5.94595 -3.9020829 2.0064814
-5.9515309 -3.9062614 2.0015538
-5.936039 -3.91956 2.0052352
-5.9322042 -3.935672 1.9964104
-5.9372845 -3.9442344 2.0101311
-5.9312959 -3.9339457 2.0022571
-5.9124799 -3.958261 2.0034223
-5.9103761 -3.9606197 2.0079374
-5.9089942 -3.965302 2.005645
-5.909173 -3.9696796 1.9931104
-5.9000521 -3.9835644 2.0023081
-5.8797498 -3.9884894 1.9956453
-5.8843637 -4.0033932 2.0039945
-5.8852849 -3.9999442 2.004534
-5.8750191 -4.0070691 2.0048068
-5.8710213 -4.0337114 2.0036554
-5.8548861 -4.0270538 2.0064688
-5.857574 -4.0438213 1.9951954
-5.8557353 -4.0447469 2.007504
-5.8361778 -4.051403 2.0036914
-5.8291435 -4.074501 1.9942427
-5.8329 -4.082871 2.00811
-5.823308 -4.0814409 1.995307
-5.8253555 -4.0865293 1.9941781
-5.8068519 -4.1069613 1.9941417
-5.8080645 -4.109015 1.9956728
-5.8104167 -4.1205659 1.992063
-5.7899442 -4.1204476 1.9998797
-5.800734 -4.1241455 1.9949571
-5.7792039 -4.1339521 2.0115566
-5.7814751 -4.1424017 1.9932282
-5.7731833 -4.1602969 1.9946918
-5.7710133 -4.1542997 2.0057399
-5.7616348 -4.1760621 1.9998457
-5.7533741 -4.1850438 2.0016582
-5.7451386 -4.1809716 2.009547
-5.7553606 -4.204998 1.9940073
-5.7491813 -4.1943083 2.0067
-5.7351742 -4.2201772 2.0038009
-5.7260785 -4.2102952 1.9991934
-5.7203722 -4.2284751 1.9942262
-5.7129827 -4.2441654 1.999446
-5.7041187 -4.2434993 1.9987364
-5.7041955 -4.2592788 2.0043302
-5.690155 -4.252634 2.0089998
-5.6942911 -4.2636008 2.0057907
-5.6905274 -4.2706475 2.0065966
-5.6822925 -4.2773848 2.006125
-5.6813536 -4.2959952 2.0078094
-5.6633024 -4.2914023 2.0073922
-5.669848 -4.3070054 1.9968035
-5.6613493 -4.3211341 1.9985242
-5.6476202 -4.3323236 2.008903
-5.6545897 -4.3295264 2.0114853
-5.6359544 -4.3386364 2.0086875
-5.6326385 -4.3378415 2.0028901
-5.6325202 -4.3592525 1.9980041
-5.6115856 -4.3584094 1.9943309
-5.6111112 -4.3626194 1.9999888
-5.6089416 -4.3747811 1.9981732
-5.6071782 -4.3795028 2.0086794
-5.5959926 -4.401751 1.9929736
-5.5830755 -4.396306 1.9939864
-5.5797687 -4.4038782 2.0056961
-5.5738683 -4.4188728 1.9961866
-5.570755 -4.4166207 1.9953549
-5.5734286 -4.440331 2.0009863
-5.560977 -4.4491973 1.9953266
-5.5521874 -4.4436917 1.9933141
-5.5377297 -4.4621296 2.0069885
-5.5450764 -4.4649282 2.0037813
-5.5419059 -4.4626765 2.0061572
-5.534431 -4.4736528 2.001801
-5.5259318 -4.4874792 1.9976871
-5.505713 -4.5015736 2.0063841
-5.5149922 -4.4987326 2.0051305
-5.5050926 -4.5047545 2.0079551
-5.4895506 -4.5245252 2.0096931
-5.4996576 -4.5217175 2.0047076
-5.4917665 -4.5306735 2.0090466
-5.4701905 -4.5332093 1.9983405
-5.4718108 -4.5588183 1.9976314
-5.4710445 -4.5632067 1.9936819
-5.4546237 -4.565361 2.0036335
-5.4423065 -4.5735722 2.0072098
-5.4412813 -4.5773492 2.0013366
-5.4414988 -4.5775242 1.9971429
-5.4388814 -4.5884652 2.0008707
-5.4345155 -4.5958323 1.9950899
-5.4151244 -4.6016374 2.0080271
-5.4113836 -4.6122069 2.0060945
-5.3983388 -4.6307478 2.0062099
-5.405992 -4.6348844 2.0095849
-5.3975844 -4.648972 1.9984447
-5.3792148 -4.657125 2.0067236
-5.3772583 -4.6506467 1.9988468
-5.3811641 -4.6707897 1.9984074
-5.3692532 -4.6747303 1.9946303
-5.3536043 -4.6807308 2.0110805
-5.3637257 -4.6937757 2.009311
-5.3408995 -4.6895261 2.0045481
-5.3399949 -4.698689 2.0088117
-5.3389649 -4.7019725 1.9964974
-5.3345494 -4.7233267 1.9976448
-5.3212638 -4.7128 1.9981791
-5.3196888 -4.7268152 1.9927232
-5.3059807 -4.7312465 1.994646
-5.2927012 -4.7502875 2.0001409
-5.3031883 -4.7602096 2.0071397
-5.297215 -4.7667942 2.0085881
-5.2730012 -4.7571039 2.0017715
-5.2735395 -4.7730713 1.9932683
-5.2698045 -4.774581 2.0089486
-5.2583728 -4.7982583 2.0107327
-5.2457838 -4.7952428 2.0104928
-5.2526503 -4.797256 2.0036767
-5.2449622 -4.8121748 1.9998595
-5.2353411 -4.8204384 2.0044227
-5.2202148 -4.8258238 2.0064754
-5.2180796 -4.8318806 2.009346
-5.2144856 -4.8403788 2.0093002
-5.2176986 -4.856081 2.0006707
-5.2094045 -4.8547239 1.9979061
-5.1854196 -4.8686213 1.9988294
-5.1796403 -4.876626 2.010124
-5.1740913 -4.8782039 2.0067518
-5.1753483 -4.8788104 1.995798
-5.1604118 -4.8965225 2.0039084
-5.1609025 -4.9058461 1.9939519
-5.1593299 -4.8997822 2.0052474
-5.1548772 -4.916882 1.9953439
-5.1304598 -4.9239621 1.9970282
-5.1346622 -4.9295263 2.0073502
-5.1216187 -4.9378939 2.0110459
-5.1276422 -4.9472804 1.9939983
-5.1023612 -4.9579263 2.002625
-5.1004424 -4.9566474 1.9978875
-5.0894675 -4.9672608 2.0026705
-5.0903721 -4.9652033 2.0053532
-5.081223 -4.9684224 2.0013139
-5.0807691 -4.9940472 2.0073791
18.403095 -0.96979922 0.41151306
18.4065 -0.93631876 0.40397888
18.394022 -0.90982509 0.41412857
18.404345 -0.88771743 0.40149146
18.399702 -0.85988039 0.40354618
18.414408 -0.8384521 0.40131488
18.414522 -0.82302243 0.39654195
18.405256 -0.79437923 0.41352156
18.405043 -0.76528144 0.40947658
18.42013 -0.72904813 0.39603561
18.407598 -0.71089357 0.4063122
18.40472 -0.6906842 0.4043909
18.41427 -0.66426617 0.40328303
18.413935 -0.6288023 0.39860082
18.420927 -0.61922169 0.39607188
18.409937 -0.57614255 0.40928569
18.416681 -0.55411947 0.41224203
18.418615 -0.54249561 0.39815277
18.417494 -0.51218319 0.40747097
18.412291 -0.48784623 0.40733063
18.41361 -0.45706752 0.39965159
18.425173 -0.43015885 0.4064872
18.414776 -0.41465446 0.41404474
18.423237 -0.38040474 0.41136882
18.426979 -0.36004683 0.41257486
18.428156 -0.33152607 0.41116014
18.42251 -0.29707375 0.40606755
18.419786 -0.28146291 0.40689668
18.422937 -0.24771398 0.41233504
18.415369 -0.219872 0.39640617
18.427626 -0.19137795 0.4055509
18.432167 -0.17195535 0.39589819
18.42351 -0.1435255 0.39604297
18.422373 -0.12719634 0.40472978
18.418524 -0.087650113 0.408066
18.435844 -0.067415826 0.41421381
18.431715 -0.053279724 0.40910405
18.422457 -0.022285532 0.41389471
18.452536 0.014890217 0.54138756
18.449469 0.04076606 0.53634661
18.450438 0.05858846 0.53408772
18.440516 0.080678336 0.54553902
18.440903 0.11387122 0.53970742
18.441401 0.14572461 0.54449195
18.450548 0.17356254 0.54310942
18.442997 0.19859099 0.53624761
18.441557 0.21939522 0.5378083
18.434971 0.25088257 0.5446493
18.45314 0.27388212 0.53953952
18.444103 0.29383215 0.53456587
18.449987 0.31480381 0.54167491
18.433578 0.34594169 0.54513425
18.448584 0.37759313 0.53604704
18.437721 0.3899028 0.53307402
18.431608 0.43155748 0.53219992
18.444077 0.44589332 0.53061563
18.429647 0.47905806 0.54409719
18.436743 0.50594199 0.54332817
18.430643 0.53133559 0.53982127
18.439398 0.54806745 0.53052741
18.443142 0.5710966 0.5364688
18.43396 0.59816396 0.54781222
18.428202 0.62072092 0.54507196
18.433319 0.6529358 0.54890692
18.435429 0.67959303 0.54866278
18.436628 0.69931012 0.53702164
18.436209 0.72522509 0.53281319
18.429234 0.75889868 0.54975742
18.421453 0.78717178 0.54636514
18.43013 0.80493462 0.53397548
18.429478 0.82721347 0.53888685
18.434731 0.8611173 0.5451386
18.431292 0.89010549 0.54822135
18.425076 0.90509063 0.53779435
18.422659 0.9430998 0.54830116
18.419962 0.96325874 0.53280288
18.425589 0.9839831 0.53749883
-6.0853996 -4.42378 2.0086539
-6.0658588 -4.4261575 1.9955255
-6.0746636 -4.4394555 1.9980946
-6.0592875 -4.4476042 2.0057311
-6.0466123 -4.457211 2.0041809
-6.0411658 -4.4619684 2.0031283
-6.0490899 -4.4700775 2.0015702
-6.0327578 -4.4909167 1.992813
-6.0221648 -4.4898448 1.9971646
-6.0251536 -4.4917436 1.9937439
-6.0119557 -4.5171795 2.0053971
-6.0077577 -4.509264 2.0031693
-5.996676 -4.5363555 1.9961309
-6.0030136 -4.5342846 2.0094233
-5.9817028 -4.545764 2.0015793
-5.9819307 -4.5580339 1.997439
-5.9831996 -4.564477 1.9936429
-5.9660149 -4.5608487 1.9974515
-5.9575753 -4.5729003 2.0107679
-5.9647732 -4.5942249 2.0106118
-5.9553795 -4.5886478 1.9934378
-5.9543214 -4.6051803 1.9925882
-5.9354792 -4.616951 1.9930472
-5.9236641 -4.6213899 2.0039687
-5.9185448 -4.6308618 1.9917935
-5.921258 -4.6269159 1.9957218
-5.9080997 -4.6506052 2.0015719
-5.8987265 -4.6434875 1.999406
-5.9055324 -4.6543202 1.9935353
-5.8990107 -4.658752 1.994678
-5.8926339 -4.6802025 2.0097268
-5.8834195 -4.6870198 1.9965631
-5.8750429 -4.7014308 1.9999398
-5.8661962 -4.710474 2.0071793
-5.8664165 -4.7008572 1.9932401
-5.8588004 -4.7204247 1.9915308
-5.8472447 -4.7333164 1.9944071
-5.8498273 -4.7433281 1.9926667
-5.8345647 -4.7466512 2.0083504
-5.825161 -4.74997 2.0078502
-5.8146033 -4.7534399 1.9941378
-5.8089857 -4.7742357 2.0018375
-5.8165202 -4.7732058 2.0033467
-5.8006668 -4.7898922 2.0040236
-5.7975626 -4.7933726 2.0025189
-5.7883859 -4.7958226 2.0096397
-5.7809076 -4.813314 1.9920524
-5.7705417 -4.8199968 1.9926276
-5.7619052 -4.8180361 1.9980444
-5.7575731 -4.8333035 2.0082982
-5.7537303 -4.844656 2.0032284
-5.7435884 -4.8570447 2.0055003
-5.7457361 -4.8636332 1.9969299
-5.7263627 -4.8610449 1.9997916
-5.7263017 -4.86204 2.007282
-5.7277341 -4.880558 2.000422
-5.7220345 -4.8783078 2.0041611
-5.7139111 -4.8924136 2.0092988
-5.7052011 -4.9046159 2.0044682
-5.6910634 -4.9192305 1.9924327
-5.6866608 -4.9167576 1.9970975
-5.6873169 -4.9309101 1.9974171
-5.6656895 -4.9339876 1.9991821
-5.6726222 -4.9444814 1.9915599
-5.6566815 -4.9417143 1.9909573
-5.6532397 -4.9671907 1.999842
-5.6366467 -4.9737906 1.9989725
-5.6363039 -4.9791002 1.9919834
-5.6308122 -4.9825454 2.0007689
18.426357 -0.96680635 0.54616392
18.42012 -0.95207429 0.53461474
18.425659 -0.92661363 0.53546727
18.416183 -0.9021855 0.5363639
18.41526 -0.87791276 0.54766375
18.418348 -0.84475911 0.53063858
18.426968 -0.82647198 0.54310828
18.418125 -0.78212541 0.53041083
18.420849 -0.76576185 0.54396409
18.439953 -0.73304117 0.54522133
18.44009 -0.71011645 0.53947765
18.437199 -0.6947794 0.5427618
18.442722 -0.65521717 0.54580057
18.429062 -0.64640909 0.5475595
18.436262 -0.6197679 0.54788154
18.434727 -0.59124535 0.5356459
18.436131 -0.55527574 0.53598434
18.429968 -0.52928293 0.53495473
18.431072 -0.50166541 0.54457247
18.445694 -0.47600842 0.54119313
18.441536 -0.45124114 0.5350194
18.431599 -0.43035734 0.5384621
18.44491 -0.40490624 0.53574508
18.441225 -0.37403539 0.5361129
18.43926 -0.35684821 0.53739738
18.437584 -0.32204491 0.54147875
18.443636 -0.3066507 0.53580278
18.449989 -0.27819589 0.53039169
18.435278 -0.24937806 0.54686898
18.45015 -0.22664391 0.54327327
18.441605 -0.20873627 0.53871375
18.44685 -0.1813989 0.54930615
18.435501 -0.14134769 0.53961682
18.441401 -0.12554394 0.53506476
18.447632 -0.092228755 0.54196548
18.435112 -0.061080098 0.53793442
18.446636 -0.044333696 0.54356182
18.45245 -0.021651138 0.53190774
18.470375 0.0093540857 0.67813081
18.467178 0.031491775 0.66655433
18.460348 0.064774245 0.6671477
18.468924 0.083027706 0.66934013
18.468056 0.10969479 0.6658451
18.457462 0.14205846 0.6724149
18.462282 0.16048652 0.66656071
18.453964 0.18626335 0.66611576
18.46158 0.22347024 0.67667764
18.454788 0.24643122 0.68418247
18.456306 0.2697351 0.67353654
18.469215 0.28985918 0.67926407
18.450512 0.32320762 0.67250985
18.452364 0.34522095 0.67824501
18.456375 0.36649147 0.66488332
18.456854 0.39732981 0.67812157
18.463867 0.41318384 0.68402433
18.464989 0.44095418 0.66994077
18.465631 0.47660977 0.66730124
18.456799 0.50577801 0.68186027
18.455435 0.5168047 0.67396122
18.46339 0.5411166 0.68042469
18.457037 0.5671373 0.67447573
18.443892 0.59546006 0.6847797
18.456448 0.62827718 0.67059457
18.455605 0.66209376 0.68148881
18.447966 0.68347943 0.68247885
18.446192 0.70657998 0.66548181
18.450298 0.73095047 0.67838383
18.451731 0.74715269 0.67469841
18.447685 0.78269136 0.67628491
18.435705 0.80692053 0.67642969
18.450153 0.82556766 0.67684251
18.438616 0.85187852 0.6798265
18.437346 0.89158821 0.66987729
18.441856 0.91133505 0.66799539
18.437223 0.9443571 0.68175131
18.433546 0.95655721 0.67286116
18.432835 0.99385172 0.68259621
22.649817 2.8458526 0.12536208
22.44478 2.8545249 0.13998795
22.247547 2.849082 0.1753436
22.043402 2.8556349 0.18836781
22.046314 2.878504 0.18987502
22.044863 2.9214911 0.20426695
22.034187 2.9436126 0.19357097
22.026077 2.9896481 0.20694797
22.223488 3.0425649 0.16313276
22.219755 3.0594995 0.17532724
22.209255 3.0982511 0.17301811
22.21784 3.1327839 0.17263839
22.215899 3.1708775 0.18062787
22.204161 3.1855898 0.16953759
22.200294 3.2272053 0.17054705
22.197891 3.2514005 0.16377965
22.189837 3.2889977 0.1683756
22.191044 3.3226023 0.16825457
22.185583 3.3411794 0.16351308
22.181376 3.3802643 0.16469106
22.169317 3.4131358 0.17361128
22.174908 3.4389205 0.16606095
22.160074 3.4671352 0.16560686
22.153189 3.5080264 0.16887398
22.155169 3.5295086 0.16277152
22.138115 3.5730891 0.16988574
22.134251 3.5931602 0.16362487
22.134939 3.6190255 0.18000257
22.135464 3.6640618 0.16399786
22.131203 3.689563 0.17612506
22.128077 3.7277241 0.17017734
22.113829 3.7562354 0.17907463
22.111988 3.7747173 0.16525351
22.109648 3.8111591 0.18139704
22.110533 3.8344705 0.16810328
22.105274 3.8656609 0.1674775
22.087084 3.897963 0.17601693
22.08259 3.9359725 0.17952274
22.074432 3.9595683 0.17717317
22.070227 4.0040088 0.16944042
22.078104 4.0304723 0.16899118
22.059992 4.0478787 0.16618302
22.050734 4.0886774 0.17099378
22.047611 4.1124144 0.18139075
22.040588 4.1423569 0.16425098
22.235186 4.2093091 0.14235178
22.234106 4.2468438 0.14703061
22.221523 4.2853346 0.13889334
22.212402 4.3011589 0.14353395
22.22089 4.3383121 0.14180498
22.201599 4.3689218 0.15573694
22.201818 4.4070396 0.15628055
22.199184 4.4415627 0.14683622
22.181318 4.4586701 0.15035024
22.173807 4.4945054 0.15303606
22.169111 4.5357752 0.15500465
22.167583 4.5618525 0.14348121
22.170691 4.5812774 0.13943005
22.145618 4.6175556 0.14019318
22.145142 4.6483374 0.1471079
22.142895 4.6858902 0.15363874
22.134537 4.7097645 0.14730246
22.126677 4.7371521 0.14451316
22.129332 4.7728634 0.14786379
22.115456 4.8072958 0.15609081
22.104225 4.8433094 0.15463696
18.439943 -0.97738951 0.67985487
18.444977 -0.94935179 0.66664737
18.438488 -0.9301613 0.66510475
18.431889 -0.89097381 0.66707641
18.446053 -0.86100721 0.67747265
18.447317 -0.84410912 0.67092264
18.436441 -0.81762558 0.68459922
18.451382 -0.78238696 0.68339539
18.450583 -0.76176202 0.67690521
18.440868 -0.73657566 0.67718369
18.440453 -0.71757358 0.68179125
18.456457 -0.69488949 0.66870779
18.459217 -0.66001064 0.66908431
18.4604 -0.63301027 0.68291599
18.443518 -0.61309022 0.68098009
18.456995 -0.59311515 0.67020643
18.463888 -0.56518722 0.68017876
18.46442 -0.54345483 0.6796506
18.463713 -0.50362271 0.6740067
18.45648 -0.47456881 0.66780692
18.44949 -0.46696046 0.67486554
18.46707 -0.42434087 0.67886323
18.451532 -0.3999176 0.67199332
18.456333 -0.37523326 0.66637594
18.454931 -0.34831628 0.67492968
18.451557 -0.32877046 0.67770821
18.457375 -0.30314586 0.68266332
18.453127 -0.27776593 0.68359834
18.468315 -0.25383458 0.67861187
18.457825 -0.21784203 0.67692477
18.461098 -0.20950985 0.67709047
18.471392 -0.16423053 0.67411923
18.465651 -0.15508758 0.66981405
18.453001 -0.12170449 0.68443507
18.454699 -0.090249702 0.68021417
18.464914 -0.062659152 0.66977954
18.457874 -0.049706556 0.67920923
18.455751 -0.021419639 0.66825801
18.471102 0.0050928472 0.81039768
18.48485 0.0373712 0.80784702
18.476877 0.052611891 0.80786616
18.489033 0.077873506 0.80740184
18.478182 0.11715367 0.81031728
18.482988 0.1435824 0.80085242
18.482382 0.17154233 0.81707859
18.477516 0.1895871 0.81513137
18.482182 0.22049522 0.80037266
18.47624 0.24922174 0.80813676
18.479313 0.27670163 0.81322956
18.469566 0.29794839 0.80481339
18.477234 0.31127483 0.80585057
18.484884 0.33684656 0.80636209
18.472034 0.37169239 0.8003667
18.482065 0.39150703 0.81501323
18.482594 0.43091145 0.81183296
18.479313 0.44568476 0.80091119
18.474049 0.4653922 0.81511152
18.473989 0.49946347 0.81225282
18.481659 0.51694727 0.81108886
18.474384 0.5450623 0.80538702
18.478659 0.58125776 0.80722761
18.463934 0.60555285 0.80885643
18.469685 0.63748312 0.81954825
18.469404 0.65996408 0.80427265
18.463734 0.68353063 0.80262011
18.474848 0.70440906 0.80996031
18.475002 0.74065197 0.81122822
18.469324 0.75750071 0.80078864
18.460749 0.78271925 0.802055
18.470974 0.80140042 0.80565959
18.455462 0.82512796 0.81968385
18.461754 0.85493898 0.81222856
18.44964 0.89134502 0.81093007
18.448181 0.90835059 0.80634016
18.45141 0.94060212 0.81954575
18.452951 0.96491939 0.80786002
18.461796 0.99038047 0.80664879
24.069944 2.8487 0.1297099
23.670244 2.8296421 0.18067543
23.481949 2.8392596 0.18810742
23.265726 2.8519716 0.21839489
22.86886 2.8300467 0.26212597
22.667654 2.8455427 0.28149247
22.475657 2.8419771 0.32208326
22.278133 2.8476148 0.32911628
22.068453 2.85748 0.36425254
22.057386 2.8873913 0.36098707
22.059143 2.9258883 0.35459241
22.051096 2.943059 0.36257416
22.046656 2.9730568 0.35092527
22.045944 3.0079343 0.3632963
22.051821 3.0441251 0.36994606
22.034067 3.0801322 0.36478689
22.031979 3.1051402 0.36931318
22.223406 3.1615112 0.32962534
22.221498 3.2015078 0.33782363
22.211027 3.2344315 0.3451359
22.217247 3.2531478 0.34015357
22.21703 3.2878966 0.34155613
22.20475 3.3223271 0.34217635
22.200777 3.3402121 0.32689998
22.189133 3.3881812 0.33704573
22.184095 3.402648 0.33243608
22.193855 3.4393208 0.34207797
22.188099 3.475132 0.32942721
22.18627 3.5134559 0.34575409
22.172594 3.5457704 0.34399202
22.166189 3.5688097 0.32993969
22.154758 3.5961795 0.33963618
22.164686 3.6358614 0.33276922
22.155191 3.6562061 0.33280012
22.150377 3.689585 0.32981914
22.135666 3.7226474 0.33033085
22.136301 3.7502344 0.33654782
22.126535 3.7768722 0.32761502
22.124077 3.806531 0.34605199
22.117901 3.8474095 0.34585604
22.109921 3.8668196 0.33775911
22.107843 3.8997788 0.34609839
22.095421 3.92769 0.34319291
22.096088 3.9711733 0.32971275
22.096743 3.994952 0.33869901
22.094374 4.0291719 0.32984263
22.092474 4.0692229 0.33767524
22.076748 4.0847478 0.34125495
22.072044 4.123095 0.34361029
22.065737 4.1605916 0.33596814
22.059189 4.1754751 0.33686772
22.044502 4.2136936 0.33986577
22.038111 4.2449431 0.33992177
22.243746 4.3201141 0.30895686
22.240829 4.3439951 0.31459111
22.226858 4.3710904 0.30361509
22.223986 4.4019108 0.32186812
22.208902 4.4426742 0.30483142
22.197355 4.464447 0.31533548
22.208122 4.5056667 0.31253764
22.191202 4.5261364 0.31383315
22.195139 4.5577602 0.32256493
22.18203 4.5888767 0.31177247
22.168934 4.61658 0.30762821
22.168489 4.6473908 0.31633553
22.153635 4.6902947 0.32111683
22.14776 4.716435 0.3057062
22.140097 4.7536449 0.32005474
22.135353 4.7855039 0.30518076
22.141071 4.8143668 0.32053944
18.461941 -0.97231036 0.80863535
18.446194 -0.94128972 0.81284106
18.454737 -0.93128455 0.80267853
18.457945 -0.89871782 0.80471134
18.45129 -0.87224686 0.80299693
18.468954 -0.85201794 0.80335796
18.468904 -0.81591773 0.81927216
18.463444 -0.79497308 0.81817704
18.470037 -0.76456136 0.81699854
18.467318 -0.73360926 0.80964011
18.45841 -0.70913595 0.80020875
18.468273 -0.68176281 0.81604624
18.462309 -0.66716331 0.81613523
18.466145 -0.6306383 0.8030355
18.471977 -0.62201339 0.81064945
18.476059 -0.57693249 0.81273329
18.480467 -0.55307567 0.80515683
18.480751 -0.5358156 0.81276268
18.479906 -0.51306486 0.80501646
18.477846 -0.47409889 0.80245709
18.468391 -0.46507084 0.81860417
18.469469 -0.42717203 0.81635624
18.466349 -0.39619675 0.80293822
18.483282 -0.38230762 0.80027431
18.467079 -0.36347184 0.80046314
18.478453 -0.32140386 0.7999596
18.471876 -0.29574272 0.81753826
18.477686 -0.2705743 0.80660141
18.471066 -0.24699371 0.81263864
18.476664 -0.22617951 0.81186414
18.479666 -0.19549023 0.81433892
18.478779 -0.16435723 0.80893302
18.475609 -0.1569431 0.80872196
18.478985 -0.11315888 0.81661874
18.47966 -0.10610438 0.81756932
18.48049 -0.068165712 0.81480509
18.480778 -0.037259031 0.81191868
18.478609 -0.020960907 0.80841666
18.501055 0.011757028 0.93774921
18.49391 0.026325239 0.94707233
18.485954 0.063585006 0.94129932
18.500439 0.079683408 0.94087332
18.489479 0.11237244 0.94207519
18.498274 0.14823402 0.94127464
18.494928 0.16460419 0.94174176
18.492498 0.18167175 0.95436049
18.487268 0.21893306 0.95209867
18.499115 0.23396678 0.94034767
18.487425 0.27583602 0.95210469
18.48999 0.29057792 0.9526208
18.501844 0.31741795 0.94458759
18.48789 0.33883083 0.94684374
18.493473 0.36941063 0.93598008
18.500221 0.38894621 0.93516934
18.486134 0.42533427 0.94492042
18.492477 0.43952537 0.9459309
18.491404 0.46875525 0.93839502
18.488031 0.51013738 0.94008547
18.492872 0.52016985 0.93783832
18.489435 0.55314654 0.94452667
18.486477 0.5783906 0.95224917
18.495451 0.61012894 0.93557942
18.486643 0.62793553 0.94368482
18.486937 0.65301216 0.94552195
18.486383 0.68455821 0.93794405
18.475546 0.7030409 0.93875492
18.485682 0.74107873 0.94299424
18.488245 0.75641 0.94281512
18.472464 0.77728355 0.9468689
18.4744 0.81545633 0.93810076
18.482988 0.8314445 0.94877917
18.479263 0.85721469 0.94539946
18.478832 0.89502299 0.95403105
18.466469 0.91400576 0.94194525
18.475908 0.93335217 0.9356128
18.477734 0.96281326 0.94197142
18.460335 0.98339945 0.94057786
25.700006 2.8276651 0.12873451
25.498671 2.8260779 0.1418788
25.10198 2.8210533 0.18160509
24.896547 2.8371975 0.21954617
24.496044 2.820116 0.24808021
24.29689 2.8380547 0.27912167
23.904274 2.8153234 0.31566009
23.697515 2.8256502 0.34877184
23.485943 2.8502533 0.37660894
23.289618 2.8571904 0.3898353
22.889256 2.8348224 0.43344164
22.683626 2.8361485 0.4592731
22.488956 2.8592434 0.46881101
22.289627 2.8577964 0.50190192
22.086061 2.854183 0.52858388
22.083733 2.8979826 0.51979613
22.070196 2.9279261 0.52089047
22.068743 2.9524233 0.52249891
22.078152 2.98664 0.51945478
22.073149 3.0058031 0.51464826
22.059122 3.0431201 0.52369118
22.064245 3.0759993 0.52674896
22.052952 3.1153777 0.52614701
22.048946 3.1365695 0.51789939
22.055782 3.1753087 0.52039582
22.04705 3.1957169 0.51586896
22.02949 3.2266288 0.53046799
22.229609 3.2892053 0.49654603
22.234623 3.3165557 0.50824106
22.216551 3.3430715 0.50829875
22.213627 3.3797722 0.49487922
22.219704 3.4058516 0.50355011
22.208796 3.4449344 0.50081712
22.197241 3.4843521 0.50849926
22.197395 3.5149896 0.50415033
22.200003 3.5413218 0.50944531
22.178041 3.5745611 0.49489427
22.190636 3.5958018 0.50313276
22.171471 3.6266522 0.50770175
22.163958 3.6640685 0.50777304
22.156458 3.7032435 0.49353811
22.155497 3.7332203 0.49438217
22.163164 3.7570567 0.50331539
22.148054 3.7941508 0.50067943
22.140583 3.8162549 0.49770051
22.14872 3.845865 0.5100804
22.142109 3.8784544 0.50473303
22.120903 3.9086225 0.50966674
22.127893 3.944653 0.49449831
22.11941 3.9782412 0.50580037
22.110954 4.0094447 0.50533909
22.108221 4.0248442 0.50392342
22.106287 4.0731101 0.49542019
22.093245 4.0915093 0.4930943
22.097523 4.1277242 0.50196296
22.078779 4.1574054 0.5095399
22.072372 4.1858487 0.49881196
22.080576 4.218502 0.50736499
22.073669 4.2436042 0.50106931
22.05155 4.2857242 0.49749023
22.060692 4.3049331 0.4942508
22.049328 4.3469958 0.49555451
22.231485 4.4113622 0.47206929
22.230062 4.4500265 0.47834942
22.226273 4.4786859 0.47001198
22.211306 4.4943614 0.4805316
22.203875 4.5294328 0.46867788
22.205671 4.5585527 0.47866935
22.195976 4.6066546 0.482963
22.199944 4.6185699 0.47858489
22.180288 4.6656013 0.48263234
22.177351 4.6872869 0.47796771
22.175674 4.7222109 0.48829746
22.172676 4.7618704 0.48626128
22.155912 4.7839389 0.48186284
22.15077 4.8172855 0.48212695
18.464373 -0.98337168 0.93995458
18.467316 -0.94261783 0.94591218
18.464836 -0.92458856 0.93488961
18.46876 -0.88723671 0.93638092
18.480501 -0.86348999 0.95073175
18.465319 -0.83498728 0.9532249
18.477076 -0.82247317 0.93923587
18.486641 -0.80287719 0.95176959
18.482594 -0.76502472 0.94369733
18.484486 -0.73337305 0.93666124
18.47406 -0.72201091 0.93699807
18.480206 -0.68906087 0.95231515
18.492273 -0.659908 0.93988615
18.493282 -0.64811307 0.93903184
18.475746 -0.6058231 0.93614519
18.492527 -0.57992673 0.93598056
18.491762 -0.56344676 0.94254762
18.476974 -0.53854036 0.94292676
18.494682 -0.51878363 0.93537277
18.484283 -0.47820207 0.95368338
18.486813 -0.44907698 0.93756759
18.489643 -0.43480036 0.94861192
18.487753 -0.40941456 0.94301778
18.493399 -0.38394228 0.94342595
18.498154 -0.3568922 0.94033021
18.499987 -0.33391356 0.93733567
18.501617 -0.31251332 0.94502485
18.48978 -0.28668052 0.95182312
18.498287 -0.24388149 0.95257962
18.499203 -0.23218849 0.94811821
18.498394 -0.19863771 0.94698149
18.501432 -0.18289237 0.95432007
18.49548 -0.1496354 0.94124222
18.503895 -0.13129589 0.94783366
18.492685 -0.088728212 0.93567139
18.498343 -0.064819038 0.94068331
18.500969 -0.039733071 0.94129026
18.491249 -0.026903266 0.94192433
18.50289 0.017474826 1.0746999
18.500648 0.039016727 1.0782127
18.513908 0.059438013 1.0894692
18.505995 0.082622871 1.0706633
18.505384 0.11961558 1.0793064
18.511662 0.14482197 1.0804805
18.504492 0.15865017 1.0784137
18.505125 0.19800438 1.0744473
18.510735 0.21988998 1.0897579
18.516914 0.25199616 1.0720892
18.503693 0.26112103 1.089564
18.50806 0.28802112 1.0827512
18.515905 0.32823494 1.0705302
18.514973 0.34062573 1.0756646
18.515196 0.37253198 1.0719626
18.504026 0.39087582 1.0876379
18.513996 0.42224863 1.0713127
18.501862 0.45448813 1.0885131
18.505724 0.47260609 1.081771
18.504864 0.49720952 1.0813074
18.506296 0.52893239 1.0841415
18.505169 0.54540139 1.0880488
18.497192 0.57012945 1.0863438
18.496958 0.59437293 1.0712038
18.501822 0.63932592 1.0821453
18.502949 0.65363133 1.0856063
18.499714 0.67846328 1.0746167
18.50012 0.71175504 1.0700438
18.497688 0.72953999 1.077767
18.48848 0.76712883 1.0842729
18.49877 0.7868526 1.0766815
18.491859 0.8061862 1.0797403
18.488819 0.83831674 1.0817091
18.484039 0.87102312 1.0821047
18.484083 0.88943988 1.0816376
18.495031 0.90986478 1.0896615
18.489405 0.94797319 1.0767043
18.492754 0.96743977 1.0712268
18.491493 0.98546493 1.0777239
25.709185 2.8246014 0.30879432
25.31855 2.8132265 0.36227593
25.111015 2.8215864 0.37976786
24.922569 2.8309007 0.40212056
24.50757 2.8280807 0.44363388
24.317215 2.8445199 0.45748654
23.908243 2.8290524 0.50508863
23.702696 2.8430076 0.51538759
23.516405 2.8506136 0.54766458
23.315506 2.8509851 0.56169915
22.919928 2.8374949 0.59711742
22.70528 2.8362894 0.62831193
22.502632 2.8486114 0.63470751
22.31675 2.8535376 0.65781611
22.112494 2.8621161 0.68878567
22.105516 2.8870845 0.68423051
22.091597 2.9221578 0.67683119
22.083731 2.9531538 0.6935668
22.085367 2.9793108 0.68864512
22.078484 3.026 0.69538879
22.084837 3.0559406 0.68487221
22.085062 3.0725853 0.68583339
22.075684 3.1079092 0.69235641
22.071905 3.1386509 0.67760217
22.070438 3.1664097 0.68577945
22.059147 3.2111928 0.68807787
22.063255 3.2260995 0.69460768
22.059921 3.2572253 0.68129724
22.053282 3.294116 0.68331337
22.041676 3.3282955 0.68119413
