# .PCD v0.7 - Point Cloud Data file format
VERSION 0.7
FIELDS x y z
SIZE 4 4 4
TYPE F F F
COUNT 1 1 1
WIDTH 1492
HEIGHT 1
VIEWPOINT 0 0 0 1 0 0 0
POINTS 1492
DATA ascii
-5.1610732 -3.0312915 0.28837287
-5.1739759 -3.0524743 0.28268054
-5.1595373 -3.0515461 0.27884823
-5.1512318 -3.0544097 0.28212196
-5.1485262 -3.069705 0.28532338
-5.157022 -3.0712602 0.28239852
-5.1498246 -3.0731618 0.29086709
-4.9841452 -2.9881895 0.36463323
-4.9884162 -3.0104384 0.36910027
-4.9808612 -3.0173783 0.36950818
-4.9798136 -3.0243852 0.36688277
-4.9627638 -3.0285509 0.37030545
-4.9713969 -3.0225434 0.3618812
-4.9638524 -3.0325065 0.37781236
-4.9530249 -3.0440497 0.36566111
-4.9589858 -3.0483849 0.35916165
-4.9478621 -3.0498288 0.37796149
-4.9482603 -3.0659995 0.37501478
-4.9374413 -3.0706363 0.37679011
-4.9421458 -3.0719228 0.35859075
-4.9264331 -3.0763757 0.36034378
-4.7791109 -2.9910562 0.44744357
-4.7627172 -2.9953349 0.44493935
-4.7547379 -3.0163128 0.45941362
-4.7508187 -3.0107162 0.44928023
-4.7590408 -3.0153437 0.44174144
-4.7537537 -3.0331199 0.45968238
-4.7496572 -3.0355763 0.44837019
-4.748498 -3.051506 0.45933291
-4.7455544 -3.0564418 0.455915
-4.7408009 -3.0499756 0.45494384
-4.7342854 -3.054733 0.44923905
-4.7232194 -3.0672913 0.44592786
-4.7146482 -3.0760746 0.44830519
-4.7115941 -3.0851517 0.44293976
-4.7186637 -3.0866742 0.45960164
-4.5611024 -2.9869857 0.52769506
-4.5578918 -3.0073853 0.53741586
-4.5459843 -3.0108762 0.537844
-4.5431051 -3.0156834 0.53996742
-4.5436354 -3.0200064 0.535182
-4.5251274 -3.0220919 0.53225827
-4.5323157 -3.0373991 0.5233894
-4.5228062 -3.0484324 0.53234428
-4.530911 -3.0407174 0.53882295
-4.5243716 -3.0443873 0.53037429
-4.521162 -3.0669813 0.52804768
-4.5124092 -3.0705581 0.53169227
-4.4939265 -3.0664301 0.53821057
-4.495007 -3.0836344 0.5262804
-4.4939556 -3.0855889 0.53638029
-4.4976802 -3.0932648 0.53074163
-4.3344345 -2.9888377 0.61869586
-4.3300791 -3.0024681 0.61939299
-4.3367605 -3.0084586 0.61413437
-4.3169546 -3.0121748 0.61152899
-4.3255892 -3.0169547 0.612647
-4.3165417 -3.0172639 0.61649942
-4.3038416 -3.0233817 0.61078531
-4.3046141 -3.0348797 0.6141662
-4.2973089 -3.0496347 0.62188584
-4.2998953 -3.0524318 0.60821688
-4.2881117 -3.0461953 0.62172699
-4.2909245 -3.0597935 0.60767281
-4.2930322 -3.0642717 0.61368829
-4.2803898 -3.0731511 0.62204182
-4.2703443 -3.0748806 0.61166388
-4.2791729 -3.0917866 0.60701919
-4.2641401 -3.0802248 0.62229329
-4.2548137 -3.0936763 0.61210006
-4.114861 -2.996809 0.69573551
-4.1145668 -2.9938428 0.70003343
-4.107934 -3.0033596 0.69658089
-4.1077828 -3.019964 0.70553696
-4.1016779 -3.0229585 0.69601566
-4.0895491 -3.017602 0.70360976
-4.0890594 -3.0265 0.69546318
-4.078939 -3.0285342 0.69639337
-4.0734558 -3.0398524 0.69486237
-4.0726905 -3.0461686 0.70585036
-4.0621104 -3.0441017 0.69240749
-4.0704455 -3.0659325 0.70768386
-4.0544753 -3.0653296 0.6991908
-4.0619493 -3.068783 0.69983488
-4.0604596 -3.0703468 0.70321995
-4.0484834 -3.0840056 0.69769108
-4.0489049 -3.0814056 0.68898809
-4.0374651 -3.0929251 0.70396852
-4.0450869 -3.1032085 0.69334275
-3.8898926 -2.9858513 0.7846657
-3.8881974 -2.9931064 0.78119642
-3.8799372 -2.9929686 0.7815904
-3.8763933 -3.0011394 0.7882753
-3.8613348 -3.0210719 0.77718896
-3.8656247 -3.0238099 0.79021478
-3.8665218 -3.0188744 0.77525192
-3.8529403 -3.0186715 0.788553
-3.8480544 -3.031348 0.77599251
-3.8481803 -3.0359731 0.77880049
-3.8389246 -3.0540783 0.77348083
-3.8408976 -3.0546756 0.78634453
-3.8463321 -3.0512073 0.78477865
-3.8313651 -3.0683978 0.7804684
-3.829706 -3.0747395 0.78164649
-3.8191254 -3.0695887 0.78550154
-3.8155117 -3.0695601 0.77970099
-3.8068533 -3.0801826 0.77950639
-3.8048866 -3.0901592 0.77203262
-3.8154726 -3.0845096 0.78532481
-3.8032434 -3.0938594 0.78589714
-3.7963264 -3.1094446 0.77125162
-3.6556797 -2.9992235 0.86800659
-3.6576116 -2.9936275 0.87037957
-3.6438463 -3.0106578 0.87177217
-3.648896 -3.0014005 0.86367106
-3.6300836 -3.0128298 0.86094785
-3.6370645 -3.0199084 0.87294549
-3.6242328 -3.0293355 0.86030376
-3.6188679 -3.0336714 0.858643
-3.6202037 -3.030108 0.87295771
-3.6209602 -3.0439651 0.85700637
-3.6163552 -3.0423789 0.86107808
-3.5975471 -3.0469153 0.85585606
-3.5963588 -3.0618849 0.85870844
-3.593771 -3.0661089 0.8559168
-3.5992773 -3.0557327 0.8667888
-3.5874996 -3.0765569 0.85566908
-3.5837173 -3.0687757 0.8602035
-3.5725698 -3.0798633 0.8654772
-3.5830762 -3.0765271 0.85938352
-3.5792608 -3.0981951 0.86449605
-3.5713897 -3.0995126 0.85625207
-3.5594399 -3.1062837 0.86852294
-3.5527053 -3.0961354 0.87086987
-3.5631113 -3.1076751 0.8540321
-3.4193923 -2.988838 0.95516294
-3.4018722 -3.0024879 0.93793821
-3.3954647 -2.9966528 0.95351613
-3.4045165 -3.0039742 0.94302195
-3.3882875 -3.0061131 0.94087338
-3.3981459 -3.0087543 0.94206029
-3.382885 -3.0278497 0.94692701
-3.3758616 -3.0193272 0.950014
-3.3765607 -3.028409 0.9482345
-3.3749061 -3.0322425 0.93989456
-3.3700829 -3.0336196 0.95519894
-3.3666811 -3.0416684 0.94162935
-3.3604972 -3.0475082 0.93866503
-3.3587291 -3.0466049 0.95314354
-3.3474488 -3.0536845 0.95024168
-3.3583102 -3.0748405 0.94945091
-3.3479784 -3.0649612 0.95431137
-3.332773 -3.0722897 0.95243496
-3.3344743 -3.0845556 0.94621146
-3.3379486 -3.0794117 0.9408831
-3.3297563 -3.0936961 0.93890041
-3.3262529 -3.0888367 0.95358604
-3.3163128 -3.1020582 0.94714278
-3.3093305 -3.0977829 0.9463079
-3.3078632 -3.1065047 0.94309247
-3.3092914 -3.1103721 0.94341373
-3.1590457 -2.9831431 1.0208606
-3.1565659 -2.9898765 1.0331008
-3.1559565 -3.0026157 1.0377502
-3.1615641 -3.0031395 1.0322124
-3.1524942 -2.999788 1.0370531
-3.1454005 -3.0172572 1.0314101
-3.1436152 -3.0091162 1.0371964
-3.148267 -3.0183294 1.031903
-3.1337476 -3.0304184 1.0225266
-3.1224375 -3.028285 1.0339153
-3.1307998 -3.0327199 1.0321041
-3.1242683 -3.0388629 1.0279951
-3.1254904 -3.0485902 1.0355768
-3.122057 -3.0481253 1.0270586
-3.1041555 -3.0627964 1.0263098
-3.1014071 -3.0545864 1.0325042
-3.1042957 -3.0688097 1.0312458
-3.1013918 -3.0719094 1.0251746
-3.0837753 -3.0647204 1.0314089
-3.0955291 -3.0704582 1.0241652
-3.0758882 -3.0888014 1.0368689
-3.0780525 -3.0848622 1.0278064
-3.0843196 -3.0864003 1.0333874
-3.0629992 -3.0887663 1.023798
-3.0701909 -3.0974982 1.0238962
-3.0581255 -3.1077552 1.0365573
-3.0598595 -3.1051803 1.0193419
-3.0628462 -3.103987 1.0233676
-3.051898 -3.1094687 1.0189173
-3.0547094 -3.111002 1.0330582
-2.9176536 -2.9867058 1.1157376
-2.9151754 -2.9991984 1.1041141
-2.9017541 -3.0022745 1.1152632
-2.9027462 -3.008352 1.108351
-2.893322 -3.0059495 1.1170058
-2.8837938 -3.0158153 1.1196963
-2.8815992 -3.0117552 1.1092483
-2.8766141 -3.0150275 1.1042743
-2.8875976 -3.0317037 1.1180928
-2.8830256 -3.0355492 1.1146464
-2.8643074 -3.0338078 1.109266
-2.8654633 -3.0337758 1.1154718
-2.8582368 -3.0445156 1.1026745
-2.8598559 -3.0404465 1.1078666
-2.8483813 -3.0511575 1.1195228
-2.8482463 -3.0565505 1.1053685
-2.8454154 -3.0639644 1.1193236
-2.8330269 -3.0506146 1.1140498
-2.8456068 -3.0724754 1.1161376
-2.8243628 -3.073997 1.1184117
-2.8265593 -3.0810387 1.1064529
-2.834131 -3.0734801 1.118546
-2.8154912 -3.0829446 1.1039131
-2.8096433 -3.0782831 1.1173575
-2.8185976 -3.0864079 1.1040928
-2.8158903 -3.0986638 1.1094314
-2.807332 -3.0923607 1.1113461
-2.8048129 -3.0979466 1.1105947
-2.7875621 -3.1003952 1.1119608
-2.7882183 -3.1058881 1.1157773
-2.7865946 -3.1178718 1.1165181
-2.7769244 -3.1217265 1.1087779
-2.7751558 -3.1112466 1.1155272
-2.7680144 -3.1192291 1.1108861
-2.6466537 -2.9841053 1.1846213
-2.6395123 -2.9868042 1.1874776
-2.6470273 -3.0052719 1.2005669
-2.6326225 -3.0055535 1.1919944
-2.6389637 -3.0129223 1.1848912
-2.6239338 -3.005291 1.1962068
-2.6250825 -3.0203853 1.1994445
-2.6254849 -3.010164 1.2027271
-2.6136224 -3.0225341 1.2003832
-2.6150057 -3.0321281 1.1939442
-2.6010249 -3.0255022 1.1901333
-2.5958629 -3.0359206 1.1873305
-2.5878394 -3.0380447 1.1897607
-2.5867214 -3.0299602 1.1956043
-2.5941708 -3.0324183 1.1977682
-2.5887184 -3.0440526 1.1912467
-2.5719454 -3.0410473 1.1933084
-2.5719297 -3.0426607 1.1892627
-2.5686264 -3.0566337 1.1965127
-2.567662 -3.0562167 1.1978283
-2.5531313 -3.0660508 1.1894237
-2.5624068 -3.0749598 1.1942484
-2.5544798 -3.0800874 1.200591
-2.5441179 -3.0683444 1.1986541
-2.5479074 -3.0683029 1.1978892
-2.5495276 -3.0870662 1.189114
-2.5376647 -3.0933192 1.1869624
-2.523735 -3.0838237 1.1868093
-2.5338461 -3.0952973 1.1962897
-2.5167024 -3.0900838 1.1897871
-2.5182381 -3.0946221 1.1970447
-2.5081732 -3.0927234 1.1989818
-2.513279 -3.1071904 1.1993732
-2.512037 -3.1155927 1.1950843
-2.4927273 -3.1120868 1.1944071
-2.4941773 -3.1145089 1.1985306
-2.4843979 -3.1293802 1.1999594
-2.4967651 -3.1146395 1.194436
-2.4892805 -3.1343319 1.200985
-2.4723105 -3.1212077 1.1962876
-2.3688695 -2.9910457 1.2731448
-2.3513346 -2.9979043 1.2728698
-2.3518581 -2.9942105 1.2816497
-2.3519855 -2.9936223 1.2855431
-2.3363969 -2.9980762 1.2764522
-2.3414812 -3.0083373 1.2684427
-2.3424375 -3.0131807 1.2690595
-2.3419602 -3.0147579 1.2679087
-2.327002 -3.0132222 1.2705506
-2.32549 -3.019093 1.2697958
-2.328671 -3.0188732 1.2797706
-2.3175492 -3.0253048 1.2861962
-2.3066978 -3.0364509 1.2796191
-2.3070621 -3.03192 1.2769279
-2.3035283 -3.036001 1.2730745
-2.2890811 -3.049371 1.2822461
-2.3026388 -3.0479069 1.2698543
-2.2955749 -3.0501795 1.2791594
-2.2896578 -3.0417125 1.2732686
-2.2810941 -3.0559568 1.2847692
-2.2732809 -3.0576096 1.2797462
-2.2754881 -3.0523727 1.2715421
-2.2712655 -3.0605214 1.2754365
-2.2736156 -3.0732753 1.2671006
-2.2586524 -3.0667415 1.2779163
-2.2475381 -3.0700107 1.2785888
-2.2472479 -3.0710921 1.2839463
-2.2393448 -3.0693693 1.270246
-2.2421324 -3.0859931 1.2682219
-2.2308066 -3.0783212 1.2751564
-2.2279756 -3.0871089 1.2836353
-2.2301633 -3.082381 1.2805419
-2.2205508 -3.097712 1.272485
-2.2270396 -3.0996792 1.2748532
-2.2218597 -3.0909734 1.2669284
-2.2058599 -3.0954485 1.2789016
-2.2091832 -3.1039324 1.2729541
-2.2071447 -3.1088171 1.2718847
-2.198802 -3.1207974 1.2773407
-2.1924794 -3.1057642 1.2736113
-2.199218 -3.1122167 1.2842313
-2.1774733 -3.1251786 1.2827102
-2.1788177 -3.1328533 1.2689829
-2.1682148 -3.1313465 1.2764072
-2.1752391 -3.1289942 1.2756501
-2.1701844 -3.1349807 1.2735248
-2.173152 -3.1286333 1.2860161
-2.1620629 -3.1445949 1.2767174
-2.1520391 -3.1365652 1.2785269
-2.1565549 -3.146569 1.2784519
-2.1447961 -3.1476712 1.2750006
-2.1424129 -3.1513934 1.2816578
-2.1415465 -3.1608286 1.2837044
-2.1344035 -3.1640339 1.2703159
-2.1198318 -3.1586409 1.2823313
-2.126013 -3.1725743 1.2714062
-2.1143155 -3.1738615 1.2698679
-2.1101227 -3.1684492 1.2754017
-2.1152241 -3.1774075 1.2719924
-2.0985122 -3.1752799 1.2816007
-2.1018708 -3.185796 1.2731216
-2.0886769 -3.1783359 1.2839293
-2.0888214 -3.1944206 1.2683045
-2.0869155 -3.1877773 1.2724711
-2.0783939 -3.1909816 1.2850209
-2.0778527 -3.1847908 1.2666216
-2.0682325 -3.1913302 1.2699132
-2.0801468 -3.1981084 1.2815888
-2.0665228 -3.1944244 1.2672718
-2.0563045 -3.1984682 1.2780417
-2.0564737 -3.210315 1.2812487
-2.0451179 -3.2134161 1.2748628
-2.0429504 -3.2211144 1.2753329
-2.0364037 -3.2113628 1.2853811
-2.0456865 -3.2175508 1.275153
-2.0424154 -3.2276618 1.274038
-2.0375395 -3.2326219 1.2692993
-2.0293682 -3.2339687 1.2806919
-2.0295172 -3.2261689 1.278672
-2.0239794 -3.2326312 1.2755053
-2.0076675 -3.2437479 1.2833825
-2.0081449 -3.247998 1.2710433
-1.9950043 -3.2345734 1.2738839
-2.0013895 -3.239099 1.2693479
-1.9977227 -3.2574086 1.2814898
-1.98428 -3.256952 1.26638
-1.9919485 -3.2561288 1.269163
-1.9843518 -3.251647 1.273446
-1.9853586 -3.2518313 1.2683694
-1.9683814 -3.2709985 1.2796644
-1.9745671 -3.2583787 1.2826705
-1.9728715 -3.2707653 1.2842482
-1.9635115 -3.2745438 1.2820655
-1.9513069 -3.2692442 1.2781659
-1.9436346 -3.2848182 1.2787591
-1.9438164 -3.2714939 1.2826051
-1.9391044 -3.2903864 1.2700641
-1.9316056 -3.2862346 1.2847883
-1.9398199 -3.2876458 1.2821052
-1.933107 -3.2966397 1.2830255
-1.9150954 -3.2963829 1.2793297
-1.9140739 -3.2989984 1.2860053
-1.911471 -3.2968254 1.2716539
-1.9110469 -3.307023 1.2853472
-1.8945187 -3.2941277 1.2862052
-1.8973937 -3.3059969 1.2831197
-1.8964189 -3.3177412 1.2838674
-1.8879814 -3.3065772 1.2714864
-1.8848159 -3.3082216 1.2804074
-1.8843299 -3.3077517 1.2830412
-1.88292 -3.3138719 1.2686319
-1.8652021 -3.323576 1.2743008
-1.860805 -3.3152869 1.2848301
-1.8707557 -3.3311868 1.2678425
-1.8470093 -3.3351755 1.2664248
-1.8424014 -3.3266599 1.2758055
-1.8408754 -3.3417938 1.2761036
-1.838598 -3.333118 1.2702208
-1.828698 -3.3459086 1.2853419
-1.8298733 -3.3428488 1.2835752
-1.8284112 -3.3430181 1.2783238
-1.8213549 -3.3501124 1.2859973
-1.828626 -3.357456 1.2845824
-1.8053644 -3.3594003 1.2698838
-1.8190868 -3.362252 1.2738059
-1.8142234 -3.3651533 1.2688469
-1.7999758 -3.3511894 1.2713506
-1.8054265 -3.3596129 1.28512
-1.7967565 -3.3628047 1.2686822
-1.7929618 -3.3718433 1.2778813
-1.7909305 -3.3640954 1.2694814
-1.7741469 -3.3739703 1.2765514
-1.7696865 -3.3757987 1.2788351
-1.7666373 -3.3790517 1.2817253
-1.7582835 -3.3807168 1.284308
-1.766004 -3.3822117 1.2665272
-1.7586801 -3.3941557 1.2852412
-1.748849 -3.3962505 1.2780565
-1.7452451 -3.3943794 1.2701981
-1.7380756 -3.3934207 1.2758124
-1.7417035 -3.3951416 1.2716793
-1.7337279 -3.4047933 1.2801697
-1.718679 -3.3947022 1.2693233
-1.721343 -3.4062834 1.2777089
-1.7211134 -3.4142351 1.2669079
-1.7182977 -3.4146357 1.2770839
-1.7132596 -3.4124439 1.2777811
-1.7095039 -3.4051561 1.2788421
-1.6929297 -3.4190028 1.2842263
-1.6842105 -3.4104218 1.2730143
-1.6898738 -3.4102139 1.2825202
-1.6796669 -3.4267793 1.2848065
-1.6809661 -3.4330478 1.2796094
-1.6731086 -3.4267356 1.2852501
-1.6768621 -3.4249525 1.2853509
-1.6714134 -3.4251161 1.2674568
-1.6557854 -3.4250069 1.2741532
-1.659457 -3.4259109 1.2705297
-1.6420643 -3.4350128 1.2754451
-1.6392844 -3.4401712 1.2713201
-1.6477131 -3.4357717 1.2697752
-1.6266327 -3.4459472 1.2740303
-1.6232626 -3.4422076 1.2743758
-1.6250867 -3.4553988 1.2833855
-1.6212667 -3.4571357 1.2765237
-1.6173428 -3.4582191 1.2718369
-1.6113099 -3.448473 1.2695913
-1.5985773 -3.4672 1.268767
-1.6094651 -3.4533396 1.2811592
-1.5954344 -3.4615073 1.2707049
-1.5855255 -3.4629149 1.2669551
-1.5771586 -3.4680569 1.2753284
-1.5845333 -3.4746468 1.269733
-1.5715595 -3.4678817 1.273231
-1.5695728 -3.4821208 1.2772703
-1.574445 -3.4772635 1.2824978
-1.5640007 -3.4712036 1.2797359
-1.5557991 -3.4772449 1.2805048
-1.5484188 -3.4790106 1.2773855
-1.5486431 -3.4915857 1.2683427
-1.5393188 -3.4790952 1.2801299
-1.5337411 -3.4830837 1.2690059
-1.5397873 -3.4992964 1.2735162
-1.5314257 -3.4873877 1.2670088
-1.5195632 -3.4983478 1.2684728
-1.5236584 -3.4990385 1.2769979
-1.5025231 -3.4941466 1.2737797
-1.5041467 -3.5059178 1.2667104
-1.5049984 -3.4951763 1.2800585
-1.4889667 -3.5095301 1.283008
-1.5019746 -3.4994333 1.2806177
-1.4831924 -3.5086358 1.2764016
-1.4755313 -3.508764 1.278129
-1.4833572 -3.5054138 1.2739143
-1.4776874 -3.5150867 1.2808819
-1.4705508 -3.5137436 1.2692943
-1.4548861 -3.5161572 1.2847272
-1.4624368 -3.525089 1.2705109
-1.4570539 -3.5197704 1.269151
-1.43832 -3.5233204 1.2755455
-1.4366339 -3.5247822 1.2741382
-1.4373353 -3.5323682 1.2856228
-1.5109829 -3.7059028 1.1965079
-1.4939317 -3.7035711 1.195383
-1.5010922 -3.7004845 1.1866587
-1.4812821 -3.7151792 1.2013447
-1.4730569 -3.7191298 1.1956773
-1.4693958 -3.7155545 1.2031312
-1.479948 -3.7115228 1.1979501
-1.4718573 -3.7136867 1.1912583
-1.4573692 -3.7190964 1.1851375
-1.4642856 -3.7101421 1.1934562
-1.4597144 -3.7310405 1.1989594
-1.4416964 -3.7200634 1.1889018
-1.4448005 -3.721426 1.1840312
-1.5022857 -3.8980808 1.1040002
-1.4991851 -3.9018664 1.1046635
-1.4817489 -3.9071786 1.1109806
-1.476856 -3.9082334 1.1034009
-1.4771413 -3.9063909 1.1157216
-1.4641153 -3.9152563 1.1046895
-1.4772074 -3.9162371 1.104661
-1.4619778 -3.9178486 1.1057768
-1.4612422 -3.9066467 1.1199046
-1.4505613 -3.9237564 1.1146976
-1.4447482 -3.917902 1.1047764
-1.4364041 -3.9143972 1.113174
-1.4901978 -4.0899062 1.0357977
-1.4946289 -4.0950699 1.022015
-1.4866369 -4.1059775 1.0321568
-1.4863212 -4.1093206 1.0355074
-1.4770348 -4.1112213 1.0199438
-1.4677739 -4.1033592 1.0248277
-1.4573944 -4.1002321 1.0229647
-1.4528841 -4.1118979 1.0260357
-1.4535781 -4.1032262 1.0369971
-1.4441904 -4.1116896 1.0334914
-1.4464022 -4.1166244 1.0274937
-1.5035988 -4.2836547 0.95587403
-1.4941648 -4.2965622 0.93799818
-1.4745862 -4.2948828 0.93886334
-1.4716541 -4.289649 0.93990475
-1.4642826 -4.300889 0.95087641
-1.4720243 -4.307487 0.94703549
-1.4616262 -4.2953153 0.95358157
-1.4481542 -4.3095808 0.95084363
-1.4437181 -4.3002048 0.9416787
-1.4427847 -4.2987895 0.94960713
-1.48561 -4.4729161 0.86190736
-1.479488 -4.4909201 0.86595511
-1.4712391 -4.4953427 0.85376972
-1.4821219 -4.4828334 0.86889744
-1.4719607 -4.488956 0.85485601
-1.4508247 -4.4888263 0.85627908
-1.453527 -4.4843068 0.8719281
-1.4496802 -4.4923277 0.85535741
-1.4485686 -4.5019264 0.87020016
-1.4922073 -4.6700859 0.78592813
-1.4920843 -4.6759276 0.78487283
-1.4770991 -4.6819119 0.78790599
-1.4780631 -4.685914 0.78860027
-1.4712098 -4.6870689 0.7838788
-1.4492259 -4.6843348 0.77510118
-1.4612805 -4.6867409 0.78851086
-1.4519092 -4.6981273 0.78848839
-1.4468861 -4.6919479 0.78248519
-1.4918349 -4.8651023 0.70635521
-1.4882908 -4.8785071 0.70012355
-1.4664569 -4.8783207 0.69014078
-1.4656754 -4.8696837 0.69625568
-1.4618578 -4.8685479 0.70044124
-1.4573431 -4.8670998 0.70553565
-1.437547 -4.8702102 0.6954183
-1.4465257 -4.871922 0.70494056
-5.4249935 -2.9975047 0.24910662
-5.419179 -2.9884026 0.24239202
-5.4183693 -3.0054231 0.25535741
-5.4206944 -3.0198629 0.24479587
-5.4078045 -3.0191374 0.24525924
-5.4135709 -3.0264597 0.25017077
-5.3979654 -3.0452366 0.25408143
-5.3996935 -3.0451126 0.23904106
-5.4045439 -3.0542197 0.2404297
-5.3840861 -3.0610023 0.24003612
-5.3983917 -3.072072 0.24314079
-5.3833184 -3.081516 0.24294202
-5.2164073 -2.9834275 0.33453709
-5.2151895 -3.0025749 0.33804956
-5.2045231 -3.0130532 0.3298645
-5.2133827 -3.0135293 0.32192817
-5.1973209 -3.0226419 0.32278004
-5.1973381 -3.0177348 0.33131522
-5.1923857 -3.0419407 0.33829641
-5.1860347 -3.0499625 0.32604226
-5.1800671 -3.0565736 0.33025974
-5.1909842 -3.0524063 0.33256844
-5.1820903 -3.0641747 0.32957265
-5.182817 -3.0789137 0.33473143
-5.1800203 -3.0871844 0.33670801
-5.0085335 -2.9947393 0.40672418
-5.0019698 -3.0040169 0.41368669
-4.994544 -2.9975412 0.4128347
-4.9985733 -3.0103524 0.41504928
-4.9956121 -3.0210619 0.41650856
-4.9848948 -3.0300632 0.41861719
-4.9899507 -3.0342517 0.41214791
-4.9726882 -3.0338261 0.4011589
-4.9784112 -3.0384169 0.40267366
-4.9789662 -3.0445116 0.40315419
-4.9575348 -3.0602951 0.40952584
-4.9673028 -3.0737038 0.41362551
-4.9500985 -3.0838857 0.41120076
-4.9537368 -3.0823057 0.40295878
-4.8001485 -2.9851499 0.49222085
-4.8002286 -2.9981215 0.49823827
-4.7781911 -3.000387 0.48704338
-4.7826133 -3.0096376 0.48324436
-4.7780156 -3.0088689 0.50181895
-4.7718935 -3.0329223 0.5012573
-4.7652812 -3.0398211 0.49186468
-4.7722883 -3.0407746 0.49600983
-4.7551866 -3.0488205 0.49691349
-4.7605 -3.0448103 0.48633146
-4.7540464 -3.0665298 0.48300087
-4.7395468 -3.0725195 0.49340457
-4.7390203 -3.0806708 0.48824292
-4.7496796 -3.0774531 0.50052506
-4.7441287 -3.0938554 0.50026417
-4.5870528 -2.9883051 0.56385791
-4.5836105 -3.0002236 0.56600392
-4.5695515 -3.0033953 0.57386708
-4.5713387 -3.0137203 0.58034921
-4.5522132 -3.0136237 0.57750016
-4.5636606 -3.031347 0.57958448
-4.5584297 -3.0388539 0.58232582
-4.5427866 -3.030127 0.56355655
-4.5522962 -3.036361 0.57463974
-4.5495143 -3.0413551 0.57594943
-4.5269852 -3.0465345 0.56937456
-4.5220785 -3.0524609 0.57728446
-4.5350165 -3.068527 0.56842011
-4.5200834 -3.0705874 0.57562214
-4.5186586 -3.0777388 0.56930655
-4.5200744 -3.0805628 0.57164729
-4.3687296 -2.9989414 0.65408039
-4.3454466 -2.9891584 0.65038282
-4.3609242 -2.9931369 0.64681321
-4.3453102 -2.9985948 0.64460552
-4.3483782 -3.0057929 0.6635685
-4.3380122 -3.012363 0.66294909
-4.3397284 -3.036159 0.65260172
-4.3302999 -3.0293179 0.64652586
-4.3336616 -3.0453572 0.65962476
-4.3233299 -3.0471265 0.65621948
-4.3106489 -3.052541 0.65730071
-4.316752 -3.0588596 0.6542626
-4.3065443 -3.0648513 0.65333784
-4.2998981 -3.059433 0.65304112
-4.2954507 -3.0812953 0.65162635
-4.2920322 -3.0770125 0.6497156
-4.2892246 -3.0786753 0.65007704
-4.2967563 -3.0951476 0.663342
-4.1423345 -2.9920249 0.7278493
-4.1229758 -2.9898212 0.73541248
-4.1270146 -2.9992003 0.74360567
-4.1299639 -3.0189543 0.73151886
-4.1159434 -3.0127809 0.73947287
-4.1228395 -3.0242496 0.73887157
-4.1100245 -3.0355682 0.74242866
-4.0986161 -3.0277736 0.736283
-4.1091104 -3.0414851 0.73448324
-4.0992351 -3.0470505 0.74221367
-4.096087 -3.050545 0.7318607
-4.0896492 -3.0588701 0.72949511
-4.0756397 -3.0554311 0.74352843
-4.0734296 -3.0591466 0.7435798
-4.0832982 -3.0730548 0.73557079
-4.0652046 -3.0780802 0.7418533
-4.0677047 -3.0745199 0.74257165
-4.0666394 -3.0837884 0.7368331
-4.051712 -3.0877964 0.74312544
-4.0585766 -3.1061828 0.72958922
-3.9127331 -2.9943886 0.81951445
-3.9023597 -2.9915171 0.82561374
-3.8943443 -2.998914 0.82087076
-3.8922882 -3.0083861 0.81812501
-3.890173 -3.0120203 0.80717784
-3.8760591 -3.0218623 0.81690592
-3.8756552 -3.0185137 0.81588906
-3.8745251 -3.0384171 0.81129241
-3.8791263 -3.0477183 0.80837023
-3.8574274 -3.0482171 0.81273836
-3.8692572 -3.0521832 0.82327747
-3.8523798 -3.049969 0.82215017
-3.8493955 -3.0639405 0.8190822
-3.8511467 -3.0600646 0.81199253
-3.8356361 -3.0782893 0.82671326
-3.8310652 -3.0666242 0.81703049
-3.8367586 -3.0787864 0.81612903
-3.8234613 -3.0940576 0.82075095
-3.8347533 -3.0981765 0.82149249
-3.8289599 -3.1048505 0.80715007
-3.8187912 -3.1076162 0.81425071
-3.6764312 -3.0022776 0.89019388
-3.6769969 -2.9935296 0.89633691
-3.6606233 -3.0108171 0.89174706
-3.6513324 -3.016886 0.89431739
-3.6473136 -3.0226834 0.89393198
-3.6529706 -3.018481 0.9067573
-3.6395216 -3.025296 0.8896783
-3.6414435 -3.0277247 0.89384133
-3.642617 -3.0286896 0.89668518
-3.6381257 -3.0438223 0.90211225
-3.6265266 -3.0425839 0.9027248
-3.6202028 -3.0461016 0.89722443
-3.6277289 -3.0574431 0.89956969
-3.6198378 -3.0636985 0.90097332
-3.609369 -3.0701468 0.90170103
-3.5992789 -3.0664709 0.89174652
-3.5963562 -3.0735722 0.90008664
-3.5905056 -3.0868287 0.89110172
-3.6004848 -3.0854988 0.9062497
-3.5876133 -3.083925 0.89135677
-3.5893075 -3.0950067 0.90278822
-3.5903823 -3.1040261 0.89578193
-3.5769503 -3.1048403 0.90250796
-3.5811663 -3.1020391 0.9080466
-3.426276 -2.9928753 0.97342438
-3.4285145 -2.9978957 0.98630863
-3.4207008 -3.0042906 0.97714168
-3.4245403 -3.0091391 0.97976226
-3.4173579 -3.0082779 0.9887507
-3.4150209 -3.0188634 0.98434484
-3.4075701 -3.0154684 0.97388315
-3.4086814 -3.0374804 0.97942185
-3.3967922 -3.0303996 0.98916024
-3.3981705 -3.0318809 0.98670757
-3.3940032 -3.0405207 0.97824371
-3.3856771 -3.0555911 0.96956289
-3.3844602 -3.0470467 0.97928464
-3.3724036 -3.0465474 0.98894978
-3.3777199 -3.0630782 0.98426181
-3.3740411 -3.0614908 0.97376823
-3.3547616 -3.0766783 0.97144365
-3.365937 -3.0772092 0.97187519
-3.3515673 -3.0700901 0.98414963
-3.3474526 -3.0885944 0.97969896
-3.3457842 -3.087184 0.97135884
-3.3525729 -3.1017063 0.97269261
-3.3480361 -3.0992768 0.98730916
-3.3337708 -3.1090629 0.98715734
-3.329834 -3.1084437 0.97520125
-3.3305786 -3.1084309 0.96955293
-3.1885672 -2.9883356 1.054657
-3.1822917 -2.9886231 1.062713
-3.1755784 -2.9988461 1.0625906
-3.1765845 -3.0092659 1.0686603
-3.1620352 -3.0023355 1.0608307
-3.1758196 -3.0065188 1.0631634
-3.1682642 -3.0104964 1.0526036
-3.166086 -3.0245466 1.0569301
-3.1640534 -3.0190041 1.0665418
-3.1539707 -3.0385573 1.0608263
-3.1495302 -3.0336993 1.0547653
-3.1412051 -3.0467548 1.0528789
-3.1448178 -3.0372925 1.0652255
-3.1285465 -3.0530376 1.0516025
-3.1261997 -3.0584412 1.0693543
-3.1316762 -3.0618429 1.0673612
-3.114814 -3.0619092 1.0658232
-3.1085052 -3.0640235 1.0546616
-3.1178641 -3.0683377 1.0534632
-3.0976052 -3.0668075 1.0571266
-3.1030557 -3.0850818 1.0700568
-3.0945611 -3.0792816 1.0543343
-3.0879471 -3.0813508 1.0524712
-3.0889802 -3.0914123 1.0592539
-3.0836301 -3.1033959 1.0650184
-3.0805225 -3.1051314 1.0517602
-3.0794017 -3.1142859 1.0628088
-3.079813 -3.1014194 1.0561103
-3.0713799 -3.1222055 1.0694588
-3.0641389 -3.1270323 1.0686924
-2.9253409 -2.9910507 1.1352265
-2.9216771 -3.0012724 1.1506784
-2.9137299 -3.0091982 1.1483979
-2.9276402 -3.0024812 1.1403872
-2.914762 -3.0147443 1.1447177
-2.9161139 -3.0082359 1.1516317
-2.910718 -3.0249491 1.1337038
-2.8942678 -3.0264218 1.1329492
-2.9045105 -3.0238154 1.1357094
-2.9013991 -3.0383286 1.1379373
-2.8990483 -3.0262978 1.1498709
-2.8913834 -3.0347929 1.1356865
-2.8882608 -3.0395362 1.1376745
-2.867413 -3.0423913 1.1504718
-2.8745706 -3.0565748 1.1350923
-2.8773918 -3.0563228 1.1503016
-2.8732934 -3.0548933 1.1328722
-2.8671174 -3.0612373 1.138039
-2.8616903 -3.0620542 1.1498748
-2.8534975 -3.0639944 1.1512544
-2.8430712 -3.0678251 1.1487156
-2.8407059 -3.0682373 1.1417269
-2.8325193 -3.0897791 1.1340336
-2.842339 -3.0947313 1.1475185
-2.8193562 -3.091104 1.1508468
-2.8317471 -3.0945673 1.1384485
-2.8289232 -3.0982068 1.1514947
-2.8235233 -3.0999506 1.1422061
-2.8129508 -3.100553 1.136104
-2.8105373 -3.1172543 1.1320586
-2.8067386 -3.107826 1.1481739
-2.8054731 -3.1203349 1.1478622
-2.7911911 -3.1289654 1.1499877
-2.7845967 -3.1317294 1.1511344
-2.6629641 -2.9993434 1.2211008
-2.6597362 -2.9999897 1.2303396
-2.6489017 -3.0021429 1.2198941
-2.6450155 -3.003232 1.2316536
-2.650413 -2.9980903 1.2267536
-2.6419072 -3.0148818 1.2290893
-2.6374416 -3.0122273 1.224784
-2.6368558 -3.0126653 1.2318944
-2.6365764 -3.0231845 1.2142929
-2.6341665 -3.0314784 1.2178398
-2.6306045 -3.0240619 1.221193
-2.6182966 -3.037607 1.2276303
-2.6167445 -3.0445116 1.2156392
-2.6056333 -3.0317297 1.2262781
-2.6027572 -3.0485499 1.2257718
-2.6047761 -3.041074 1.232181
-2.604454 -3.0533478 1.2249461
-2.5884323 -3.0492558 1.2209686
-2.5852952 -3.0491097 1.2301613
-2.5797544 -3.0707841 1.2147436
-2.5706615 -3.0731323 1.23042
-2.5782106 -3.0674131 1.2162231
-2.5793173 -3.064388 1.2187873
-2.5724101 -3.0745022 1.2177932
-2.5548587 -3.0859966 1.2236331
-2.5578089 -3.0837708 1.2205964
-2.5543449 -3.0854895 1.2289281
-2.5581107 -3.0954576 1.2249877
-2.5458488 -3.0865648 1.2248235
-2.5443895 -3.0964127 1.226609
-2.538343 -3.101454 1.2296643
-2.5366149 -3.0983362 1.2220509
-2.529079 -3.1006215 1.2210687
-2.5189738 -3.120301 1.2135724
-2.5098577 -3.1067359 1.2181756
-2.5148969 -3.1204326 1.2285928
-2.5029678 -3.1149817 1.2208732
-2.502702 -3.1176181 1.2267616
-2.5063717 -3.1323192 1.2251126
-2.3762612 -2.9869936 1.2984051
-2.3784997 -3.0026979 1.3089883
-2.3776782 -3.0010159 1.3062413
-2.3644652 -2.9961448 1.3047546
-2.3722298 -3.0055199 1.3071278
-2.3674862 -3.0101357 1.3065997
-2.3581347 -3.0041518 1.2959023
-2.3583615 -3.0106056 1.3141772
-2.3463032 -3.0211647 1.3133307
-2.348352 -3.0197697 1.3012919
-2.3320453 -3.0265851 1.2951828
-2.3436668 -3.019825 1.296707
-2.3247006 -3.0364342 1.3032452
-2.3284767 -3.0240262 1.2979808
-2.313735 -3.0435832 1.3066615
-2.3166156 -3.0426013 1.3140408
-2.3200197 -3.0364776 1.3107125
-2.3141167 -3.0547945 1.3042331
-2.3099344 -3.0452721 1.3104912
-2.3065939 -3.0620215 1.301435
-2.2952876 -3.0466921 1.3088486
-2.2900863 -3.0672166 1.3063011
-2.283356 -3.0530119 1.3104175
-2.2900829 -3.0668252 1.310209
-2.2820699 -3.0701427 1.313705
-2.2853718 -3.0805914 1.3014379
-2.2812898 -3.0786996 1.2985439
-2.2605319 -3.0751646 1.3005763
-2.2662489 -3.0917113 1.2953688
-2.2657034 -3.0891862 1.2966431
-2.2542095 -3.0796285 1.2964724
-2.2552977 -3.0891466 1.2989967
-2.2389288 -3.0962169 1.2989391
-2.2384391 -3.094301 1.3082759
-2.2381535 -3.1086633 1.2974967
-2.2343678 -3.1106231 1.2994641
-2.2228446 -3.1128011 1.3065131
-2.2342112 -3.1185255 1.3002806
-2.223541 -3.1142759 1.300679
-2.2180738 -3.1137941 1.3067735
-2.211328 -3.1261363 1.3055916
-2.2047486 -3.123889 1.2980508
-2.1956406 -3.1295993 1.3065929
-2.2065859 -3.1191509 1.3001983
-2.1881902 -3.1327524 1.3025827
-2.1805694 -3.1269081 1.3061424
-2.1909766 -3.1338847 1.3106533
-2.1743307 -3.1365762 1.3125627
-2.1839132 -3.1529505 1.3018386
-2.1730928 -3.1482148 1.2947071
-2.1761737 -3.1410949 1.2983381
-2.1604323 -3.1517613 1.3073152
-2.1522276 -3.15769 1.3136746
-2.1554763 -3.1589384 1.3135686
-2.1451156 -3.1661699 1.3029416
-2.1523662 -3.1701634 1.3012331
-2.1360528 -3.1689517 1.295616
-2.1352243 -3.1754861 1.3103693
-2.1324825 -3.1759984 1.3118041
-2.1204603 -3.1700907 1.3010241
-2.1155658 -3.1716683 1.3004075
-2.1270359 -3.1819129 1.3121619
-2.1095247 -3.1883659 1.3010186
-2.1056499 -3.1824846 1.3116518
-2.1018772 -3.1906638 1.2980725
-2.1087272 -3.1905191 1.303512
-2.0972817 -3.1984909 1.3131696
-2.0914493 -3.210068 1.2992933
-2.0908594 -3.2033412 1.3078986
-2.0888305 -3.2090347 1.3053994
-2.0775776 -3.2142797 1.3043042
-2.0669372 -3.2154455 1.2959397
-2.0645382 -3.2235548 1.3040915
-2.0732787 -3.2122483 1.3010874
-2.0513818 -3.2216318 1.3128607
-2.0630603 -3.2223325 1.3077291
-2.0492949 -3.236059 1.2975701
-2.0458684 -3.2284281 1.2987717
-2.0363138 -3.2246869 1.3096318
-2.0381501 -3.2434003 1.297724
-2.0424817 -3.2353482 1.3034902
-2.0279043 -3.2411473 1.3110034
-2.0216875 -3.2490432 1.313314
-2.0273151 -3.2501793 1.3098313
-2.0159428 -3.253922 1.2998592
-2.0127931 -3.2538509 1.3120738
-2.014771 -3.2645268 1.3134434
-2.0069041 -3.2562914 1.3053188
-1.9978316 -3.2630215 1.3038044
-1.9978951 -3.2561116 1.306439
-1.9898626 -3.2580612 1.2999818
-1.9760599 -3.2699649 1.3105754
-1.9747401 -3.2801878 1.2961164
-1.9711061 -3.2805781 1.3033584
-1.9709506 -3.2741396 1.3096884
-1.9607636 -3.289099 1.2989137
-1.9583579 -3.2905879 1.3002814
-1.9545789 -3.2887654 1.312696
-1.9589205 -3.2824297 1.3011857
-1.9447727 -3.3007209 1.2993844
-1.9479866 -3.2955465 1.2984259
-1.9376538 -3.3011408 1.3083497
-1.9367237 -3.3099902 1.3108304
-1.9302489 -3.2997842 1.2956942
-1.9165281 -3.3140054 1.3097634
-1.9164736 -3.3026261 1.3116338
-1.9071901 -3.3134317 1.2947694
-1.916535 -3.3050525 1.3024751
-1.9134618 -3.3256128 1.2992579
-1.9018949 -3.3166273 1.3004843
-1.8921258 -3.3154612 1.3096133
-1.8833115 -3.3285718 1.2958702
-1.8845695 -3.3253655 1.2959931
-1.8833433 -3.3203015 1.3090311
-1.8772496 -3.3261378 1.3105505
-1.8770829 -3.3365438 1.3061451
-1.8750422 -3.3422947 1.3136238
-1.8698622 -3.3420229 1.3121651
-1.8569728 -3.3433132 1.3128227
-1.8472972 -3.3376765 1.305136
-1.8563914 -3.3469141 1.3012792
-1.8363529 -3.351984 1.3069689
-1.830054 -3.3629627 1.2985156
-1.8436286 -3.3573697 1.2977705
-1.8241615 -3.3503408 1.313827
-1.8231716 -3.3678071 1.3021086
-1.8265835 -3.367898 1.3072641
-1.822513 -3.3674779 1.2953095
-1.8198977 -3.3588412 1.3046763
-1.7966212 -3.365205 1.3022847
-1.8010279 -3.3653431 1.3132544
-1.7892879 -3.3701265 1.301746
-1.7918547 -3.3732979 1.3018442
-1.7828712 -3.3747349 1.3101145
-1.7746294 -3.3813989 1.3079859
-1.7703274 -3.3917711 1.310957
-1.7777405 -3.3902566 1.2963963
-1.7599945 -3.3893769 1.3048083
-1.7541996 -3.3905904 1.3044029
-1.7590346 -3.3932395 1.3001733
-1.7462577 -3.4050112 1.2983383
-1.7425077 -3.4097619 1.3142464
-1.7502626 -3.4018023 1.3095026
-1.7379159 -3.4095857 1.3058351
-1.7372954 -3.4138567 1.2980099
-1.7388002 -3.4185593 1.3023123
-1.7173306 -3.4154115 1.3106223
-1.7304182 -3.4192581 1.3022988
-1.7150905 -3.4220533 1.2952417
-1.7201648 -3.4144309 1.3080088
-1.7094653 -3.418782 1.311471
-1.7005974 -3.4241369 1.3126423
-1.6958182 -3.4220045 1.3042266
-1.6957793 -3.432286 1.3104745
-1.6794046 -3.4267113 1.2948914
-1.6908519 -3.4274092 1.297039
-1.6779935 -3.4314082 1.3047612
-1.6768218 -3.4332695 1.311057
-1.6639704 -3.444581 1.2969707
-1.6581726 -3.4457476 1.3129139
-1.6596045 -3.4409995 1.3069059
-1.6575711 -3.4521713 1.2979362
-1.654363 -3.4433551 1.3134857
-1.6395674 -3.4592943 1.3011336
-1.6385206 -3.4636569 1.2967294
-1.6330539 -3.4642677 1.3139939
-1.6254363 -3.4568248 1.3096191
-1.6300933 -3.4530177 1.3057359
-1.6284513 -3.4611702 1.3128879
-1.6208924 -3.4683392 1.3012127
-1.6173872 -3.4617574 1.2966185
-1.5998868 -3.4779632 1.3031787
-1.5913529 -3.4757848 1.3008746
-1.5872664 -3.483638 1.3049439
-1.595529 -3.4752748 1.3069565
-1.5881925 -3.4862788 1.3106574
-1.5835885 -3.4745018 1.3040937
-1.5833561 -3.4922218 1.3036226
-1.5670038 -3.4931433 1.297278
-1.5634966 -3.4913521 1.3060366
-1.5516614 -3.4909053 1.303642
-1.5644174 -3.4978108 1.3073004
-1.5506101 -3.5010383 1.2953889
-1.5391037 -3.5050385 1.2978692
-1.5435251 -3.5021629 1.3109508
-1.5459309 -3.4968164 1.2952597
-1.5246328 -3.5117342 1.3135703
-1.5298953 -3.511291 1.2963784
-1.515626 -3.4993701 1.3004761
-1.5076982 -3.5088196 1.308569
-1.5110089 -3.5113144 1.299306
-1.5167111 -3.5114489 1.305328
-1.4987521 -3.5226629 1.3103062
-1.4927016 -3.5272605 1.3134609
-1.4841679 -3.5211723 1.3016613
-1.4825498 -3.5223858 1.2973711
-1.4766196 -3.5272 1.3003196
-1.4723761 -3.5221786 1.3058605
-1.4653217 -3.5277929 1.305465
-1.4741665 -3.5303872 1.2977558
-1.4549156 -3.5412028 1.3096806
-1.4649247 -3.5426347 1.3035928
-1.448909 -3.5310242 1.308406
-1.4479123 -3.5382831 1.3107299
-1.443758 -3.5419307 1.3012433
-1.4314005 -3.5488858 1.3126378
-1.4920529 -3.72419 1.22008
-1.500795 -3.710927 1.2158499
-1.4839932 -3.7155435 1.2280792
-1.4875839 -3.7139418 1.2197813
-1.4788809 -3.7180288 1.2227274
-1.4782503 -3.7170675 1.2262948
-1.4637046 -3.7250361 1.2235188
-1.4643427 -3.7369561 1.2155232
-1.4626541 -3.7296729 1.2259125
-1.4504492 -3.7349863 1.2313718
-1.4468471 -3.7371864 1.2328962
-1.4345742 -3.7333245 1.2297908
-1.4465288 -3.73786 1.2241689
-1.4918886 -3.9217579 1.141016
-1.499668 -3.9116795 1.1370871
-1.4844983 -3.9261775 1.1361977
-1.4857581 -3.9113405 1.1494106
-1.4697911 -3.9223547 1.1327671
-1.4818166 -3.9168963 1.1454631
-1.4634503 -3.9244521 1.1348948
-1.4596217 -3.9336274 1.1441683
-1.4542657 -3.9357545 1.139338
-1.4520123 -3.9350638 1.1319996
-1.4353781 -3.9393258 1.133353
-1.4406682 -3.9368382 1.146889
-1.492655 -4.1163011 1.0667975
-1.4825183 -4.1109424 1.0648575
-1.4791657 -4.1150966 1.0539843
-1.4724536 -4.1167593 1.0506427
-1.4730426 -4.1255407 1.0618111
-1.464197 -4.1159821 1.0658622
-1.4660751 -4.1265588 1.0698364
-1.4527806 -4.1203761 1.0565441
-1.4468216 -4.1230564 1.0610248
-1.4395064 -4.1365261 1.0700203
-1.4386525 -4.1247153 1.0532186
-1.4967886 -4.3011022 0.98264915
-1.4964939 -4.3073783 0.97124231
-1.4870696 -4.3126936 0.98025632
-1.4809839 -4.3043513 0.98256397
-1.4637269 -4.3129196 0.97649759
-1.4624161 -4.3091254 0.98191363
-1.4571279 -4.3177986 0.97556347
-1.4451295 -4.3262782 0.98857629
-1.4486473 -4.3132105 0.97015417
-1.4431667 -4.3250594 0.98557001
-1.4921967 -4.494103 0.89798194
-1.492614 -4.4955373 0.90743744
-1.4844353 -4.4935675 0.893664
-1.4672397 -4.5115347 0.8903107
-1.4677336 -4.498271 0.90045828
-1.454291 -4.5097246 0.89646095
-1.4554294 -4.5019217 0.90584272
-1.4429152 -4.5081544 0.88878906
-1.4373852 -4.5239425 0.90683877
-1.4858025 -4.6944132 0.81384134
-1.4830301 -4.6881995 0.80845654
-1.4666173 -4.6886902 0.82372779
-1.4607462 -4.7072926 0.82305074
-1.4686456 -4.6949925 0.82647955
-1.4598955 -4.7094827 0.82523662
-1.4409949 -4.6968293 0.81459546
-1.4460887 -4.711616 0.81380385
-1.4953775 -4.8749266 0.72759163
-1.4878937 -4.884356 0.72884601
-1.4823571 -4.8929853 0.73577327
-1.4685897 -4.8853979 0.73100328
-1.4602041 -4.8879566 0.72782207
-1.4565445 -4.8912063 0.7281087
-1.453559 -4.8889198 0.74275649
-1.4471419 -4.9044509 0.74496615
-5.4312663 -3.0177882 0.28959325
-5.4283681 -3.0351982 0.30110562
-5.4267206 -3.0308914 0.29200998
-5.4174953 -3.0507798 0.28778249
-5.4162073 -3.058234 0.29404846
-5.4166021 -3.0594714 0.29124358
-5.4124417 -3.065444 0.30009502
-5.4064584 -3.080893 0.30250487
-5.239747 -2.9956686 0.38304594
-5.2391748 -3.0030603 0.38100967
-5.2430229 -3.0153153 0.37633616
-5.2330327 -3.0089064 0.38185406
-5.2315197 -3.0250945 0.37927407
-5.2190924 -3.0363133 0.36439517
-5.2108822 -3.0305099 0.36964568
-5.2163954 -3.0493777 0.38123617
-5.2047038 -3.0483727 0.37442568
-5.2041507 -3.0656822 0.37973166
-5.2011771 -3.0597687 0.36682859
-5.1975403 -3.0774744 0.37386525
-5.1959295 -3.0832303 0.37597245
-5.0214796 -2.9893408 0.4516958
-5.0191355 -2.9918079 0.45865703
-5.0193615 -3.0060802 0.46170738
-5.0144563 -3.0163848 0.45786297
-5.0042911 -3.0164564 0.46244654
-5.0025253 -3.0290992 0.45532519
-5.0075607 -3.0454621 0.45817843
-5.0072799 -3.0431352 0.45422316
-4.9998927 -3.041465 0.45983425
-4.9854589 -3.0624878 0.44695544
-4.9889078 -3.0708771 0.46135902
-4.976512 -3.0611148 0.46032965
-4.9771447 -3.0757809 0.45205635
-4.9747176 -3.0897546 0.4605006
-4.8204875 -3.0008576 0.53577751
-4.8174372 -3.0111372 0.52553445
-4.8014989 -3.010694 0.52593315
-4.8026977 -3.0142219 0.53565741
-4.8078427 -3.0146236 0.53404462
-4.7873669 -3.024863 0.53839594
-4.7797608 -3.0428326 0.54133892
-4.7777419 -3.0326965 0.5410189
-4.7767429 -3.0474937 0.53300148
-4.7840075 -3.0641737 0.53797323
-4.7628188 -3.066581 0.54187113
-4.7662315 -3.070132 0.54222286
-4.7598782 -3.081948 0.52974546
-4.7531166 -3.0791759 0.54046202
-4.7566214 -3.0857708 0.53749257
-4.5881562 -2.9959559 0.61088139
-4.5890441 -3.002727 0.6131171
-4.5869799 -3.0117295 0.61218691
-4.585227 -3.0239925 0.6231516
-4.5714822 -3.0277896 0.6041224
-4.5727568 -3.0346766 0.60936612
-4.5701246 -3.0292637 0.617733
-4.567132 -3.0417943 0.62095207
-4.5566077 -3.0518696 0.6136055
-4.5553575 -3.0497656 0.60632032
-4.5570683 -3.0570946 0.61533451
-4.545269 -3.0695057 0.6040073
-4.5512247 -3.0640554 0.61010152
-4.5381021 -3.0810642 0.61035067
-4.5340061 -3.0885494 0.61321473
-4.5289302 -3.0815392 0.61559826
-4.3873038 -2.9925644 0.68968242
-4.3687444 -3.0082045 0.6977427
-4.3669572 -2.9975772 0.70211595
-4.3725085 -3.0099657 0.69497579
-4.3653359 -3.0083394 0.68688303
-4.3491406 -3.0191975 0.69274974
-4.3442645 -3.020304 0.69043106
-4.3532853 -3.032589 0.69746208
-4.3420486 -3.0450881 0.68336046
-4.347939 -3.0568302 0.7026155
-4.3314376 -3.0625715 0.6936146
-4.3407311 -3.0539455 0.69509673
-4.3219562 -3.0677328 0.69332355
-4.3187995 -3.07128 0.68527323
-4.3227744 -3.0718725 0.68495464
-4.3148336 -3.0804958 0.69987762
-4.3010178 -3.0884771 0.69978786
-4.3095121 -3.0897224 0.69350088
-4.1423197 -2.9966419 0.78068435
-4.1380181 -3.000845 0.78231406
-4.1344528 -3.0128155 0.76427227
-4.1398807 -3.0183568 0.78092057
-4.1438184 -3.0094085 0.76983947
-4.1295209 -3.0215974 0.78126305
-4.1232662 -3.0220635 0.77814031
-4.1173215 -3.0388999 0.77243418
-4.116446 -3.0462396 0.76478064
-4.1156521 -3.0464015 0.7819097
-4.1011372 -3.0523543 0.77080065
-4.0993185 -3.0581996 0.78129679
-4.0958619 -3.0646827 0.76562488
-4.0904388 -3.0608044 0.77020836
-4.0883598 -3.0850823 0.76953077
-4.0973539 -3.0792897 0.78244907
-4.0749164 -3.0914767 0.78068
-4.0755935 -3.1019623 0.76784742
-4.0819693 -3.0958233 0.77344215
-3.9302423 -3.0019038 0.84452367
-3.9272819 -3.0087786 0.85551989
-3.9154224 -2.9981098 0.84641975
-3.9130595 -3.0082679 0.85657966
-3.9063609 -3.0172944 0.85635513
-3.895071 -3.0285413 0.85758394
-3.9044509 -3.0330894 0.85033041
-3.9009051 -3.039515 0.85660881
-3.8991208 -3.0309412 0.85811466
-3.8901615 -3.0330741 0.85146654
-3.8755996 -3.0535669 0.85319322
-3.8698366 -3.0552909 0.85353661
-3.8730695 -3.0493548 0.8500343
-3.8653951 -3.0652626 0.8618536
-3.8675532 -3.0786862 0.85012031
-3.8699281 -3.085042 0.85260814
-3.8510668 -3.0850079 0.8560099
-3.8594515 -3.0856652 0.85844201
-3.8415504 -3.0887833 0.8548981
-3.8421359 -3.0871944 0.85466564
-3.8493619 -3.0953043 0.85937858
-3.69243 -2.986448 0.92768759
-3.6977322 -3.0003717 0.9274714
-3.6865296 -3.0109043 0.93676776
-3.6835005 -3.0078855 0.93805492
-3.6721976 -3.0115402 0.93839455
-3.6783996 -3.0206392 0.92417073
-3.6611927 -3.0224361 0.93468583
-3.6615462 -3.0306528 0.92747325
-3.6654367 -3.0237832 0.92723364
-3.6495526 -3.0484755 0.92426252
-3.6489484 -3.0430028 0.94004929
-3.6399155 -3.0470219 0.92707956
-3.6510918 -3.044035 0.92873877
-3.6329646 -3.062223 0.93857223
-3.633543 -3.0733187 0.92990083
-3.6337748 -3.0748348 0.93727422
-3.6282234 -3.0833693 0.92798847
-3.6121497 -3.0764902 0.93561804
-3.6232815 -3.0777409 0.93524331
-3.6146457 -3.0873544 0.93529648
-3.6089742 -3.1006176 0.92593646
-3.6075089 -3.1091092 0.93766558
-3.5990059 -3.113045 0.93748385
-3.5888371 -3.1031291 0.92421049
-3.4503524 -2.9978964 1.0048192
-3.4391754 -2.9971695 1.0091085
-3.440618 -2.9951878 1.0099417
-3.4313397 -3.0014362 1.0227263
-3.4344251 -3.0231276 1.0193264
-3.4378786 -3.0205011 1.0113732
-3.4212723 -3.0165284 1.015211
-3.4140191 -3.0354221 1.0156054
-3.4150302 -3.0301523 1.0171062
-3.4162164 -3.0390599 1.0135589
-3.4106693 -3.0523109 1.0200967
-3.4043944 -3.0385773 1.0121922
-3.3938234 -3.0504854 1.0110942
-3.4024129 -3.0573208 1.0085666
-3.3982108 -3.0714543 1.0091608
-3.397402 -3.0732603 1.0171883
-3.3845398 -3.0626857 1.0139899
-3.3878334 -3.0690908 1.016693
-3.3707256 -3.0807462 1.0094552
-3.3721108 -3.0778334 1.0180935
-3.3570366 -3.0936263 1.0182579
-3.355418 -3.0874033 1.0169276
-3.3616972 -3.0948753 1.0084549
-3.3490679 -3.0952091 1.0179062
-3.3589597 -3.1156201 1.0179777
-3.3482509 -3.119508 1.0209908
-3.2154856 -2.9897022 1.0992078
-3.2001092 -2.9924259 1.0958676
-3.2020235 -3.0023479 1.0856018
-3.1911693 -2.9979672 1.0829724
-3.1916707 -3.0028315 1.0892676
-3.1920013 -3.0104024 1.0864974
-3.173656 -3.028585 1.1009606
-3.1837773 -3.018477 1.0997895
-3.1644411 -3.0226059 1.0829006
-3.1650271 -3.0403779 1.0868111
-3.1625936 -3.0437648 1.1000845
-3.1618249 -3.0359657 1.0951222
-3.1643901 -3.0542769 1.0847203
-3.1572149 -3.0459366 1.0831753
-3.152663 -3.0623064 1.1012366
-3.1418095 -3.0632219 1.0961914
-3.1337202 -3.0700133 1.0974222
-3.1311617 -3.0711534 1.0932139
-3.1297679 -3.0771909 1.0893235
-3.125257 -3.068054 1.0921022
-3.1168296 -3.08073 1.0959287
-3.1151226 -3.0768893 1.0919834
-3.1183717 -3.0998721 1.0941501
-3.1120169 -3.0999441 1.0890741
-3.1072009 -3.099735 1.0920396
-3.1043174 -3.1129491 1.0984946
-3.0864732 -3.1023571 1.1025577
-3.0873919 -3.1134953 1.0898738
-3.0925131 -3.1075354 1.0955398
-2.9526711 -2.9909191 1.1746113
-2.959074 -3.0004497 1.1654946
-2.9416449 -2.9925871 1.1645876
-2.9481552 -3.0122933 1.1650611
-2.932493 -3.0099707 1.1698195
-2.9419012 -3.007164 1.1791381
-2.9283381 -3.0058122 1.1795875
-2.928314 -3.0109599 1.1749678
-2.9242213 -3.0213768 1.1635426
-2.9128067 -3.0212708 1.1824042
-2.9157207 -3.0345328 1.171756
-2.8994448 -3.0383835 1.1757122
-2.9122801 -3.0489969 1.1716599
-2.9060166 -3.0503182 1.1720243
-2.8992739 -3.0401804 1.1788285
-2.8877673 -3.0436599 1.1725507
-2.8869364 -3.057791 1.1717302
-2.8856504 -3.0561185 1.1698614
-2.8689785 -3.0545795 1.1816695
-2.8637261 -3.0658579 1.1776711
-2.8596067 -3.0642877 1.1644926
-2.8661296 -3.0706847 1.1715391
-2.868691 -3.0741661 1.1720419
-2.8552988 -3.0756383 1.1752876
-2.8415368 -3.0946283 1.1727289
-2.840965 -3.0863776 1.170743
-2.8466654 -3.1015675 1.178672
-2.8331807 -3.0997488 1.1723135
-2.8415592 -3.105541 1.1715281
-2.8381243 -3.1103692 1.1634926
-2.818682 -3.1153719 1.1810495
-2.812413 -3.1111975 1.1762253
-2.8190918 -3.1138892 1.17193
-2.8052621 -3.1274998 1.1701664
-2.6856692 -2.9952509 1.2532984
-2.6713324 -3.0029953 1.2487855
-2.6789761 -3.0007679 1.2530687
-2.6786857 -3.0093892 1.2431505
-2.6647484 -3.0107279 1.2514139
-2.6715913 -3.0129759 1.2588171
-2.6664643 -3.0201318 1.2451791
-2.6637757 -3.0253739 1.2596712
-2.6459057 -3.021656 1.255421
-2.6523259 -3.028475 1.2615036
-2.6405044 -3.0225854 1.2473584
-2.6454334 -3.0265458 1.2492293
-2.6348703 -3.0423417 1.2570821
-2.6400187 -3.0420449 1.2600621
-2.6350803 -3.0520132 1.245446
-2.6218731 -3.0530322 1.2523186
-2.621258 -3.0531375 1.2557663
-2.6142755 -3.0547724 1.2576967
-2.6127958 -3.0627606 1.2470641
-2.5955613 -3.0613976 1.2533258
-2.5922389 -3.0724468 1.2491844
-2.6030567 -3.0726643 1.2447841
-2.5919983 -3.0665624 1.2482831
-2.5930824 -3.0698583 1.2557687
-2.5911813 -3.0724702 1.2569693
-2.5838912 -3.0861344 1.2608286
-2.5697234 -3.0834482 1.2482542
-2.572103 -3.0980489 1.2577106
-2.572547 -3.0954452 1.2428386
-2.5636187 -3.0998867 1.2529832
-2.5484238 -3.1052907 1.2557263
-2.5573652 -3.1058028 1.2618937
-2.5507019 -3.0995517 1.2577987
-2.5405345 -3.118685 1.2540375
-2.5428767 -3.1202223 1.2512881
-2.544013 -3.1187801 1.258492
-2.5212853 -3.1274855 1.251994
-2.5311272 -3.1228909 1.2545006
-2.5315075 -3.1230659 1.2432108
-2.4118488 -2.9957635 1.3309606
-2.3971465 -3.0003207 1.3370061
-2.3996961 -2.9981604 1.326121
-2.3960738 -2.9936821 1.3250623
-2.3765416 -3.0033875 1.3284395
-2.3807662 -2.9997907 1.3338424
-2.3877356 -3.0016909 1.3242446
-2.3674963 -3.005229 1.3294924
-2.3737502 -3.0229795 1.3228797
-2.3574929 -3.025486 1.3396307
-2.3525209 -3.0276203 1.3243372
-2.3596821 -3.0192378 1.3278528
-2.3607931 -3.0375955 1.3368891
-2.3527846 -3.036526 1.3337581
-2.3458304 -3.0401242 1.3242704
-2.3354943 -3.0321512 1.3417221
-2.3397505 -3.035357 1.3406105
-2.3336 -3.0425372 1.3392918
-2.3221972 -3.0401897 1.3235476
-2.3174026 -3.0458081 1.3286161
-2.3158524 -3.0506821 1.3348638
-2.3095911 -3.0669494 1.3328011
-2.2998097 -3.0685649 1.3356822
-2.3009875 -3.0664132 1.3229283
-2.3052919 -3.0615532 1.3298658
-2.2990794 -3.0706079 1.3280597
-2.2954106 -3.0681741 1.3263255
-2.2928491 -3.0838497 1.3406831
-2.2916017 -3.0923867 1.3406538
-2.2860942 -3.0803981 1.3382659
-2.2755134 -3.0911326 1.3342578
-2.2786808 -3.0998838 1.3372302
-2.2639062 -3.1031363 1.3418292
-2.2662463 -3.0918536 1.3318156
-2.2613358 -3.1091666 1.3298917
-2.2494833 -3.1045635 1.3421371
-2.2394326 -3.1005919 1.3400341
-2.2511115 -3.1183639 1.3254676
-2.2484283 -3.1191978 1.3255697
-2.2457705 -3.1188383 1.3408604
-2.2254958 -3.1122165 1.3286102
-2.2292249 -3.1330848 1.3307965
-2.2299774 -3.1235061 1.332912
-2.2261264 -3.1205988 1.3294859
-2.2122848 -3.1371174 1.3319163
-2.2003627 -3.1261239 1.3421134
-2.1961908 -3.1294246 1.3394394
-2.1941175 -3.1487536 1.3421448
-2.2066066 -3.1497533 1.3271616
-2.1989892 -3.1524532 1.3356769
-2.1960769 -3.1592412 1.3339472
-2.1854105 -3.154125 1.3344761
-2.1725535 -3.1541324 1.3277047
-2.1775765 -3.1546643 1.3269552
-2.1660216 -3.1657345 1.332796
-2.1720321 -3.1692672 1.3327326
-2.1678412 -3.1730163 1.3324649
-2.1663198 -3.179085 1.3359584
-2.1620889 -3.1820402 1.3415362
-2.1528373 -3.1817794 1.327492
-2.135066 -3.183012 1.3297317
-2.1390202 -3.1779883 1.3401533
-2.1424413 -3.1845219 1.333627
-2.1326296 -3.2004972 1.3296219
-2.1235631 -3.1893404 1.3375934
-2.1286519 -3.188621 1.3250736
-2.1137998 -3.208142 1.3318392
-2.1192112 -3.2105775 1.3355645
-2.101125 -3.2132215 1.339357
-2.0974572 -3.2110581 1.3264264
-2.1078291 -3.2155714 1.3352729
-2.0959573 -3.2084911 1.332147
-2.0936596 -3.2092886 1.3254848
-2.0778844 -3.2247353 1.3258384
-2.0861101 -3.2155802 1.3403339
-2.06636 -3.2359829 1.3385274
-2.0791259 -3.2260067 1.3401724
-2.0651221 -3.2259192 1.3423482
-2.0673888 -3.2322273 1.3248397
-2.0658591 -3.2393529 1.3324485
-2.057256 -3.2413402 1.3384914
-2.0398023 -3.2359493 1.3345555
-2.0454707 -3.2527587 1.332757
-2.037797 -3.2582951 1.3384405
-2.0297658 -3.2565629 1.3362013
-2.027235 -3.2595913 1.3364754
-2.0265069 -3.2598994 1.3296351
-2.0241299 -3.2707222 1.3257855
-2.019573 -3.2683337 1.3385249
-2.0125206 -3.2689421 1.3270295
-2.0178556 -3.2654777 1.3364311
-1.9971437 -3.269094 1.3341016
-2.0003638 -3.2829168 1.337834
-1.9853784 -3.2736087 1.3388957
-1.9847057 -3.2808154 1.3245482
-1.9862682 -3.2900419 1.3300252
-1.9875528 -3.2830944 1.3380402
-1.9756738 -3.2983284 1.3380724
-1.9676405 -3.2935674 1.3233265
-1.966864 -3.2863207 1.3307992
-1.957579 -3.2889788 1.3245571
-1.9588885 -3.2954991 1.337513
-1.9625238 -3.3098176 1.3394539
-1.9424227 -3.3137326 1.3335047
-1.9412563 -3.3015604 1.3231437
-1.9344335 -3.3155406 1.326345
-1.9421299 -3.3153989 1.3392758
-1.9218073 -3.3079758 1.3397489
-1.9214488 -3.3171208 1.3277519
-1.9158326 -3.3300941 1.3257649
-1.9227399 -3.3183916 1.3238763
-1.9158856 -3.3326116 1.3382173
-1.9160717 -3.3350832 1.3409835
-1.894313 -3.3420746 1.3225721
-1.8984998 -3.3325238 1.3390634
-1.8930439 -3.3407784 1.3242987
-1.8843831 -3.341361 1.3323935
-1.8827876 -3.346257 1.3306228
