# .PCD v0.7 - Point Cloud Data file format
VERSION 0.7
FIELDS x y z
SIZE 4 4 4
TYPE F F F
COUNT 1 1 1
WIDTH 1528
HEIGHT 1
VIEWPOINT 0 0 0 1 0 0 0
POINTS 1528
DATA ascii
-3.7328219 3.0236635 1.5936354
-3.7206731 3.0059915 1.6052109
-3.72614 3.0005054 1.5872798
-3.8787792 3.1177764 1.5380222
-3.895601 3.1202252 1.5341736
-3.8910389 3.1103687 1.5435989
-3.8991878 3.106271 1.5486941
-3.9026699 3.1088254 1.5321475
-3.9084938 3.0919735 1.5476267
-3.907625 3.0968628 1.5464859
-3.9218235 3.0918219 1.5394921
-3.9187202 3.0831239 1.5400418
-3.9240339 3.0731454 1.5403267
-3.9272711 3.0645406 1.54331
-3.9232078 3.0634532 1.5341842
-3.9429853 3.0512598 1.5406502
-3.9333298 3.0552411 1.5484729
-3.9385715 3.0400567 1.5443106
-3.9403522 3.0433574 1.5487627
-3.9466457 3.0318279 1.5435765
-3.9540725 3.0303936 1.5388279
-3.9684851 3.0163481 1.5308656
-3.9623404 3.0212674 1.5384153
-3.975903 3.0072198 1.5428568
-4.1197557 3.1168542 1.475163
-4.1396065 3.1153965 1.4773343
-4.1329827 3.1078415 1.4890012
-4.1385283 3.0992844 1.491004
-4.1482286 3.0931787 1.4818337
-4.1534681 3.1050036 1.486666
-4.1638861 3.0936182 1.4756017
-4.6222482 3.4335852 1.3063848
-4.6258373 3.4216945 1.3172879
-4.6218672 3.420434 1.3196992
-4.6334472 3.4127865 1.3219507
-4.6361609 3.4096267 1.3085258
-4.6366944 3.3974202 1.3133333
-4.6455522 3.38399 1.3153774
-4.6523981 3.3851736 1.3171153
-4.6684051 3.365423 1.3164836
-4.6595707 3.3595524 1.3102783
-4.6617913 3.3628128 1.3083013
-4.6835685 3.3472424 1.3209045
-4.6744337 3.3403904 1.3187243
-4.6828785 3.3466988 1.3153806
-4.6890626 3.3350236 1.3153677
-4.6886621 3.3275368 1.3096455
-4.7034454 3.3159049 1.3169968
-4.6961751 3.3221307 1.3120421
-4.7071581 3.317044 1.3138539
-4.7187634 3.3054774 1.3163184
-4.7165647 3.296366 1.3085735
-4.7163334 3.2901444 1.3117945
-4.7234902 3.2777159 1.3147068
-4.7328181 3.2814918 1.310477
-4.7254801 3.2637231 1.3211284
-4.7381458 3.2709854 1.3108553
-4.7365246 3.248086 1.3155192
-4.7475429 3.2570691 1.3129846
-4.7435064 3.2396727 1.3119453
-4.7576489 3.2352648 1.3059276
-4.7693176 3.2376404 1.3173934
-4.7687221 3.2248223 1.3092389
-4.7648959 3.209414 1.3152635
-4.7781487 3.209235 1.3116777
-4.7756214 3.2009418 1.3169438
-4.7824335 3.2045217 1.3160987
-4.7795095 3.194252 1.3189873
-4.7919121 3.1774845 1.3174982
-4.78684 3.1692643 1.3052583
-4.8027978 3.1714032 1.3152624
-4.8047638 3.1663656 1.3143004
-4.8152547 3.1464071 1.3071848
-4.8138909 3.1547482 1.3113317
-4.8264928 3.1343012 1.3219768
-4.8226714 3.1408367 1.3110118
-4.8335743 3.125006 1.3103161
-4.8253131 3.1165354 1.3060464
-4.8341537 3.1200898 1.3117111
-4.8444738 3.1131339 1.3158637
-4.8470244 3.0946288 1.3088694
-4.8395615 3.0985568 1.3035581
-4.8530507 3.0963836 1.3050146
-4.8536468 3.0799546 1.321545
-4.8700857 3.0752947 1.3043672
-4.8758707 3.0588179 1.3204699
-4.872611 3.0557902 1.3074926
-4.8700376 3.0453668 1.312802
-4.8717241 3.050436 1.3084288
-4.8877363 3.0495088 1.303869
-4.8795867 3.0303457 1.3075794
-4.8984218 3.0229502 1.3219988
-4.9025583 3.0263608 1.3210325
-4.9052291 3.0134616 1.3104304
-5.0751657 3.1082478 1.2654172
-5.0786037 3.1014395 1.2472829
-5.0859294 3.0821483 1.2529321
-5.0862222 3.0896788 1.2549747
-5.0811958 3.0797608 1.2489097
-5.080533 3.0780594 1.2487466
-5.0844197 3.068727 1.256255
-5.1045861 3.0647697 1.2632089
-5.110323 3.0408759 1.2604198
-5.0970163 3.0385022 1.2515843
-5.1143017 3.034179 1.2645453
-5.1200399 3.0307283 1.257791
-5.1239028 3.0242531 1.2588447
-5.1221061 3.0217762 1.2545336
-8.575985 2.0348475 0.41051406
-8.5761242 2.0233428 0.4044534
-8.585269 2.018976 0.41186568
-8.591733 1.995314 0.41804641
-8.5866833 1.99317 0.41813499
-8.5939236 1.980347 0.41519627
-8.5913 1.9625506 0.41086754
-8.5886736 1.9623953 0.40732712
-8.5995111 1.9333509 0.40435219
-8.594203 1.9349976 0.40964708
-8.5988293 1.9154099 0.41666397
-8.6096525 1.8985027 0.40416953
-8.6065207 1.8952532 0.3993054
-8.6159592 1.8883255 0.40278053
-8.6191998 1.8692162 0.41611671
-8.4347477 1.8254553 0.4651891
-8.4407492 1.8074785 0.47192749
-8.4310637 1.7948472 0.47052714
-8.4449015 1.7740813 0.4721027
-8.4416971 1.7613088 0.46734902
-8.4531822 1.7665782 0.47503552
-8.4376335 1.7436758 0.4578464
-8.4545631 1.7265408 0.46944302
-8.4563398 1.7225857 0.46615085
-8.4546251 1.717991 0.45579204
-8.4595585 1.6928456 0.47388214
-8.451952 1.6842107 0.46578342
-8.457592 1.6677574 0.45684475
-8.4646149 1.6599455 0.45893499
-8.470046 1.6578001 0.46005091
-8.4602146 1.646616 0.45823804
-8.4626799 1.6334101 0.46532783
-8.4623175 1.6256882 0.4670912
-8.4703417 1.598586 0.45671126
-8.4816418 1.5955787 0.47355193
-8.483285 1.5900025 0.4570657
-8.4868202 1.5743794 0.46376631
-8.4784384 1.5554479 0.46583876
-8.4789791 1.5518076 0.47192767
-8.4774122 1.5250342 0.46770272
-8.4947128 1.5303739 0.46412843
-8.3048887 1.4821843 0.5157367
-8.296834 1.470198 0.51491368
-8.3069983 1.4524192 0.51883274
-8.3075275 1.4455553 0.53159183
-8.3111992 1.4392478 0.53062516
-8.3113403 1.4115869 0.52588892
-8.3047657 1.4144737 0.51407772
-8.316102 1.3989695 0.53048581
-8.3213329 1.3871648 0.51198298
-8.3107729 1.3801755 0.53068531
-8.3237705 1.3561885 0.5263955
-8.3216944 1.342294 0.52172697
-8.320425 1.340255 0.53088993
-8.3352203 1.3196919 0.52480227
-8.3372402 1.3174453 0.52402318
-8.34021 1.2970288 0.52720183
-8.3279009 1.2851434 0.52488881
-8.3273859 1.2838612 0.51869595
-8.3304462 1.2592714 0.51232535
-8.3319941 1.2471489 0.53059494
-8.3348227 1.2439196 0.51651001
-8.3419247 1.2246412 0.52016532
-8.3336792 1.2284909 0.51341927
-8.3362551 1.1993878 0.5177502
-8.3449011 1.1900908 0.53147709
-8.354311 1.1796335 0.51643288
-8.3405256 1.1832795 0.52115083
-8.3490372 1.1692177 0.5162369
-8.1536455 1.1279366 0.57493621
-8.1746511 1.1130379 0.57661784
-8.1573715 1.0970391 0.58672774
-8.174161 1.0956504 0.56921929
-8.1672802 1.0842034 0.58722287
-8.1671286 1.0718609 0.58778805
-8.1626301 1.0525353 0.57072335
-8.1643887 1.0454475 0.57487071
-8.1811752 1.0337763 0.57433575
-8.1732283 1.0152086 0.57141292
-8.1701794 1.0035517 0.58480477
-8.1849661 0.9924348 0.57471097
-8.1780539 0.98012763 0.5800336
-8.1810169 0.97254533 0.57538474
-8.1814718 0.97334313 0.57070822
-8.1839075 0.95577508 0.58511066
-8.1857624 0.94417214 0.57161099
-8.1846657 0.93226117 0.5824492
-8.1794052 0.92499799 0.5730437
-8.194664 0.90710062 0.57650012
-8.1928291 0.89365506 0.57973111
-8.197587 0.8868103 0.58327872
-8.1924229 0.86824811 0.58595467
-8.2019196 0.86807823 0.57248557
-8.1960497 0.84879231 0.57125348
-8.1948404 0.84839404 0.58389443
-8.1992121 0.82744855 0.57637531
-8.1970673 0.80889112 0.56838995
-8.2040691 0.79686922 0.58458799
-8.2004595 0.79084778 0.57433689
-8.1933784 0.78790414 0.58209032
-8.2030497 0.76143008 0.57445079
-8.0181103 0.7439279 0.63625282
-8.0215015 0.73579496 0.63278985
-8.0183468 0.71471167 0.64149773
-8.0164089 0.71600163 0.64126581
-8.0218143 0.69406718 0.63154846
-8.0147228 0.67540878 0.63473535
-8.0156012 0.67086464 0.63736355
-8.0202656 0.67102915 0.62543517
-8.0151653 0.65935892 0.6420294
-8.022296 0.63908488 0.64361739
-8.0170507 0.63375473 0.63657653
-8.0265379 0.62604433 0.63260663
-8.0194731 0.60248464 0.6387589
-8.0236845 0.6018436 0.6374079
-8.0281115 0.57676214 0.62533063
-8.0222406 0.57972121 0.62580442
-8.0331678 0.56273556 0.63294476
-8.02145 0.54200315 0.6314618
-8.0216455 0.54727292 0.62952191
-8.0252314 0.52629828 0.63852262
-8.0272131 0.5114398 0.63340896
-8.0362206 0.50794911 0.63180196
-8.0291815 0.49236327 0.6378535
-8.0359745 0.47339019 0.63448334
-8.0241032 0.47079799 0.63725227
-8.0442934 0.45486927 0.634202
-8.0439949 0.448791 0.62538874
-8.0365391 0.43519139 0.62706691
-8.030551 0.42214206 0.62523967
-8.0464878 0.40623724 0.63366377
-8.0334072 0.40906501 0.63845628
-8.0454254 0.38358447 0.63098598
-8.0390339 0.38582581 0.63915873
-8.0465765 0.36194128 0.63958824
-8.0374727 0.35057995 0.62865621
-8.0455847 0.33966452 0.63302714
-8.0367308 0.32966879 0.64255226
-8.0366745 0.32773319 0.62971115
-7.8432226 0.30512673 0.69160533
-7.8432746 0.2946732 0.69227928
-7.8548865 0.27785772 0.68701684
-7.841691 0.2695666 0.68751043
-7.8559504 0.26819292 0.68148267
-7.8420215 0.25978819 0.6828084
-7.8476481 0.24098228 0.68401158
-7.8441911 0.23454419 0.68553871
-7.856348 0.2174236 0.68831027
-7.8589644 0.20080732 0.70038688
-7.8544068 0.20637347 0.68834639
-7.8444901 0.1922949 0.69682664
-8.04568 0.17103091 0.64291579
-8.0403261 0.15903583 0.62823963
-8.0544634 0.15314238 0.64316565
-8.0546122 0.14152333 0.64066333
-8.0534201 0.1246082 0.63033193
-8.0510092 0.13146497 0.64453971
-8.0470552 0.1064646 0.63260466
-8.2321396 0.10129277 0.57848108
-8.2333088 0.098519556 0.57745254
-8.2465029 0.085917085 0.57332432
-8.2312002 0.064159371 0.57487613
-8.233242 0.047983974 0.5756802
-8.2299433 0.037884481 0.58183843
-8.4235411 0.028386619 0.53107524
-8.4277878 0.019441368 0.53119546
-8.422349 0.013073237 0.52942091
-8.4226866 -0.0091905966 0.51389468
-8.4349422 -0.0045785923 0.52228492
-8.4247541 -0.0210141 0.51941884
-8.4355793 -0.030537602 0.51546735
-8.6223497 -0.045990281 0.4647249
-8.615716 -0.062357459 0.46587473
-8.6282606 -0.075368889 0.46844244
-8.6146307 -0.090098538 0.47247627
-8.6151972 -0.089048706 0.4593502
-8.6156263 -0.10255077 0.47164136
-8.8096294 -0.11932538 0.41690367
-8.8073215 -0.14571844 0.41511372
-8.8166056 -0.14196378 0.40867355
-8.8087387 -0.16908993 0.40449512
-8.8048067 -0.17122507 0.41797063
-9.0068407 -0.19108486 0.35058144
-8.9959097 -0.19959804 0.3587839
-9.0023937 -0.21460605 0.34430933
-9.0048265 -0.23032165 0.34293696
-9.0003672 -0.2466246 0.36011469
-9.0036001 -0.24528943 0.35549822
-9.1967506 -0.26771638 0.3002578
-9.1999168 -0.29403487 0.29764163
-9.1895056 -0.29271722 0.30021822
-9.1832542 -0.30771491 0.29297823
-9.1835098 -0.33322001 0.30246413
-9.3862886 -0.33529505 0.23947205
-9.3891344 -0.35721508 0.23060755
-9.3864365 -0.361891 0.23861222
-9.3850927 -0.38244888 0.2428982
-9.3865519 -0.38659754 0.24110313
-9.5642586 -0.42107484 0.17878802
-9.5689764 -0.43083709 0.17955527
-9.5762911 -0.45060748 0.17449003
-9.5610113 -0.46456435 0.18727641
-9.5729523 -0.47923225 0.18740635
-9.7669725 -0.49533817 0.12897132
-9.7558184 -0.50517058 0.11828165
-9.7535095 -0.51282477 0.11603032
-9.7631769 -0.53967315 0.12633464
-2.1680334 4.9393663 1.4664154
-2.1682608 4.9273829 1.4751587
-2.1820636 4.933188 1.4608134
-2.1717579 4.9265594 1.4746815
-2.1917191 4.9206929 1.4658386
-2.1959133 4.9284229 1.4577233
-2.2092779 4.9156847 1.4599986
-2.1976058 4.9099107 1.4729021
-2.2206488 4.9028111 1.4729396
-2.2184143 4.9019499 1.4695569
-2.2357924 4.8993182 1.4621354
-2.2320988 4.9033265 1.465763
-2.1592731 4.7257605 1.5133847
-2.160929 4.7201056 1.5222828
-2.1687124 4.7213449 1.5283759
-2.1853347 4.7252402 1.5252695
-2.1900678 4.7226171 1.5125057
-2.1925213 4.7185082 1.517058
-2.2020671 4.698194 1.5176101
-2.2115712 4.7069473 1.5204101
-2.2044535 4.7051516 1.5236974
-2.2247529 4.6938744 1.5141209
-2.2214205 4.7018585 1.5247509
-2.2256088 4.6947589 1.5127611
-2.2408948 4.6864438 1.5250543
-2.1665425 4.5149236 1.5794431
-2.1585913 4.5184927 1.5791245
-2.1833994 4.5061641 1.5777684
-2.1836512 4.5108409 1.5791789
-2.1833467 4.4925604 1.5724326
-2.2002378 4.4879398 1.5669899
-2.1938374 4.4895582 1.573378
-2.1970088 4.4810429 1.5708677
-2.2095463 4.4948688 1.5843844
-2.2140691 4.4799337 1.5727217
-2.2262943 4.4823308 1.5858301
-2.2392733 4.4789543 1.5855449
-2.2325666 4.4770398 1.5759768
-2.160542 4.3095379 1.6292869
-2.1535325 4.3003259 1.6322329
-2.173265 4.3004804 1.6336305
-2.178436 4.2932892 1.6397275
-2.1772149 4.289176 1.6403986
-2.1784997 4.27877 1.6379938
-2.1862633 4.2900825 1.6237612
-2.2056856 4.2754059 1.6350416
-2.2119949 4.2739825 1.62607
-2.2185853 4.2654939 1.6383171
-2.2147393 4.2685833 1.6378062
-2.2127259 4.2646618 1.6311125
-2.227762 4.266983 1.6276112
-2.2413962 4.250104 1.6399647
-2.248929 4.2604132 1.6312593
-2.2557864 4.2553997 1.6352112
-2.154563 4.0789576 1.6886933
-2.1578121 4.0787969 1.6954316
-2.1697767 4.0782766 1.6838343
-2.1707087 4.0771122 1.6868442
-2.179389 4.0657344 1.6960481
-2.1885762 4.0623074 1.6844434
-2.2044528 4.0697765 1.6782806
-2.2038264 4.04954 1.6783683
-2.2108421 4.0476942 1.6919025
-2.2065589 4.0449109 1.6835694
-2.2183194 4.058785 1.6915715
-2.2317405 4.0550838 1.682449
-2.2384188 4.0450878 1.69585
-2.23669 4.0398254 1.691138
-2.2319469 4.0315437 1.6781082
-2.2379956 4.039732 1.6847188
-2.1613972 3.8701365 1.7370211
-2.1649709 3.8545072 1.7370235
-2.1684525 3.8575065 1.7382715
-2.1783955 3.8504293 1.7398353
-2.1766675 3.8572273 1.7383803
-2.1869333 3.8562357 1.736339
-2.1863172 3.8541927 1.7474245
-2.1922956 3.8395011 1.7363783
-2.2029819 3.835171 1.740189
-2.2066936 3.8304062 1.7353343
-2.2037904 3.833602 1.751598
-2.2237275 3.8385954 1.7352628
-2.2236578 3.8254743 1.7449648
-2.2223358 3.8277729 1.7506349
-2.2394457 3.817158 1.7461559
-2.2380061 3.8216317 1.7437453
-2.2386036 3.8120718 1.7423598
-2.248111 3.8018789 1.7493579
-2.2486603 3.8063414 1.7351089
-2.1667356 3.6474283 1.7943319
-2.1680899 3.64189 1.8047014
-2.1731763 3.6417437 1.8031695
-2.1745934 3.6269913 1.7916291
-2.1863043 3.6188812 1.8055073
-2.1923409 3.6189768 1.791898
-2.1828523 3.6258237 1.8058976
-2.1957695 3.6173801 1.7934793
-2.2100685 3.6247318 1.794018
-2.1973646 3.6168323 1.8021764
-2.2189057 3.6174927 1.799587
-2.2163663 3.6018579 1.7944933
-2.223453 3.6061919 1.7922945
-2.2320673 3.5941594 1.7983913
-2.2322176 3.5954623 1.7994332
-2.2384853 3.5957711 1.8036333
-2.238358 3.5906062 1.7977494
-2.2442267 3.5775576 1.8064983
-2.2425091 3.5752397 1.8056821
-2.2602487 3.5906503 1.8000571
-2.1665981 3.4073589 1.8533366
-2.1585333 3.4139493 1.8589389
-2.1755579 3.4184654 1.8519869
-2.1747773 3.3993752 1.8561207
-2.1678956 3.4051385 1.8446829
-2.1799674 3.4096332 1.8566864
-2.1878352 3.3992503 1.8466645
-2.1815825 3.3879893 1.8467405
-2.1865768 3.3834319 1.8476518
-2.1923828 3.386117 1.8471342
-2.2038095 3.3842025 1.8486744
-2.2170994 3.3750994 1.8598349
-2.2047825 3.373714 1.8585482
-2.2194133 3.3778474 1.8612146
-2.2299061 3.3735964 1.8526942
-2.231832 3.3620031 1.851725
-2.2417505 3.3672674 1.8434361
-2.2416861 3.3635054 1.8469559
-2.2415416 3.3594661 1.8489946
-2.2404811 3.3543332 1.8568013
-2.2599339 3.3624816 1.8457831
-2.2578423 3.3420439 1.8487579
-2.2645857 3.338623 1.8534498
-2.1642301 3.1864824 1.9005313
-2.1693633 3.1874754 1.9113307
-2.1630127 3.1712294 1.9136591
-2.1776271 3.1697474 1.9043806
-2.180526 3.1730077 1.9144756
-2.1799009 3.1610866 1.9036732
-2.1772327 3.1748948 1.9108863
-2.1867537 3.1739154 1.9094028
-2.1872885 3.1596882 1.9106435
-2.2048445 3.1633739 1.9116311
-2.1977041 3.1636856 1.9024366
-2.1986246 3.1432898 1.8972648
-2.2087417 3.153666 1.8988826
-2.2165258 3.1538451 1.9020603
-2.2135842 3.1355383 1.9115466
-2.2205431 3.1422653 1.9121659
-2.2183003 3.136065 1.9096539
-2.2288401 3.1247439 1.9092293
-2.2408588 3.1372838 1.8976501
-2.2316325 3.1366594 1.9128356
-2.2414141 3.1275628 1.9114177
-2.2403858 3.1219287 1.9126953
-2.244525 3.1105564 1.9074463
-2.2670419 3.1157742 1.9054798
-2.2663767 3.1083035 1.9083161
-2.2762208 3.0982397 1.900995
-2.2654412 3.1147802 1.9105953
-2.277169 3.1051381 1.9120023
-2.2893171 3.1078298 1.909083
-2.2930398 3.1040962 1.9086795
-2.2815726 3.0949247 1.9023254
-2.2915189 3.091121 1.9134892
-2.3001831 3.0875132 1.9164389
-2.2940917 3.0857193 1.9077706
-2.3099623 3.088917 1.9148022
-2.3029921 3.0665922 1.9149463
-2.3233385 3.0793645 1.9148133
-2.31408 3.0647221 1.9082265
-2.32341 3.0622401 1.9075259
-2.3356547 3.0603395 1.9062921
-2.3282986 3.0542054 1.8990933
-2.3272917 3.0624206 1.9113034
-2.3351166 3.0462623 1.9031242
-2.3399873 3.0404813 1.9163758
-2.3535216 3.0431113 1.9160553
-2.3600197 3.036989 1.9166467
-2.366369 3.0347927 1.9132528
-2.3528469 3.046123 1.898465
-2.3659067 3.032387 1.9044495
-2.3596628 3.0306652 1.9117935
-2.3746479 3.0205543 1.91627
-2.3768272 3.0156999 1.9122339
-2.3867917 3.027266 1.9153177
-2.3849306 3.0182023 1.9159044
-2.3898134 3.0198407 1.9024115
-2.3950121 3.0192125 1.9060919
-2.5200672 3.1662953 1.8557312
-2.5282679 3.1611209 1.8551555
-2.5312514 3.147104 1.8441573
-2.5282457 3.1435442 1.8547571
-2.5378909 3.1492074 1.8585713
-2.5430546 3.1368949 1.8608625
-2.5522494 3.1388168 1.858057
-2.5583558 3.1267943 1.8495309
-2.5638702 3.1340785 1.8459922
-2.5628724 3.1203489 1.84518
-2.5581894 3.1261973 1.8449781
-2.5687151 3.1082296 1.8431365
-2.5798116 3.1116581 1.8508192
-2.5819011 3.1024671 1.8584892
-2.5733857 3.1080008 1.8553754
-2.5810513 3.1127355 1.8435084
-2.5864205 3.0926354 1.8571289
-2.5945902 3.0907841 1.842298
-2.5912809 3.0877683 1.8583289
-2.6115053 3.0900953 1.8442141
-2.6125364 3.0814452 1.8595374
-2.6137648 3.0866046 1.8604887
-2.6168294 3.0849972 1.8484703
-2.6122062 3.0656254 1.8508688
-2.6199081 3.0790887 1.8424149
-2.6307185 3.0692012 1.8423157
-2.6333907 3.0582542 1.8457423
-2.6424375 3.0634425 1.8509498
-2.6463099 3.0562398 1.8567793
-2.654146 3.0531073 1.84858
-2.6560919 3.0532329 1.8553807
-2.6627095 3.0364149 1.8509965
-2.6483703 3.0408113 1.8486671
-2.6660445 3.0341053 1.850634
-2.661315 3.0239666 1.8497379
-2.6650341 3.027281 1.8426344
-2.6688473 3.0321825 1.8482701
-2.6692286 3.0122907 1.8427856
-2.6843972 3.0127752 1.8537961
-2.6937308 3.0096667 1.8453779
-2.6912587 3.0088506 1.860795
-2.8308084 3.1483462 1.7879628
-2.8261085 3.1435325 1.7983954
-2.8237321 3.145267 1.8058493
-2.8393834 3.1359482 1.7868978
-2.8359253 3.1271222 1.7950001
-2.839565 3.1386898 1.7917488
-2.8575637 3.1340775 1.7923566
-2.8610411 3.1184931 1.7972058
-2.8535025 3.1177659 1.8027092
-2.8543763 3.1036968 1.791165
-2.8598275 3.1030862 1.8001947
-2.8629587 3.1115501 1.788371
-2.8756516 3.1067591 1.802248
-2.8808846 3.0906801 1.7907788
-2.8850639 3.1024172 1.7944621
-2.881135 3.0948665 1.7936977
-2.9004519 3.0936642 1.7923118
-2.8991551 3.0733252 1.7993383
-2.8930037 3.0848603 1.7896405
-2.9013433 3.0798516 1.7898824
-2.9012213 3.0737159 1.7935287
-2.9120638 3.068768 1.7896599
-2.9147243 3.0554402 1.8050272
-2.9235022 3.0611868 1.7883486
-2.9237435 3.0470562 1.7874461
-2.9402957 3.0411506 1.8030381
-2.9376068 3.0402188 1.8014787
-2.9362979 3.0448685 1.8036376
-2.9479566 3.0399492 1.8013947
-2.9493077 3.0309639 1.7982122
-2.9504108 3.0263684 1.792969
-2.9478619 3.0151927 1.7868588
-2.9691763 3.0256131 1.791508
-2.9751172 3.0115066 1.8059967
-2.9777312 3.0014036 1.7904536
-3.1168861 3.1352208 1.7379627
-3.1049891 3.1395383 1.7437977
-3.1146452 3.1293926 1.738399
-3.1221364 3.1318097 1.7322035
-3.1318643 3.1170924 1.741151
-3.1247687 3.1254823 1.7496375
-3.14291 3.1206255 1.7510885
-3.1471555 3.1186535 1.7471061
-3.1467457 3.1149335 1.7331688
-3.1518409 3.112787 1.7332865
-3.1524732 3.0913115 1.7351522
-3.1504431 3.0860989 1.7456945
-3.1625721 3.0955901 1.7504561
-3.1600935 3.0819435 1.7420062
-3.1638043 3.0829167 1.7432162
-3.1785614 3.0753267 1.7371993
-3.1848257 3.0739307 1.7507151
-3.1896329 3.0726185 1.7466545
-3.1784163 3.0560391 1.7432754
-3.2011304 3.0586815 1.7421575
-3.2037208 3.0650022 1.7439775
-3.2044394 3.0576577 1.7450047
-3.1946092 3.0424826 1.7399485
-3.2000113 3.0340784 1.7456776
-3.2138569 3.0462494 1.7368174
-3.2264864 3.0279434 1.7448109
-3.2251265 3.0276465 1.7358581
-3.2302444 3.0268099 1.7500486
-3.2394166 3.0214515 1.7321215
-3.2319615 3.0176337 1.741304
-3.3868482 3.1459074 1.686134
-3.3788605 3.1270747 1.6832455
-3.3898389 3.1223083 1.6896675
-3.3858669 3.1163695 1.6921762
-3.3961592 3.1208086 1.6913533
-3.3953049 3.1168354 1.6767272
-3.4064505 3.1184332 1.6863132
-3.4065421 3.099118 1.6795776
-3.4124367 3.0948288 1.6920041
-3.4162519 3.1021867 1.6851393
-3.4308777 3.1000738 1.6806474
-3.4255199 3.0903101 1.6820585
-3.423044 3.0739229 1.6834446
-3.4341395 3.085856 1.6836399
-3.4427192 3.0718384 1.693028
-3.4521155 3.0630097 1.683203
-3.456131 3.067364 1.6797417
-3.4505537 3.055948 1.6817372
-3.4517052 3.0629528 1.6842214
-3.4604237 3.0504506 1.6788477
-3.4560001 3.0476241 1.6961511
-3.4760616 3.0344505 1.6884871
-3.4747052 3.0280411 1.6892378
-3.471956 3.0348179 1.6867297
-3.4890046 3.0172894 1.6950179
-3.4966583 3.0146332 1.6792978
-3.4941301 3.0122228 1.6927577
-3.4950566 3.0196445 1.6796339
-3.6402009 3.1349761 1.6232055
-3.6568079 3.1208127 1.6342659
-3.6587818 3.1153069 1.6273496
-3.6634448 3.1139672 1.6321152
-3.6557648 3.1182044 1.6353332
-3.6673269 3.1094048 1.6301953
-3.68139 3.1077635 1.6324023
-3.6671576 3.102669 1.6368324
-3.6886382 3.0842962 1.6237372
-3.6766517 3.0891836 1.6229545
-3.6977818 3.0793266 1.6375866
-3.7001863 3.0772097 1.623162
-3.6915231 3.0774591 1.6283448
-3.709769 3.0573783 1.6373069
-3.7032421 3.0493033 1.6356313
-3.7134898 3.0539846 1.6302874
-3.7088683 3.0489147 1.6284394
-3.7220325 3.042381 1.6266403
-3.7307594 3.0386639 1.6316173
-3.7325742 3.0312233 1.626637
-3.7351644 3.0269351 1.636961
-3.7431152 3.0245183 1.6303353
-3.7454832 3.0150328 1.6291323
-3.7426612 3.0115626 1.6330277
-3.9011896 3.1187179 1.5788862
-3.9112334 3.1198173 1.5697641
-3.9066138 3.1097775 1.5807688
-3.9038343 3.1108053 1.5704429
-3.9228466 3.1073308 1.5816087
-3.9168739 3.1062589 1.5705484
-3.915874 3.086807 1.5804209
-3.9245424 3.0836072 1.5731027
-3.9398286 3.0822351 1.5815315
-3.9363105 3.067873 1.5717282
-3.9488893 3.0694833 1.5744797
-3.9404547 3.0653903 1.5837904
-3.9411347 3.0502505 1.5685271
-3.9508023 3.0622156 1.5797637
-3.950788 3.0394862 1.5730039
-3.9596004 3.04704 1.5706564
-3.959465 3.0398962 1.5743471
-3.9694498 3.028379 1.5803343
-3.9667447 3.0258627 1.5704511
-3.9756029 3.0311444 1.5717142
-3.9742568 3.0081193 1.5801016
-3.9901514 3.0177929 1.5699162
-4.1506572 3.1262147 1.5149701
-4.1526494 3.1138313 1.5126678
-4.1633968 3.1057026 1.5131742
-4.7785387 3.5510988 1.3061906
-4.779016 3.5618894 1.2982005
-4.7957935 3.546912 1.3042488
-4.7865748 3.5388486 1.2933425
-4.7872295 3.5261283 1.2932851
-4.806612 3.5189476 1.2957761
-4.7975974 3.5200582 1.2935197
-4.818759 3.5187705 1.3100986
-4.8197107 3.4998214 1.3000997
-4.8229551 3.4944477 1.3077842
-4.8256836 3.4958892 1.3085791
-4.8347988 3.4817986 1.3068513
-4.8318949 3.475867 1.2968396
-4.8429332 3.464081 1.3054652
-4.8448682 3.4565578 1.3080781
-4.8468513 3.4545605 1.3102245
-4.8463335 3.4464762 1.3002027
-4.868063 3.4421198 1.2956214
-4.8732042 3.4416921 1.2988259
-4.8683343 3.4228907 1.3033983
-4.875771 3.4262218 1.2961607
-4.8824029 3.4252896 1.3015879
-4.8907533 3.4121037 1.3078455
-4.8891058 3.4127126 1.309086
-4.8988228 3.39621 1.3095788
-4.9059176 3.3825383 1.2948565
-4.9108567 3.3941891 1.2988391
-4.9058075 3.3689055 1.305261
-4.9053307 3.3632667 1.2980577
-4.9216394 3.3672736 1.2988621
-4.9133658 3.3486106 1.3098135
-4.9323206 3.348073 1.3066549
-4.9258385 3.3439326 1.2971398
-4.9330893 3.3261781 1.2950691
-4.9390898 3.3234348 1.3033381
-4.9445877 3.3183157 1.3047847
-4.9447985 3.3129673 1.3047373
-4.9610167 3.3173678 1.3062686
-4.9508038 3.306936 1.3090297
-4.9677839 3.2848761 1.302673
-4.9639502 3.2957609 1.3045352
-4.9691558 3.2723525 1.2927481
-4.97751 3.2800782 1.3037153
-4.9753695 3.2651956 1.3038294
-4.9952898 3.2689455 1.308108
-4.9869318 3.2518203 1.2941817
-4.997117 3.2390981 1.3018278
-5.0073404 3.234761 1.3008016
-4.9960222 3.2252314 1.2962772
-5.0019331 3.2233057 1.2966329
-5.0141912 3.2097886 1.2948196
-5.0245771 3.2156312 1.2965508
-5.0267406 3.1976752 1.2929668
-5.0179272 3.2064054 1.301466
-5.0289893 3.1797509 1.3006868
-5.0357633 3.185981 1.3097608
-5.0364537 3.1665421 1.2930969
-5.0494885 3.161387 1.2990869
-5.043539 3.1520469 1.3025445
-5.0621047 3.161283 1.2910799
-5.0603046 3.1427386 1.2931079
-5.060308 3.1382761 1.3079945
-5.0585699 3.1361079 1.2919471
-5.0604062 3.1272018 1.2916584
-5.0737333 3.1116714 1.2917498
-5.0878296 3.1137958 1.3051122
-5.0928421 3.0996482 1.3060827
-5.0945086 3.096875 1.3089514
-5.0901752 3.08445 1.3095391
-5.1023741 3.0778487 1.3064286
-5.1060281 3.0774269 1.2918453
-5.1076436 3.0613713 1.299877
-5.1143627 3.0714133 1.2928245
-5.1171193 3.0639687 1.3039557
-5.1201544 3.0475368 1.3066527
-5.1230884 3.0413384 1.2985759
-5.1326499 3.0344477 1.3034596
-5.1212306 3.0302005 1.2926844
-5.1269331 3.0145869 1.2966044
-5.1320372 3.0110648 1.3010494
-8.5948868 2.0366449 0.47358423
-8.5983229 2.0145099 0.4783884
-8.6041508 1.9993824 0.47141978
-8.6082697 1.9982619 0.47954568
-8.6192408 1.9879376 0.46775818
-8.6113491 1.9775828 0.47034293
-8.6248474 1.9484487 0.46878433
-8.6157236 1.9474043 0.48181218
-8.6284008 1.926358 0.46793345
-8.621067 1.9253639 0.46950433
-8.6311169 1.9079478 0.46602297
-8.6234207 1.8899034 0.47242931
-8.4430313 1.848049 0.5308817
-8.4374094 1.8258864 0.52509743
-8.4436455 1.8155113 0.52102321
-8.4616518 1.8157692 0.51863253
-8.457058 1.8052536 0.51914984
-8.4540052 1.7865697 0.53066868
-8.4579086 1.7778994 0.53319079
-8.4556751 1.7592371 0.52677238
-8.4718533 1.7531831 0.53499502
-8.4714966 1.7374655 0.53723419
-8.464716 1.7168883 0.53045732
-8.4746141 1.7244831 0.53332376
-8.4702806 1.7083757 0.53762448
-8.4700041 1.6967787 0.53399599
-8.4721022 1.6722767 0.53166837
-8.4736652 1.6733115 0.52247685
-8.4836941 1.6529106 0.53643835
-8.4911842 1.6371953 0.5235644
-8.485076 1.6277368 0.53646672
-8.4907284 1.6210535 0.52548504
-8.4941244 1.6035519 0.52576321
-8.504282 1.5985374 0.52547652
-8.4915562 1.5802261 0.52092612
-8.4945126 1.5645434 0.53662568
-8.5010805 1.5690988 0.51967359
-8.3207788 1.5202172 0.59075654
-8.3187857 1.4980665 0.57814842
-8.3228149 1.4907124 0.58168507
-8.3197021 1.4717364 0.58762628
-8.3236704 1.4693613 0.57875055
-8.3186045 1.465826 0.58424258
-8.3332434 1.4543539 0.57659274
-8.3281536 1.4378115 0.58250713
-8.3275976 1.4204993 0.58461761
-8.3313255 1.418789 0.58316529
-8.3319902 1.3903531 0.57890868
-8.3367014 1.3859998 0.58412504
-8.3340054 1.3796909 0.57361376
-8.3477554 1.3585523 0.57575595
-8.3355484 1.3554865 0.58715522
-8.3522015 1.3395118 0.58665437
-8.3433456 1.3309063 0.58631933
-8.342123 1.3093833 0.58108258
-8.3549709 1.3103925 0.59017718
-8.3456907 1.2896335 0.58920771
-8.3578472 1.2901542 0.59145123
-8.3542442 1.2678907 0.58099324
-8.3654079 1.250235 0.57588071
-8.3670673 1.2407236 0.58128661
-8.3665676 1.2252979 0.57528639
-8.3546524 1.2150822 0.58497369
-8.3632221 1.2155684 0.57772034
-8.3721094 1.1991068 0.58061147
-8.1758451 1.1648394 0.6313287
-8.1808052 1.1486872 0.63781261
-8.1867189 1.1421599 0.63649225
-8.1903734 1.121001 0.64458585
-8.1844702 1.1104265 0.64670366
-8.1836634 1.0999255 0.63099247
-8.177434 1.09164 0.63154042
-8.1771898 1.0769694 0.63355982
-8.1872416 1.0754129 0.64775497
-8.1845312 1.0666353 0.63718045
-8.1989136 1.0454 0.63080508
-8.19771 1.0408016 0.63970834
-8.1900063 1.0318707 0.63351715
-8.2036066 1.0208509 0.63760209
-8.1890974 0.99728417 0.64254981
-8.1924543 0.99605793 0.64843601
-8.1915064 0.98257822 0.63747823
-8.2099953 0.97084475 0.64329356
-8.2064476 0.95054489 0.63899803
-8.2086897 0.93442529 0.63737279
-8.2014894 0.92537713 0.64596218
-8.2006493 0.91897076 0.64140505
-8.2108898 0.90169019 0.63937098
-8.207305 0.89221495 0.63777298
-8.2196198 0.87863874 0.64406598
-8.2069702 0.88307941 0.64059252
-8.2084188 0.86982578 0.63510096
-8.220809 0.85942584 0.62933952
-8.2073679 0.83389896 0.63474363
-8.2182064 0.82744044 0.63549536
-8.2106543 0.8094756 0.63866806
-8.2144966 0.81362921 0.6469053
-8.0315008 0.77056164 0.68448144
-8.0218763 0.77083462 0.68890989
-8.0338354 0.76002318 0.69123822
-8.039485 0.74307501 0.68948513
-8.0285921 0.72587633 0.68595791
-8.0231762 0.71746939 0.70351189
-8.0435047 0.70366955 0.68702191
-8.038414 0.70018125 0.69555783
-8.0325565 0.68537927 0.69761491
-8.0435095 0.66785312 0.69531322
-8.0462103 0.66304559 0.69967604
-8.0464659 0.64892274 0.6955353
-8.0422773 0.64388651 0.69180804
-8.0357447 0.63422984 0.70235908
-8.0509501 0.61647946 0.68693924
-8.0496664 0.60514373 0.69434166
-8.0508127 0.5944612 0.69917488
-8.0484343 0.58983612 0.69175178
-8.0375032 0.57202017 0.70076001
-8.0445004 0.5641861 0.70347673
-8.0537825 0.55457115 0.69262189
-8.0386868 0.54560465 0.69888133
-8.0477161 0.52171504 0.69134301
-8.0404568 0.52523071 0.68538779
-8.0426302 0.51439852 0.69292307
-8.0402088 0.48569137 0.70036465
-8.0503683 0.47666323 0.68836707
-8.0556793 0.47082412 0.70298868
-8.048398 0.45671001 0.69103992
-8.0520926 0.45637795 0.70250374
-8.0530539 0.44752634 0.69560027
-8.0448551 0.43451795 0.69097912
-8.0503817 0.41321209 0.69371808
-8.0634298 0.39988154 0.6912235
-8.062418 0.38507736 0.68914855
-8.0538549 0.37337968 0.68961924
-8.0578346 0.37219104 0.69231546
-7.8617301 0.35800838 0.75557405
-7.8630428 0.34034926 0.74082714
-7.8562894 0.33961755 0.75700468
-7.8580561 0.31852996 0.75558782
-7.8667111 0.30623171 0.75242066
-7.8599725 0.28898224 0.73920661
-7.8704791 0.27924332 0.74392164
-7.8634648 0.27105972 0.74509305
-7.85851 0.2719667 0.74582797
-7.8730698 0.24940592 0.7566362
-7.8649173 0.25137976 0.75286067
-7.868638 0.2325099 0.74242115
-7.8670907 0.22084761 0.74224573
-7.86935 0.20785668 0.75197917
-7.8730106 0.20663373 0.74041134
-7.8798232 0.19255757 0.74259174
-8.0720387 0.17241098 0.69088453
-8.0673256 0.17534345 0.69713926
-8.0614252 0.16359223 0.69530016
-8.0547733 0.137628 0.70190006
-8.0572977 0.14014699 0.70147401
-8.0635824 0.11926096 0.69317871
-8.0602903 0.12022307 0.68422222
-8.2493935 0.10137595 0.63812941
-8.2565145 0.09670414 0.63696241
-8.255188 0.085474029 0.63272154
-8.2516651 0.074471563 0.63529283
-8.2646856 0.048411839 0.63206786
-8.2514362 0.04846625 0.64836323
-8.2600088 0.03536975 0.62996626
-8.4542131 0.020216828 0.59021354
-8.4565802 0.018391076 0.57599407
-8.4472265 7.6506176e-06 0.5740093
-8.4468126 -0.015108849 0.58228505
-8.4573278 -0.01722496 0.57743037
-8.4489937 -0.03790845 0.59288716
-8.6371269 -0.056303188 0.53373629
-8.6504269 -0.066589385 0.53521436
-8.6469364 -0.083568156 0.52828872
-8.6471329 -0.089078531 0.51980847
-8.645709 -0.09652058 0.52743113
-8.6488743 -0.10632038 0.52503848
-8.8384676 -0.12970786 0.48092598
-8.8377991 -0.13003851 0.46865425
-8.8288383 -0.14092453 0.46607676
-8.8247147 -0.16353288 0.47462612
-8.8251162 -0.18210447 0.47791523
-8.8295059 -0.19406798 0.48299667
-9.0245924 -0.20719326 0.42803085
-9.0143881 -0.21636343 0.41477972
-9.0126457 -0.224252 0.42616457
-9.0232639 -0.23546477 0.41982743
-9.0162573 -0.24422123 0.42511511
-9.2103548 -0.27839261 0.36727095
-9.2045412 -0.27819842 0.36603308
-9.2212877 -0.29411152 0.35453194
-9.2094669 -0.31067505 0.35680401
-9.2143383 -0.33189306 0.35945699
-9.2141113 -0.33628741 0.36587361
-9.4057856 -0.35827979 0.30058515
-9.3985815 -0.37162656 0.3151665
-9.3999739 -0.37593278 0.31114617
-9.4076853 -0.39359114 0.31097993
-9.4100904 -0.41356727 0.31513888
-9.5872192 -0.43696976 0.25722292
-9.5935106 -0.44897038 0.25141796
-9.5912838 -0.44958851 0.26192611
-9.5867672 -0.47553498 0.24409224
-9.7715702 -0.49163765 0.19959252
-9.7779322 -0.51816493 0.18861796
-9.774416 -0.51800913 0.19743882
-9.7763004 -0.53978539 0.1950949
-9.7821856 -0.54983079 0.18823327
-9.9601355 -0.57410699 0.13938853
-9.9619741 -0.59308058 0.14426412
-9.9665623 -0.59897065 0.15054542
-9.9769363 -0.62327844 0.14961408
-2.1727359 4.9373827 1.499913
-2.173393 4.9504628 1.5066714
-2.1794596 4.9376578 1.5054563
-2.1741321 4.9306011 1.5000273
-2.1937928 4.9431739 1.5128489
-2.2038624 4.9253764 1.4969376
-2.2007177 4.9353547 1.496353
-2.2024271 4.9178205 1.5123374
-2.2276998 4.9263539 1.5066503
-2.2245781 4.914763 1.5013809
-2.2413573 4.9119105 1.501779
-2.1632552 4.7401743 1.5520365
-2.1584518 4.7444692 1.558797
-2.1748595 4.7409649 1.5615587
-2.1766918 4.724669 1.5599611
-2.1856983 4.7251678 1.563643
-2.1906118 4.7156725 1.5603901
-2.1961057 4.7113233 1.5626994
-2.2056108 4.7085533 1.5566484
-2.2207985 4.7157526 1.5621217
-2.2212515 4.7130156 1.5678679
-2.221302 4.7149134 1.5601208
-2.2248311 4.7082043 1.5597006
-2.2415955 4.6916738 1.5588173
-2.1521223 4.5262699 1.6184287
-2.1674714 4.5121756 1.6078583
-2.1791341 4.5197411 1.6108611
-2.1740458 4.5083818 1.6125927
-2.1866436 4.5140824 1.6146417
-2.1852882 4.5111551 1.606986
-2.1984553 4.5143313 1.619699
-2.2058718 4.5040083 1.6174245
-2.2010312 4.4967036 1.6115649
-2.2166064 4.4991779 1.6123074
-2.2330606 4.4941926 1.6044104
-2.2236395 4.5001502 1.6054536
-2.2447844 4.4807329 1.6171056
-2.2429221 4.4926872 1.6204505
-2.1524749 4.306366 1.6662971
-2.1665831 4.2997532 1.6585459
-2.1683428 4.3062444 1.6570491
-2.1773853 4.2915859 1.6683166
-2.1886978 4.2880301 1.6753756
-2.1858659 4.2951574 1.6680136
-2.2022872 4.2920842 1.6587797
-2.2066011 4.2846813 1.6586258
-2.2098675 4.2823787 1.6621853
-2.2214775 4.2881789 1.6608388
-2.2297385 4.2838135 1.6682765
-2.2258887 4.2713318 1.6721373
-2.2297859 4.2630782 1.6655333
-2.2351756 4.2717652 1.6673232
-2.2492933 4.2751188 1.6686183
-2.1659167 4.097178 1.7138501
-2.1600912 4.0990143 1.7253457
-2.1634953 4.0825028 1.7125243
-2.1870492 4.0886874 1.7204943
-2.1870391 4.0892196 1.7173671
-2.1883712 4.0674448 1.7129855
-2.2022614 4.0754685 1.7192414
-2.1922867 4.0655403 1.720371
-2.2089114 4.0761628 1.7133236
-2.203742 4.0586038 1.7127737
-2.217273 4.0599222 1.7275363
-2.2193084 4.0527563 1.7271694
-2.2298439 4.0478716 1.7133331
-2.2331965 4.045115 1.7287315
-2.2485747 4.0480452 1.7277204
-2.2470756 4.0553164 1.7280003
-2.1557457 3.8663278 1.7731186
-2.1721292 3.8811481 1.77765
-2.1673787 3.8650041 1.7758938
-2.1696713 3.8596857 1.7796763
-2.1725097 3.866488 1.7678828
-2.1805811 3.8569021 1.7720368
-2.1890152 3.8624239 1.7744278
-2.1912811 3.8502319 1.777191
-2.1981444 3.8482962 1.766022
-2.2060146 3.8534892 1.7652689
-2.2136004 3.8414297 1.7667184
-2.2098041 3.8383737 1.7660174
-2.221472 3.8454506 1.772209
-2.2348919 3.8356128 1.7761264
-2.224525 3.8283107 1.7698976
-2.2459469 3.8383069 1.777142
-2.2432106 3.8252344 1.7729751
-2.2380791 3.8152571 1.7796903
-2.2501795 3.8237731 1.7675512
-2.1548131 3.6442916 1.8374349
-2.158596 3.6481903 1.8246152
-2.1609251 3.6412294 1.8318436
-2.1839514 3.6479406 1.8292603
-2.1807814 3.6465673 1.8199586
-2.1936901 3.6408925 1.826481
-2.1928232 3.6391222 1.8261337
-2.2047074 3.6254108 1.8358552
-2.2007542 3.622149 1.8187482
-2.2100816 3.6321003 1.8333136
-2.2115438 3.6240954 1.8370411
-2.2168584 3.6173813 1.8277005
-2.2149885 3.6134079 1.8344395
-2.2258856 3.6114736 1.8309369
-2.2393615 3.5977702 1.8291157
-2.242135 3.5962152 1.824681
-2.2383819 3.60058 1.8215449
-2.2549713 3.5981085 1.8277729
-2.2418351 3.6046343 1.8338219
-2.2458012 3.5868726 1.8329118
-2.151984 3.4300222 1.8808342
-2.1574214 3.4156942 1.8914059
-2.1721954 3.4282637 1.881115
-2.1802261 3.4149585 1.8720077
-2.1717548 3.4131956 1.8723221
-2.1851008 3.4136734 1.8742133
-2.1828771 3.402914 1.8836083
-2.1837854 3.4005704 1.8736778
-2.1984613 3.396364 1.8734262
-2.2070839 3.3931878 1.8785727
-2.1966121 3.3856072 1.8726975
-2.2119544 3.3973496 1.8755239
-2.2167203 3.3990746 1.8739561
-2.2117729 3.377521 1.882126
-2.2159283 3.3891864 1.8715826
-2.2197652 3.3722496 1.8845731
-2.2417064 3.3822758 1.8898673
-2.2342482 3.3761292 1.8758872
-2.2367163 3.3800373 1.8807768
-2.2394314 3.3600495 1.8855729
-2.2569957 3.3552554 1.8858776
-2.2604308 3.3598373 1.8810207
-2.261035 3.3643668 1.8809911
-2.1548193 3.1992891 1.9362575
-2.1685903 3.1941762 1.9325646
-2.1729004 3.1899273 1.9350572
-2.1642158 3.1884339 1.9307047
-2.170233 3.1790907 1.943341
-2.1702259 3.1719675 1.9430274
-2.1853247 3.1868124 1.9258742
-2.1956234 3.1687722 1.9270822
-2.1856129 3.1719713 1.9360336
-2.2004552 3.1592367 1.9326825
-2.1953228 3.1689999 1.9266924
-2.2086599 3.1694312 1.9386189
-2.2056856 3.1499872 1.9293324
-2.2202146 3.1636586 1.9415945
-2.2190914 3.1557393 1.9275616
-2.2253277 3.1522491 1.92946
-2.2318735 3.138078 1.9292639
-2.2355678 3.1380217 1.9340945
-2.23805 3.1323853 1.9251971
-2.2315762 3.1363115 1.9266441
-2.2484491 3.129771 1.9409397
-2.251308 3.1342897 1.9387581
-2.2622356 3.1261747 1.94023
-2.2624454 3.1279187 1.938477
-2.2703888 3.1151693 1.9319143
-2.2723608 3.1205626 1.9449775
-2.2724297 3.123785 1.9269917
-2.2726903 3.1076834 1.9320778
-2.2881157 3.1134658 1.9346616
-2.2924342 3.1100836 1.9443121
-2.2953012 3.0941858 1.9305687
-2.2838683 3.099782 1.9444965
-2.2946124 3.098799 1.9334681
-2.30388 3.1019502 1.9273485
-2.3148961 3.0814977 1.9316502
-2.3124704 3.0834086 1.944522
-2.316977 3.0895813 1.9437993
-2.3194649 3.0798199 1.9301637
-2.3168621 3.0789547 1.9255059
-2.331671 3.0780885 1.9406667
-2.3368249 3.0786686 1.9431368
-2.3357177 3.07499 1.9344164
-2.340678 3.0648713 1.927932
-2.3366621 3.0497847 1.9278241
-2.3587611 3.047977 1.9304948
-2.356554 3.0528853 1.9383135
-2.3614702 3.0575733 1.9355481
-2.367105 3.0440547 1.9262705
-2.3663702 3.0374157 1.9393829
-2.3702891 3.0402405 1.9348903
-2.3790421 3.0421791 1.9342448
-2.3853207 3.0294883 1.9331937
-2.3803148 3.0360961 1.925303
-2.3817887 3.0309739 1.9256107
-2.3833659 3.028002 1.9274014
-2.4022677 3.0114825 1.9373975
-2.3933461 3.0142868 1.9353843
-2.4071851 3.0156922 1.9431612
-2.5312088 3.1520381 1.8738735
-2.5414128 3.1585484 1.8844713
-2.5361047 3.1605268 1.8803343
-2.5514369 3.1404438 1.8868388
-2.5478156 3.149579 1.8832892
-2.5520797 3.141448 1.8779616
-2.5560312 3.1359429 1.8730122
-2.5581868 3.1357341 1.874899
-2.5703416 3.1286407 1.882952
-2.5645044 3.131897 1.875778
-2.5708852 3.1162255 1.8783487
-2.5728085 3.1147387 1.8909779
-2.5841289 3.1229441 1.8891399
-2.5795813 3.1201959 1.8907796
-2.5885239 3.105443 1.8851212
-2.6010113 3.1107953 1.8749045
-2.5988209 3.0965598 1.8827615
-2.6015749 3.1045275 1.8739947
-2.6024373 3.0846946 1.8817254
-2.6152413 3.0950477 1.8763098
-2.6152143 3.083364 1.8788258
-2.6126115 3.0740957 1.8834643
-2.6173744 3.0778413 1.8799235
-2.62397 3.0704632 1.8772559
-2.628921 3.0784659 1.883463
-2.6395249 3.0783005 1.8786556
-2.6403408 3.0646386 1.8832523
-2.6532941 3.0525315 1.8794622
-2.6550093 3.0638657 1.879491
-2.6489885 3.0466938 1.8735304
-2.6683781 3.0538423 1.8795496
-2.6652467 3.0478821 1.8799703
-2.6574714 3.0414417 1.887812
-2.6732316 3.0326836 1.8719573
-2.6716542 3.0432475 1.8877929
-2.6838646 3.0274749 1.8871565
-2.6808772 3.0351493 1.8765578
-2.6932878 3.0341272 1.8775573
-2.6894832 3.0156424 1.8736024
-2.7056444 3.0074255 1.876193
-2.707761 3.0040605 1.8896556
-2.8331473 3.1508749 1.8271464
-2.8290126 3.146704 1.8356725
-2.8370309 3.1509988 1.8191816
-2.8408983 3.1410916 1.8370014
-2.8489244 3.1431894 1.8228016
-2.8575814 3.1324849 1.8200347
-2.8568313 3.133575 1.8200107
-2.8550763 3.1226695 1.8252721
-2.8772707 3.1197968 1.826093
-2.8768687 3.1189969 1.8273309
-2.8829985 3.1062884 1.8363602
-2.8778915 3.1020927 1.8251933
-2.8842528 3.0942512 1.8223017
-2.8870993 3.106909 1.8334899
-2.8921201 3.095902 1.8307687
-2.8913355 3.1005936 1.8213421
-2.9133117 3.0903852 1.8370106
-2.9153066 3.0862763 1.8257846
-2.9120343 3.084312 1.8357033
-2.9079354 3.0670829 1.8288451
-2.9225926 3.0680518 1.8333081
-2.9282153 3.0584497 1.8376107
-2.9249988 3.066803 1.8181131
-2.9246683 3.0566204 1.8353208
-2.9331439 3.045722 1.825575
-2.9443347 3.0599077 1.8245802
-2.9449465 3.056411 1.8374426
-2.9498842 3.0352077 1.8302675
-2.9460421 3.0415592 1.8252058
-2.9522755 3.0362864 1.8269986
-2.9653611 3.020627 1.8338497
-2.973978 3.0236108 1.8351941
-2.9782865 3.0140705 1.8289931
-2.9820869 3.0091147 1.8367169
-2.9886737 3.0199318 1.8376554
-3.1211164 3.140125 1.7831587
-3.1186223 3.147428 1.7830306
-3.1232598 3.1340241 1.7658305
-3.135066 3.1286874 1.7791187
-3.131928 3.1213365 1.771277
-3.1469913 3.1251132 1.7719247
-3.1551971 3.1244805 1.7797109
-3.1420524 3.1237411 1.7821174
-3.1551025 3.1033974 1.7837344
-3.1604226 3.100657 1.7803407
-3.164798 3.1057742 1.7649934
-3.1699235 3.0977542 1.7813234
-3.1751711 3.0894594 1.7686298
-3.1776125 3.0937147 1.7749858
-3.1867595 3.0854585 1.7783831
-3.1837418 3.0864835 1.7699559
-3.1800704 3.0836406 1.7653005
-3.1886065 3.0782745 1.7643164
-3.1947298 3.064184 1.7674054
-3.1992297 3.0690932 1.7721766
-3.2071173 3.0539403 1.7664938
-3.2103457 3.0579693 1.7772259
-3.2172379 3.0410519 1.7641039
-3.2168176 3.0459881 1.7796841
-3.2300351 3.046066 1.7714609
-3.2198486 3.0334442 1.7687215
-3.2380831 3.02877 1.7676039
-3.2409668 3.01983 1.765591
-3.2448282 3.0290303 1.7739645
-3.2455943 3.0179882 1.7717298
-3.2415829 3.0033097 1.778831
-3.4051347 3.1399558 1.7207154
-3.3962431 3.1234424 1.7239233
-3.4004667 3.1315818 1.716574
-3.4091034 3.1307297 1.7138149
-3.4059567 3.1242838 1.7229521
-3.4255428 3.1038167 1.7119393
-3.42624 3.1046729 1.7165165
-3.4289432 3.1058688 1.7148299
-3.4232662 3.0904927 1.7266431
-3.439817 3.1033165 1.7283256
-3.42926 3.0986569 1.7208999
-3.4430716 3.0872462 1.7217184
-3.4536686 3.0759623 1.71544
-3.4516082 3.0803857 1.7130795
-3.4522998 3.0722928 1.7290486
-3.4638479 3.0689447 1.7293326
-3.4664016 3.0692232 1.7152609
-3.4643717 3.051116 1.7271788
-3.4640212 3.0429962 1.7285208
-3.4718511 3.0426295 1.7274925
-3.4779916 3.0371168 1.7266166
-3.4915509 3.042083 1.719148
-3.4842849 3.040736 1.7252197
-3.5032904 3.0257263 1.7205448
-3.5046499 3.0142951 1.712613
-3.5100331 3.0155797 1.726175
-3.5151258 3.0185668 1.7248634
-3.6609805 3.1327016 1.656558
-3.6683872 3.1263578 1.658733
-3.6744449 3.11642 1.6654071
-3.6615238 3.1245713 1.67144
-3.6694713 3.1033859 1.6673167
-3.68488 3.1136823 1.6667298
-3.6742101 3.1091821 1.6760229
-3.6882079 3.0875247 1.6587799
-3.69013 3.0846791 1.6677223
-3.6984832 3.0809298 1.6645591
-3.7081409 3.0822046 1.6755762
-3.7123561 3.0804217 1.6653727
-3.7143891 3.0769229 1.6703614
-3.7097406 3.0706799 1.668637
-3.7190523 3.060817 1.6708691
-3.7124798 3.0598657 1.6685452
-3.7264869 3.0538976 1.6668751
-3.7311938 3.0382376 1.6687075
-3.7331362 3.0449543 1.6728603
-3.746129 3.0276093 1.6584355
-3.7422776 3.0248911 1.6704636
-3.747402 3.0222349 1.6658925
-3.7427223 3.0218155 1.6630125
-3.7530468 3.0103073 1.6590855
-3.9158864 3.1336253 1.616757
-3.9058557 3.1276708 1.6124252
-3.9181411 3.1119499 1.607339
-3.9320891 3.1157556 1.6118125
-3.924197 3.1018448 1.6082281
-3.9321444 3.0991602 1.6125301
-3.934509 3.0845385 1.6193513
-3.9448378 3.0889966 1.6087594
-3.9397299 3.0823312 1.6029973
-3.9574943 3.0695312 1.6109817
-3.959178 3.068872 1.6076626
-3.9494419 3.0625856 1.6038662
-3.96403 3.0683482 1.6098323
-3.9636965 3.0644898 1.6050935
-3.9788818 3.0528429 1.6119393
-3.977644 3.0375597 1.6216019
-3.9720962 3.0442164 1.6221503
-3.9797194 3.0248401 1.6126703
-3.9779267 3.0348604 1.6220447
-4.0018883 3.0313971 1.6041443
-3.9978578 3.0105231 1.6111162
-3.9971385 3.0036504 1.6173393
-4.9266624 3.6976149 1.292426
-4.9447222 3.683701 1.2916461
-4.9475107 3.6788425 1.2847745
-4.9434438 3.6794553 1.2881812
-4.9497046 3.6698408 1.2838115
-4.9554076 3.656821 1.2856387
-4.9705811 3.6498034 1.283065
-4.9763699 3.6430261 1.2826128
-4.9800501 3.6444736 1.2868773
-4.976748 3.630827 1.2898657
-4.9872136 3.6182895 1.2812536
-4.9801402 3.6128275 1.2856299
-4.9938369 3.6097021 1.2920573
-4.9943953 3.6157594 1.2860142
-5.0115376 3.6006615 1.2972808
-5.0130396 3.5849571 1.2824584
-5.0127044 3.5791662 1.2875566
-5.0149336 3.5726633 1.2928228
-5.0176048 3.5675478 1.286489
-5.0360022 3.5707917 1.2934679
-5.0314007 3.5486183 1.294876
-5.0354018 3.5585561 1.2977955
-5.035017 3.5398259 1.2845705
-5.0481949 3.5455558 1.2843901
-5.0474057 3.5191526 1.2961065
-5.0553403 3.5162468 1.2991202
-5.0580873 3.5186651 1.2833517
-5.075726 3.503834 1.2880958
-5.068089 3.4913015 1.294747
-5.0667758 3.4853323 1.2916716
-5.0784736 3.4889143 1.2934591
-5.0887537 3.4734356 1.2922279
-5.0961041 3.4632726 1.2993166
-5.0966697 3.4648526 1.2991925
-5.0974054 3.4521327 1.2997291
-5.1064153 3.4563794 1.2844306
-5.1124015 3.4427702 1.2986282
-5.1141458 3.4364035 1.2850794
-5.111136 3.4225454 1.2860893
-5.1214652 3.4148624 1.288228
-5.13486 3.4203329 1.2810538
-5.1264567 3.4003654 1.2855126
-5.1392751 3.3978794 1.2869269
-5.1449947 3.3996496 1.2970463
-5.1508284 3.3854959 1.2815778
-5.1561151 3.3871346 1.2974946
-8.6272316 2.0289125 0.53762692
-8.6268377 2.0179005 0.54691917
-8.6254339 2.0021608 0.52993721
-8.6200409 1.9924061 0.53794372
-8.6361227 1.9682317 0.53074253
-8.6407413 1.9584742 0.53162128
-8.6270342 1.9518926 0.5397526
-8.6414585 1.9288224 0.52922523
-8.4519949 1.8895128 0.58829802
-8.4617157 1.8642418 0.58452404
-8.4655371 1.8553522 0.60117692
-8.4584274 1.8496532 0.59886926
-8.4620094 1.8281389 0.59287745
-8.4625568 1.8347819 0.5891903
-8.4750805 1.80809 0.59339195
-8.4747896 1.79951 0.59990311
-8.4736023 1.7873501 0.59190357
-8.4842682 1.7834631 0.59290844
-8.485445 1.7636303 0.58832854
-8.4812727 1.7566808 0.59029722
-8.4808569 1.7484989 0.59519929
-8.4837723 1.7299986 0.58622915
-8.4889793 1.710472 0.58757502
-8.5001612 1.7129374 0.58739763
-8.4950132 1.6854011 0.59236574
-8.5056477 1.6806622 0.60059482
-8.4897537 1.6795992 0.58850831
-8.5018435 1.6503435 0.58438271
-8.5129118 1.6423678 0.59227568
-8.508543 1.6410046 0.58507383
-8.5021887 1.6224799 0.60154819
-8.5109158 1.6034466 0.5913837
-8.5085964 1.601597 0.5935576
-8.5049152 1.5909393 0.59006494
-8.3319178 1.5329938 0.64464796
-8.3233633 1.5218121 0.6526264
-8.3265638 1.5088481 0.65141988
-8.341835 1.5061024 0.652839
-8.3412151 1.4945798 0.6381669
-8.3326864 1.4897006 0.65401936
-8.3313427 1.4734333 0.64323795
-8.3335085 1.4506799 0.64531714
-8.3458223 1.4524705 0.63744384
-8.3359461 1.440151 0.6508131
-8.3495464 1.4335439 0.65293276
-8.342288 1.4176173 0.63551253
-8.3470345 1.4006004 0.63677299
-8.352972 1.3904068 0.64693546
-8.3574734 1.3829108 0.63722587
-8.3566303 1.3660054 0.6542905
-8.3599186 1.3524889 0.64674419
-8.3539724 1.3388354 0.64810371
-8.3659306 1.3348807 0.64291596
-8.3657455 1.3227986 0.6370734
-8.3721752 1.2990966 0.63629138
-8.3764687 1.3046172 0.6512531
-8.3781662 1.2873387 0.64087111
-8.3785868 1.266055 0.65197128
-8.3688278 1.262185 0.64725393
-8.368763 1.2410567 0.63731235
-8.3716173 1.2385225 0.64553791
-8.3820009 1.2238011 0.65179652
-8.1803179 1.1916113 0.69952989
-8.194459 1.1690669 0.69313228
-8.1944265 1.1619105 0.69472677
-8.1951609 1.1522619 0.69353849
-8.2009172 1.1427007 0.70677108
-8.1970396 1.1344876 0.69042152
-8.2020464 1.117785 0.70190614
-8.1917534 1.1028832 0.703969
-8.2113867 1.0868472 0.69520664
-8.2027779 1.0821303 0.70343429
-8.2078953 1.0700924 0.69854629
-8.1990032 1.0655456 0.7025637
-8.2164927 1.0426474 0.69087678
-8.2123718 1.0406157 0.70099556
-8.2094231 1.0344123 0.69300973
-8.2132254 1.0136553 0.7082696
-8.2133617 1.0094448 0.69828773
-8.2219973 0.99706358 0.7048673
-8.2085533 0.98657 0.70687598
-8.2238569 0.96618968 0.69563526
-8.2109156 0.96218127 0.70382607
-8.222847 0.94853765 0.69894159
-8.2307453 0.93886137 0.70263237
-8.2303133 0.91474682 0.69576705
-8.2197475 0.91500586 0.69417596
-8.2171507 0.89287108 0.70330745
-8.2192783 0.89199287 0.69971001
-8.2313719 0.88385588 0.69521487
-8.2368698 0.87052304 0.69171149
-8.2403431 0.86323202 0.69931513
-8.2350407 0.85021043 0.69439942
-8.0498343 0.80748671 0.7610715
-8.0411673 0.79751325 0.75581974
-8.0487938 0.7892518 0.75794804
-8.0432701 0.77282125 0.75183183
-8.0393209 0.76023573 0.75507891
-8.0462255 0.74675518 0.74894768
-8.0567112 0.74239773 0.74618107
-8.0516768 0.73374289 0.76158494
-8.0501299 0.72279954 0.76120269
-8.0409632 0.71832693 0.75930548
-8.0566969 0.70851582 0.74527645
-8.0594835 0.68848175 0.75251615
-8.0475054 0.68191552 0.76273805
-8.0533838 0.66195184 0.74777466
-8.0653629 0.64699966 0.75147247
-8.0540781 0.64619052 0.75293785
-8.0489101 0.63592696 0.76129544
-8.0664921 0.61171389 0.7522493
-8.068655 0.610048 0.74351227
-8.0511847 0.5985328 0.76155645
-8.0555954 0.59225273 0.76104474
-8.054019 0.58413947 0.75175554
-8.0651875 0.56894124 0.74715799
-8.0661182 0.54878646 0.753856
-8.0619974 0.53755885 0.75686234
-8.0741625 0.53850555 0.75032115
-8.064846 0.52549529 0.74477947
-8.0671568 0.51576155 0.74628884
-8.0584984 0.50470817 0.75739759
-8.0585604 0.49195299 0.74825776
-8.0605631 0.47559875 0.74410552
-8.0630608 0.46161652 0.74310881
-8.0748329 0.45724598 0.75818378
-8.0711861 0.43270904 0.74437493
-8.0608263 0.43304238 0.75061053
-8.0674438 0.42194375 0.74906588
-8.0805874 0.40087864 0.74578512
-7.8868294 0.38904509 0.797786
-7.8839607 0.37598476 0.81626922
-7.8899679 0.36353236 0.8132742
-7.8850999 0.34973216 0.8052029
-7.8843684 0.33407247 0.81442821
-7.8846183 0.32726407 0.81056261
