# .PCD v0.7 - Point Cloud Data file format
VERSION 0.7
FIELDS x y z
SIZE 4 4 4
TYPE F F F
COUNT 1 1 1
WIDTH 1585
HEIGHT 1
VIEWPOINT 0 0 0 1 0 0 0
POINTS 1585
DATA ascii
5.8459687 -4.6290989 1.5022726
5.85537 -4.6283135 1.5054377
5.8513694 -4.6094151 1.5137248
5.8669477 -4.6012049 1.5030681
5.8579021 -4.5940347 1.5041289
5.8800945 -4.588542 1.5107074
5.889483 -4.5693097 1.5014256
5.8943744 -4.5696273 1.5048211
5.897543 -4.5709515 1.5045383
5.8914285 -4.5540848 1.5079099
5.9084339 -4.5512257 1.5155182
5.9192123 -4.5454245 1.5157655
5.9131446 -4.5300722 1.5067559
5.9153523 -4.525578 1.5177922
5.9268918 -4.5165544 1.5078251
5.9394803 -4.5117521 1.5151684
5.9386358 -4.5039639 1.5135527
5.9484982 -4.4776754 1.503419
5.9617443 -4.4745979 1.5037521
5.9546962 -4.4640026 1.5127339
5.8142047 -4.3450718 1.5558782
5.8179488 -4.3396134 1.5570571
5.8219295 -4.3265562 1.5453439
5.8368888 -4.3176141 1.5498712
5.8428731 -4.3034434 1.5551596
5.8388791 -4.3029833 1.5569788
5.842217 -4.2896552 1.5383062
5.8639274 -4.2927408 1.5376337
5.8554931 -4.2888455 1.551741
5.8673806 -4.2782512 1.5481373
5.868238 -4.2575865 1.5374628
5.8726983 -4.2592435 1.5441422
5.8783264 -4.2429743 1.5557653
5.8922291 -4.2377887 1.5482088
5.8906484 -4.2326508 1.5466932
5.8943439 -4.2175274 1.5374992
5.8998475 -4.2050753 1.5534862
5.9066672 -4.1969099 1.5382321
5.9128022 -4.2031655 1.5387098
5.9330335 -4.1835084 1.5416098
5.9296498 -4.1889572 1.5569938
5.9355798 -4.1758981 1.5425324
5.9481773 -4.1631522 1.556143
5.9523869 -4.1624322 1.5467337
5.949028 -4.1492109 1.5542487
5.9641423 -4.1382008 1.5486654
5.9700503 -4.1275811 1.547304
5.8108072 -4.004333 1.5853997
5.8172693 -4.0127392 1.5894632
5.8241982 -3.9867752 1.5849288
5.8340154 -3.9900441 1.5866822
5.8392053 -3.9732206 1.5932238
5.8299227 -3.9696255 1.5842321
5.8342395 -3.9676354 1.5876731
5.8491354 -3.954807 1.5960394
5.8515348 -3.952656 1.5871127
5.8683395 -3.9303763 1.5804933
5.8637714 -3.9319811 1.5771093
5.8777575 -3.9127243 1.5772163
5.8757954 -3.9121282 1.5951767
5.8892875 -3.9072931 1.5817498
5.884522 -3.9028347 1.57702
5.8862858 -3.8932145 1.5877515
5.8990469 -3.8848219 1.5923312
5.8952379 -3.8670661 1.5815897
5.9197831 -3.8724325 1.5848421
5.9153905 -3.8465042 1.5822091
5.9243665 -3.8506424 1.5897989
5.9299474 -3.846282 1.5884651
5.9356236 -3.8293595 1.5795394
5.939249 -3.8244092 1.5872531
5.9494357 -3.8096781 1.5912219
5.9548807 -3.798624 1.5966001
5.951046 -3.8002391 1.5821524
5.9517794 -3.7910821 1.5772341
5.9617596 -3.7827871 1.578716
5.9749804 -3.7642803 1.5778852
5.9655571 -3.7621818 1.5846672
5.8179026 -3.6552582 1.6270837
5.8145657 -3.652868 1.6186286
5.8222919 -3.6322024 1.6268524
5.8377204 -3.6266885 1.6215289
5.8371067 -3.6210558 1.6189731
5.8418593 -3.6045735 1.6265087
5.8521533 -3.6126614 1.6349001
5.8575172 -3.5960612 1.6232783
5.8443522 -3.5915203 1.6218473
5.8503447 -3.581672 1.6341916
5.8631077 -3.5789261 1.6205125
5.8787456 -3.5646167 1.6211172
5.8659167 -3.5476696 1.6342742
5.8813004 -3.5403709 1.6248246
5.8913493 -3.5387521 1.6328799
5.8788309 -3.5374346 1.6292828
5.8938365 -3.5308666 1.6294562
5.897222 -3.5039661 1.618081
5.9089742 -3.4952512 1.6230907
5.8992839 -3.505553 1.6297861
5.921927 -3.4880893 1.6310575
5.9108787 -3.479974 1.6184614
5.920424 -3.4696622 1.6346285
5.9231148 -3.46893 1.6299037
5.9363441 -3.4631011 1.6186001
5.9376178 -3.4547312 1.6204095
5.9352822 -3.4362848 1.6205752
5.9531088 -3.4393704 1.6194233
5.9595485 -3.4156098 1.6187608
5.9509859 -3.4064345 1.6195647
5.9691076 -3.3994994 1.6295934
5.9684892 -3.3884842 1.6194917
5.9752626 -3.3927839 1.6314492
5.9781919 -3.3792417 1.6358795
5.9763846 -3.3773072 1.6178727
5.8125405 -3.2625327 1.6594932
5.8210816 -3.2515385 1.6717502
5.8297768 -3.2475207 1.6726353
5.8373084 -3.2418544 1.668988
5.8241668 -3.2295299 1.6662164
5.8318176 -3.2238517 1.6620735
5.8494854 -3.2235487 1.6606327
5.8370404 -3.2012172 1.6665726
5.8565416 -3.2006893 1.6577283
5.8604617 -3.1866906 1.6624857
5.8663635 -3.1905243 1.6572858
5.8543439 -3.1703813 1.6749727
5.8745704 -3.1660955 1.6685632
5.87567 -3.1588194 1.6596999
5.8731112 -3.149215 1.6750344
5.8877692 -3.1364787 1.667914
5.878273 -3.1305816 1.6729572
5.8873243 -3.1216259 1.6721865
5.9023042 -3.1176534 1.6637915
5.9084282 -3.1142344 1.6612371
5.8992982 -3.1093755 1.6666846
5.9049573 -3.1009862 1.6641047
5.9082909 -3.0968101 1.6576334
5.9252043 -3.0759618 1.6702554
5.9132423 -3.0620887 1.6642926
5.9166036 -3.0579624 1.6628705
5.9328332 -3.0477259 1.6591439
5.934094 -3.0528197 1.6561656
5.9345727 -3.0473044 1.6689458
5.9466448 -3.0200241 1.6569252
5.956151 -3.0262215 1.6615376
5.9510932 -3.0110962 1.6663071
5.9634438 -2.9969616 1.6670145
5.9693117 -2.990227 1.6603261
6.1428933 -3.0679381 1.6197305
6.13552 -3.0581512 1.6345352
6.1467128 -3.0564137 1.6313143
6.1541667 -3.057682 1.6347312
6.1586308 -3.0427272 1.6353894
6.1558628 -3.0399442 1.6350479
6.1610622 -3.0318873 1.620223
6.1708622 -3.013109 1.6322317
6.1654191 -3.0061893 1.6300771
6.1806722 -2.9975996 1.6263535
6.1892242 -2.9947176 1.6247915
6.3531365 -3.068989 1.5849261
6.3755231 -3.0506246 1.5777626
6.3746767 -3.0490792 1.5807589
6.3772349 -3.0473313 1.5901321
6.3804388 -3.0326009 1.5937045
6.3832884 -3.0169086 1.5967439
6.3913012 -3.0156419 1.5899661
6.3913102 -3.0040314 1.5815061
6.3891521 -3.00137 1.5930287
6.5807552 -3.0776043 1.5392894
6.5734024 -3.0670345 1.5476724
6.5857019 -3.0583625 1.5455486
6.5908251 -3.0348091 1.5560926
6.5989318 -3.0329576 1.5395012
6.5963988 -3.0321493 1.5487509
6.597425 -3.0127265 1.5447975
6.6014781 -3.0095134 1.5532097
6.6187406 -2.9905016 1.5443252
6.7860599 -3.0588675 1.5096591
6.8064723 -3.0560417 1.5126289
6.8126621 -3.0448575 1.516996
6.8072219 -3.0456495 1.5008565
6.8196445 -3.0255818 1.4990858
6.822598 -3.0216577 1.5099763
6.8289471 -3.0045042 1.5124785
6.824532 -3.0105491 1.5052012
6.8361506 -2.9967525 1.5119289
7.0157018 -3.0686648 1.468924
7.0069313 -3.056951 1.4688854
7.0230112 -3.0491109 1.4621973
7.0220475 -3.0393538 1.4772124
7.0254369 -3.0192969 1.4619483
7.0326734 -3.0110636 1.4772588
7.0381255 -3.0041099 1.4669945
7.0344543 -2.9950273 1.4643788
7.2336736 -3.0513284 1.4266773
7.225307 -3.0431905 1.4327859
7.2436543 -3.0392151 1.4362317
7.2385125 -3.0282869 1.4216124
7.2333179 -3.0255415 1.425048
7.2414212 -3.0080094 1.4284497
7.2445259 -2.9913232 1.4221116
7.433496 -3.0666177 1.3946737
7.4367228 -3.0454202 1.3839109
7.4496713 -3.0520885 1.392416
7.4399896 -3.0241203 1.3915615
7.4521217 -3.0287929 1.3887668
7.4503484 -3.0193784 1.379863
7.4720058 -2.9993517 1.3917973
7.4590302 -2.9887512 1.3963808
7.6514454 -3.0472324 1.3488642
7.665379 -3.0535915 1.3474562
7.6529598 -3.036314 1.3556352
7.6726184 -3.0200894 1.3546388
7.661499 -3.015182 1.3565956
7.6788697 -3.0042074 1.3561362
7.6753712 -2.9853368 1.3406137
7.8717375 -3.0436471 1.304579
7.8766098 -3.0330667 1.3176992
7.8734007 -3.0196552 1.3110116
7.8747602 -3.0199773 1.308396
7.8881178 -3.0106308 1.3087473
7.8800521 -2.9979541 1.3156961
8.083415 -3.0595071 1.2686534
8.0825977 -3.0464921 1.2753567
8.0837221 -3.0403121 1.2623369
8.0843716 -3.0218215 1.2774841
8.0894823 -3.0138152 1.2747968
8.098074 -3.005197 1.2717197
8.2836103 -3.0521474 1.2315472
8.278697 -3.0535965 1.239601
8.291152 -3.0259023 1.2260131
8.3039427 -3.0304725 1.234108
8.3036661 -2.9991281 1.2393023
8.2958603 -2.992866 1.2262501
8.4991474 -3.0563009 1.1885799
8.5050859 -3.0364909 1.1976572
8.5061541 -3.0357878 1.1834614
8.5045195 -3.0106959 1.1865984
8.4997911 -3.0080955 1.1996086
8.5144033 -2.994674 1.1996157
8.7020102 -3.0380716 1.1562272
8.7111464 -3.0276294 1.1562332
8.7083607 -3.0216813 1.1560119
8.7107515 -3.00774 1.1504754
8.7200737 -2.9991024 1.1564927
6.8838153 1.6624198 1.6302302
6.6942821 1.6222771 1.6758752
6.6929436 1.6185285 1.6772102
6.6774483 1.6344792 1.6820692
6.6763797 1.651432 1.6737572
6.6905341 1.6479528 1.6809734
6.6877704 1.6574169 1.6754863
6.6752191 1.6660804 1.6857849
6.6822743 1.6758294 1.6837621
6.6718497 1.6963331 1.685433
6.6677775 1.6948357 1.6850665
6.6671133 1.7169998 1.6808598
6.6739841 1.7200714 1.6835773
6.6621771 1.7299072 1.6729215
6.6552162 1.7409467 1.6698978
6.6599307 1.7484257 1.6740772
6.6518478 1.7554395 1.6784062
6.6582651 1.772213 1.6820874
6.6549683 1.7783659 1.6862096
6.6496353 1.776431 1.6815307
6.4563479 1.7418275 1.7241493
6.4523649 1.7596047 1.7215375
6.4441628 1.7666291 1.7127025
6.4586654 1.7642356 1.7244118
6.4425001 1.7772833 1.7178724
6.4432979 1.7774602 1.7095271
6.4482632 1.7919824 1.7189144
6.4375443 1.7953627 1.7157969
6.4304948 1.8178999 1.7095578
6.4275546 1.8175712 1.7121127
6.4399228 1.8360472 1.7217432
6.436801 1.8329616 1.7201515
6.4310546 1.8441075 1.7165881
6.416461 1.8522027 1.7216384
6.4135637 1.8665912 1.7107474
6.4241147 1.8842493 1.7110472
6.4263082 1.8893563 1.7168868
6.4178762 1.8862413 1.7171278
6.4063144 1.8985853 1.7109306
6.4085011 1.9105108 1.7154328
6.2251134 1.8611172 1.7475392
6.2195392 1.8671069 1.7494986
6.2123613 1.8899094 1.7536428
6.2016077 1.9006898 1.7569245
6.2158923 1.8911573 1.7456406
6.1992736 1.9147724 1.7430645
6.2029428 1.9231899 1.7566487
6.1924396 1.925797 1.7581745
6.2021656 1.9394763 1.7431052
6.1856818 1.9379886 1.7510254
6.1936884 1.9438888 1.7568413
6.195693 1.9668074 1.7599812
6.1796446 1.9651527 1.7572615
6.1877289 1.9753613 1.7566637
6.1790824 1.9824835 1.7578787
6.1791406 1.995628 1.7540576
6.17661 1.9950948 1.7500068
6.1676517 2.0067234 1.7599193
6.1602073 2.0107548 1.7548712
6.1576819 2.0209918 1.7596992
6.163064 2.0419366 1.761795
6.1542506 2.0475993 1.7581809
6.1485648 2.0599391 1.7442873
5.9739332 2.0008678 1.7900774
5.964993 2.0178719 1.7962763
5.9572563 2.0176952 1.7870065
5.9656868 2.0177617 1.7885939
5.9500551 2.0316556 1.7932044
5.964324 2.0409024 1.7932446
5.9535336 2.0504329 1.7949241
5.9475594 2.0681672 1.7889547
5.9436698 2.0599217 1.8000581
5.9361539 2.0688357 1.7949153
5.9347334 2.0921896 1.7843516
5.9409947 2.0893857 1.782474
5.9334431 2.101639 1.7921059
5.9366107 2.1051283 1.793494
5.9213538 2.1158028 1.8004696
5.930696 2.1235747 1.7883898
5.9200668 2.1433966 1.7975422
5.9111056 2.1400959 1.7961348
5.9161634 2.1557689 1.7981913
5.912313 2.1668007 1.8008757
5.9033084 2.1592984 1.7986315
5.903729 2.1809554 1.7853054
5.9022603 2.1779704 1.7959583
5.9104118 2.2010739 1.7818303
5.7159147 2.1234169 1.8282073
5.712503 2.1462255 1.8359979
5.717 2.1413605 1.8353527
5.7106385 2.1505015 1.8231531
5.702858 2.1676793 1.838377
5.6971235 2.1639969 1.8363875
5.6940622 2.1743116 1.8386545
5.6887455 2.18806 1.8343415
5.6900916 2.2033641 1.838811
5.6820793 2.2098563 1.8381555
5.6799283 2.2089238 1.8200549
5.6860466 2.2275431 1.8367996
5.6799445 2.2336338 1.8207206
5.6731863 2.2363484 1.8258277
5.6742172 2.2342796 1.8201621
5.6704612 2.2494838 1.8228678
5.6647043 2.2646453 1.8279461
5.6612039 2.2575202 1.8388348
5.6533794 2.2747822 1.8370941
5.650013 2.2870839 1.8339158
5.6459804 2.2802975 1.8218802
5.643836 2.3027036 1.8205429
5.6384254 2.3020928 1.8373798
5.6369247 2.3178201 1.8290191
5.6405201 2.3176854 1.8306816
5.6384392 2.3369129 1.8196448
5.6390529 2.3335128 1.8358704
5.6247339 2.3497527 1.8370761
5.440083 2.2857428 1.8657497
5.4349957 2.2768524 1.8607427
5.4467196 2.2871027 1.8610679
5.4463973 2.298393 1.8759221
5.424727 2.3074682 1.8622929
5.4398832 2.318249 1.8765225
5.4266682 2.3158426 1.8627539
5.4151049 2.3345835 1.8603536
5.4124942 2.3371773 1.8666987
5.4260988 2.3487022 1.8614335
5.4208984 2.3600469 1.859889
5.4062653 2.3694706 1.8618662
5.4066138 2.3737953 1.86651
5.4072776 2.3809853 1.8748651
5.4027843 2.389703 1.8647205
5.4046521 2.3967857 1.8577864
5.4007387 2.3938723 1.8608804
5.3830462 2.4026253 1.8751541
5.3829427 2.4120083 1.8644648
5.389174 2.4182465 1.8577483
5.3901296 2.4225459 1.8748287
5.3695302 2.4354835 1.87379
5.3708978 2.4520521 1.8695375
5.3768983 2.4525771 1.864941
5.3712435 2.4519129 1.861533
5.3554339 2.4564297 1.8576831
5.3526797 2.4803576 1.8633999
5.3530092 2.4899278 1.8703543
5.3476014 2.4827399 1.859181
5.3514943 2.5051391 1.8667401
5.1707745 2.428762 1.9091936
5.1651268 2.4180121 1.8989917
5.1584301 2.4320171 1.8978666
5.1674709 2.4354203 1.9097794
5.1519055 2.4565771 1.9135456
5.1529217 2.4653428 1.9143512
5.1500783 2.4547832 1.9116118
5.1529412 2.4679925 1.9109747
5.1427488 2.4792445 1.8956866
5.1413732 2.4778495 1.8953393
5.1275468 2.4970911 1.9142596
5.1380672 2.4940498 1.8952296
5.1183758 2.5076869 1.9030087
5.1175494 2.5137496 1.9070004
5.1286259 2.5276418 1.9049627
5.1234584 2.5259552 1.9045093
5.1190867 2.5248401 1.9063197
5.1119657 2.5500131 1.9141676
5.1041975 2.5484288 1.9061003
5.2767501 2.6367009 1.8713794
5.2732038 2.6470592 1.8668391
5.2685676 2.651403 1.8721048
5.2648911 2.6595299 1.8638599
5.2689838 2.670315 1.8745348
5.2570577 2.6756711 1.8719641
5.2630835 2.6793644 1.8605736
5.2486458 2.7022007 1.86094
5.2560086 2.7014401 1.859356
5.2512088 2.7164457 1.8690693
5.2383313 2.7119296 1.8721542
5.2288194 2.7275441 1.8582439
5.2347569 2.7222095 1.8613291
5.2259498 2.736896 1.8651979
5.228888 2.7393827 1.8725139
5.2224908 2.7536612 1.8578531
5.2135124 2.757694 1.859558
5.38662 2.8629577 1.8386801
5.3864689 2.8676443 1.827821
5.3847232 2.8712895 1.8246555
5.3726807 2.8858263 1.8296672
5.3637123 2.8946302 1.8229918
5.3608236 2.8931606 1.823686
5.3610091 2.9066832 1.8317759
5.3650532 2.9069533 1.835067
5.3564029 2.9246459 1.8253565
5.3530812 2.9371903 1.8324038
5.3514543 2.9331956 1.825515
5.3470354 2.9330285 1.8358065
5.3317471 2.9551048 1.8222426
5.3332829 2.9491382 1.8357207
5.3398199 2.9582131 1.8305129
5.3196712 2.9684193 1.8363518
5.4915953 3.078625 1.7901386
5.5000763 3.0813723 1.7948196
5.4918375 3.0995207 1.7897261
5.4738774 3.0984092 1.7897158
5.4829535 3.0997431 1.7982551
5.4651308 3.1207407 1.7991776
5.4775887 3.130543 1.7947323
5.4564724 3.1259842 1.7968819
5.468823 3.1320763 1.8006737
5.4559555 3.1421437 1.7872449
5.4489164 3.1568809 1.8008177
5.4537497 3.1643772 1.7894833
5.4432535 3.1679244 1.7886488
5.4476533 3.1778111 1.7990603
5.6015162 3.2802 1.7450728
5.5942855 3.2902091 1.7625489
5.587966 3.297008 1.7622027
5.5971904 3.3070328 1.7496794
5.5885534 3.3137612 1.755636
5.5836978 3.311986 1.7440538
5.565402 3.3275456 1.7596085
5.5806684 3.3323236 1.7550659
5.56459 3.3510005 1.7464824
5.5676656 3.3584833 1.7602041
5.561142 3.3547614 1.7496245
5.5587168 3.3683741 1.7612481
5.5537567 3.3802438 1.7518712
5.5484395 3.3859255 1.7447261
5.698103 3.4899771 1.7184263
5.7060547 3.4916072 1.7206676
5.7024126 3.4995618 1.7106948
5.6943145 3.5074131 1.7177325
5.6816626 3.5238271 1.7156864
5.6804161 3.5279691 1.7133688
5.6728802 3.5302508 1.7195814
5.6747537 3.554781 1.7116654
5.6682401 3.5590353 1.7078846
5.652338 3.5626683 1.7220572
5.6492801 3.5731561 1.7101516
5.6580081 3.5764558 1.7119273
5.8147416 3.6861851 1.675619
5.8155689 3.7077293 1.6773233
5.8034225 3.701515 1.6675135
5.7892184 3.7189579 1.6739242
5.792686 3.7337804 1.6747018
5.7823544 3.7354026 1.6721017
5.7840958 3.7354484 1.6858554
5.7820449 3.7445402 1.675348
5.7741556 3.7555335 1.6674416
5.7743497 3.7602248 1.6749545
5.7563081 3.7808554 1.6791233
5.7600431 3.7874522 1.6767389
5.9094615 3.8950162 1.6419531
5.9049177 3.9058042 1.6346239
5.9067736 3.9052322 1.6340413
5.8893952 3.919513 1.6470124
5.8894057 3.9207306 1.6319675
5.8831582 3.9451039 1.6379607
5.8863916 3.9468057 1.6469003
5.8817072 3.9539304 1.6324917
5.8645248 3.9682536 1.6306814
5.8714991 3.9715636 1.6474432
5.8560781 3.9855645 1.6357884
6.0062685 4.0909152 1.6085862
6.0066514 4.1133156 1.590677
6.0064402 4.1237855 1.5988249
5.9991879 4.1197243 1.5999742
5.9968796 4.1348858 1.5972881
5.9805527 4.1387625 1.6081032
5.9731541 4.1434484 1.5978497
5.9713349 4.1564565 1.5937339
5.9676938 4.1619549 1.6047502
5.9608026 4.1775594 1.6015973
-3.4660347 4.014401 1.9861286
-3.4734597 3.9963462 1.9837147
-3.4787872 4.0037966 1.9833972
-3.49596 3.9897234 1.9906535
-3.4919767 3.9990819 1.9847143
-3.4906726 3.977865 1.9743029
-3.4985466 3.9750125 1.9802364
-3.5166674 3.9761159 1.9908447
5.8113918 -4.9766173 1.5303525
5.8115802 -4.978713 1.531068
5.8284245 -4.9731979 1.533142
5.8287301 -4.9584231 1.5233698
5.8465652 -4.9462442 1.5323536
5.8491659 -4.9503493 1.5241901
5.8463759 -4.9301739 1.5220557
5.8637171 -4.9368649 1.5201133
5.8624501 -4.9129748 1.5151792
5.8808231 -4.9114099 1.5181332
5.8813853 -4.9144368 1.5177352
5.8843551 -4.9042354 1.527135
5.8880291 -4.8841395 1.5339332
5.8937659 -4.870676 1.5273801
5.9097185 -4.8663034 1.5248704
5.9146438 -4.8662457 1.5301102
5.9313941 -4.8558822 1.5273702
5.9259982 -4.8550701 1.5297749
5.9386482 -4.8424063 1.5278951
5.946353 -4.8382387 1.5193961
5.9570003 -4.8203673 1.5196769
5.9472375 -4.8063726 1.5219558
5.8142142 -4.6920614 1.5542146
5.8204541 -4.682529 1.5536183
5.8201299 -4.663857 1.5691626
5.8372846 -4.6670604 1.5565231
5.8396673 -4.6403041 1.5659963
5.8392992 -4.6457214 1.5680214
5.8413239 -4.6252556 1.554441
5.8614578 -4.6238399 1.5567487
5.8530812 -4.6185212 1.5686393
5.864974 -4.6096969 1.5662262
5.8791342 -4.6079674 1.5663388
5.8874454 -4.5865345 1.5678799
5.8951488 -4.5919514 1.5599808
5.898385 -4.5667276 1.560756
5.9089704 -4.5656238 1.5601568
5.9090176 -4.5513797 1.5660002
5.911078 -4.5415902 1.5641606
5.9195466 -4.538136 1.5555784
5.9303117 -4.5295153 1.5641478
5.9329557 -4.5354481 1.5533653
5.9331751 -4.5136547 1.5561271
5.9534955 -4.5099735 1.5721275
5.9553452 -4.5050001 1.5545079
5.9492846 -4.503191 1.5538998
5.9639874 -4.4771852 1.5661745
5.8212137 -4.3594337 1.6025599
5.8209729 -4.3442826 1.6023993
5.818881 -4.3470168 1.5974452
5.8281956 -4.3253298 1.592855
5.8460684 -4.3273296 1.5940666
5.853147 -4.3154306 1.6087971
5.8429766 -4.3095193 1.5989257
5.8487949 -4.3080549 1.6057354
5.8569818 -4.2989368 1.6060537
5.8645496 -4.2813897 1.6040683
5.8843808 -4.2760124 1.5934399
5.8824892 -4.2769618 1.6098551
5.8804259 -4.266078 1.5954192
5.8933969 -4.2519422 1.5945457
5.9017663 -4.245986 1.6035388
5.9113355 -4.2389913 1.5962892
5.9156237 -4.2281966 1.6068004
5.9100294 -4.2176013 1.5906173
5.9312329 -4.2048249 1.5953852
5.9327435 -4.2104764 1.6095247
5.9322572 -4.20228 1.6008575
5.9411306 -4.1819477 1.6030486
5.9464078 -4.1696391 1.6079232
5.9572377 -4.1703091 1.5987245
5.9471822 -4.1685476 1.6072649
5.9661083 -4.1631427 1.5945743
5.9777732 -4.1393647 1.6044449
5.8187337 -4.0150051 1.634765
5.8245473 -4.0076385 1.6315144
5.8151174 -4.004642 1.634354
5.8398156 -4.0080009 1.6371231
5.8358355 -3.9883442 1.6319498
5.8340344 -3.9892561 1.6308018
5.8370972 -3.9851727 1.6406927
5.8509498 -3.9769678 1.6440457
5.8533316 -3.9556479 1.6444957
5.8630109 -3.948463 1.640408
5.8625498 -3.9449015 1.6402764
5.874301 -3.9411469 1.6394049
5.8827896 -3.932431 1.6334153
5.8941069 -3.9246144 1.6359442
5.8881817 -3.9063644 1.6299999
5.8970718 -3.8954899 1.6350056
5.9048023 -3.8871164 1.6359488
5.9024124 -3.8904424 1.6369433
5.9033642 -3.8769279 1.6310964
5.9247541 -3.8792632 1.6442654
5.9220448 -3.8675776 1.6328191
5.9191923 -3.8496475 1.636943
5.9354572 -3.8487239 1.6415907
5.9457207 -3.8419669 1.6458551
5.9385014 -3.8266072 1.6401619
5.9453263 -3.8278186 1.6371281
5.9571452 -3.8067489 1.634245
5.9698958 -3.7935071 1.6398056
5.9636292 -3.8047404 1.6306427
5.9715042 -3.7799985 1.630899
5.8067808 -3.6781383 1.6726842
5.8162084 -3.6699851 1.6860422
5.8297486 -3.650948 1.6720556
5.8279252 -3.6470165 1.6765505
5.8303547 -3.6356618 1.6681217
5.8270802 -3.6228282 1.6701907
5.8407602 -3.6235101 1.6850314
5.8515458 -3.6167643 1.6848083
5.8478804 -3.6015964 1.6850388
5.8550406 -3.603853 1.6816908
5.8624458 -3.5903656 1.666644
5.8735285 -3.5925801 1.6716466
5.8779578 -3.5663729 1.6675755
5.8683891 -3.567096 1.6793178
5.8833036 -3.5504854 1.6742898
5.8897781 -3.5422339 1.673963
5.8983102 -3.5453758 1.6848149
5.9016714 -3.542794 1.6742662
5.904798 -3.5289276 1.6707319
5.908144 -3.5129399 1.6767802
5.9081302 -3.5145748 1.6681485
5.9130578 -3.510143 1.6691275
5.922977 -3.4862871 1.6681322
5.9288135 -3.4769933 1.6782249
5.9263806 -3.4777668 1.6767328
5.9389081 -3.4770362 1.6752894
5.951097 -3.452733 1.6824946
5.9541268 -3.450016 1.6840656
5.9465961 -3.4491088 1.6712793
5.9555197 -3.4297805 1.6862503
5.9704795 -3.4353795 1.6713496
5.9567966 -3.4209523 1.6726365
5.9640808 -3.4014964 1.6695286
5.9703579 -3.401083 1.6674569
5.9867163 -3.3879695 1.6763473
5.8108726 -3.2901757 1.7157934
5.8241367 -3.282284 1.7131681
5.824595 -3.2761955 1.704975
5.8266125 -3.262459 1.7093977
5.8358326 -3.2646089 1.7048502
5.8400126 -3.2565966 1.7063988
5.8492804 -3.2470541 1.714063
5.8398237 -3.2350025 1.7128648
5.8472476 -3.221437 1.7237549
5.8525887 -3.216265 1.7194266
5.8668089 -3.2009783 1.7075452
5.8623667 -3.1970205 1.7154489
5.8752885 -3.1971865 1.7213281
5.8800054 -3.1799054 1.7128246
5.8691335 -3.1779635 1.7140454
5.873703 -3.1563895 1.7151464
5.8798094 -3.1500843 1.7176514
5.893569 -3.1577609 1.7240632
5.8861184 -3.1425276 1.7158893
5.8895464 -3.1264555 1.7047304
5.9086351 -3.1206551 1.7206943
5.9158301 -3.123776 1.7124459
5.9109182 -3.1184437 1.7158554
5.9118733 -3.0928514 1.7083634
5.924314 -3.0825763 1.7146249
5.9179635 -3.0921662 1.7142655
5.9327025 -3.0800722 1.7120101
5.929935 -3.05863 1.7138709
5.933568 -3.0490382 1.7227516
5.9490156 -3.0604067 1.7194847
5.9532924 -3.0370634 1.7137926
5.9535217 -3.0308902 1.7167478
5.9454908 -3.0339832 1.7167974
5.9608579 -3.0204635 1.7141954
5.9687214 -3.0188341 1.7136183
5.9628348 -3.0078743 1.7151953
5.9765773 -2.9864836 1.7206042
6.1435328 -3.0802214 1.6810906
6.1569805 -3.0663013 1.6809913
6.1592965 -3.0612071 1.6812434
6.1583338 -3.0560975 1.6765527
6.1716666 -3.0350087 1.6697429
6.167943 -3.0261891 1.6715423
6.184257 -3.0262291 1.6785578
6.1779571 -3.0026212 1.6788927
6.1910677 -3.0091035 1.6818717
6.1857433 -2.9860353 1.6779199
6.3625083 -3.0812786 1.6418713
6.3812709 -3.0615132 1.6292608
6.3799219 -3.0637112 1.6331604
6.3788128 -3.0511394 1.6335791
6.3930001 -3.0294902 1.6464906
6.4003654 -3.0358083 1.6396194
6.3895178 -3.0100441 1.6440998
6.405673 -3.0147998 1.6435744
6.4021506 -2.9906523 1.6479467
6.4015951 -2.9960248 1.6467614
6.5949454 -3.0686395 1.6092108
6.592577 -3.0634027 1.600638
6.5975847 -3.0437932 1.6009771
6.6064796 -3.0295591 1.6049914
6.6157799 -3.0253911 1.6017529
6.617979 -3.0180988 1.6032881
6.6132941 -3.0058827 1.6016734
6.6130772 -3.0017278 1.6063831
6.6323214 -2.9852989 1.6063143
6.814826 -3.0545063 1.5538449
6.8173442 -3.0512736 1.5610509
6.8203955 -3.0546916 1.5643017
6.8148603 -3.0373709 1.5579642
6.8296509 -3.0354123 1.5566571
6.8284426 -3.0083966 1.5703082
6.8239822 -3.0034127 1.562036
6.8410439 -2.9873319 1.5567584
7.0162711 -3.0745592 1.5283117
7.0165114 -3.0475976 1.5251573
7.0366688 -3.0412114 1.5244455
7.0424399 -3.0365858 1.5174717
7.0354033 -3.0331755 1.5175791
7.0516033 -3.0195527 1.5255003
7.0414529 -3.0153785 1.5258675
7.0499811 -2.996639 1.5237316
7.23281 -3.0634451 1.4789586
7.2467971 -3.0602639 1.4788327
7.2354922 -3.045835 1.4808291
7.2538233 -3.0354488 1.4799939
7.2489853 -3.0291741 1.4957458
7.263422 -3.021384 1.4863179
7.2708707 -3.0048723 1.4904895
7.2584124 -2.9963882 1.4784667
7.4553719 -3.0571196 1.4426987
7.4512777 -3.0584197 1.453938
7.4650335 -3.0417409 1.4454093
7.4720984 -3.0353556 1.4499691
7.4590225 -3.0245411 1.4388589
7.4679289 -2.9996479 1.44803
7.4759851 -3.0038302 1.4533651
7.6620126 -3.0508726 1.4182774
7.6764655 -3.0413494 1.4076754
7.6750751 -3.0284798 1.4154289
7.6816473 -3.0243428 1.407167
7.6905327 -3.0085714 1.4072114
7.6906428 -3.0033014 1.413535
7.682209 -2.995209 1.4158386
8.0641975 -3.126997 1.3423524
8.0693827 -3.1110051 1.339535
8.0637226 -3.1111555 1.3421121
8.0633821 -3.0916965 1.3402902
8.0860338 -3.082056 1.3373022
8.0780687 -3.0780623 1.3364885
8.0778408 -3.0517385 1.3291104
8.0893364 -3.0407557 1.3267965
8.1008596 -3.033875 1.3390396
8.098691 -3.0196252 1.3286558
8.0988102 -3.0134461 1.3383356
8.1016197 -3.0064485 1.3327657
8.1015968 -2.9894609 1.3357974
8.3083372 -3.0451045 1.2889379
8.3091326 -3.0342009 1.2985555
8.3069239 -3.0155656 1.3009007
8.3038845 -3.021445 1.2982979
8.3134518 -3.0001011 1.2953999
8.3206882 -2.9914894 1.2880987
8.5049171 -3.035697 1.2656612
8.5140734 -3.0373411 1.2562033
8.5128927 -3.0203834 1.2624415
8.5261259 -3.0076416 1.2543597
8.5223742 -2.9965386 1.2672771
8.7150669 -3.0540152 1.2214253
8.7122269 -3.0325625 1.2207228
8.7317152 -3.0183723 1.2225525
8.7285843 -3.0188222 1.2141321
8.722537 -2.9962263 1.2227232
6.7041268 1.6133476 1.7366798
6.707583 1.6093973 1.7227124
6.689208 1.6234384 1.7244017
6.6931977 1.6337878 1.7189398
6.7030931 1.6416214 1.7237017
6.6983399 1.6565361 1.7250324
6.6878376 1.6703743 1.7271987
6.6784377 1.6824864 1.727535
6.6781034 1.6756945 1.7348967
6.6751299 1.6896676 1.73175
6.6897321 1.710157 1.725722
6.6871605 1.7163386 1.7264003
6.6706085 1.7263949 1.7317796
6.6757331 1.7227033 1.7181712
6.6753821 1.7311823 1.7230628
6.659781 1.7571967 1.7335383
6.6654968 1.7550098 1.7285246
6.6533666 1.7657374 1.7262988
6.6615591 1.7784582 1.7279602
6.4671526 1.7397935 1.7709374
6.4596057 1.7485718 1.7684293
6.4660177 1.7571449 1.7627915
6.4530959 1.7715455 1.7579023
6.4655404 1.7734629 1.760017
6.4643645 1.7774349 1.7613097
6.4480672 1.7882239 1.7593189
6.4422326 1.8071603 1.7658471
6.4513721 1.8164103 1.7538118
6.4382734 1.8163104 1.7652099
6.4468231 1.8342221 1.7594119
6.4416776 1.8269987 1.7733767
6.434011 1.8486122 1.7669026
6.4406943 1.8597407 1.7658204
6.4424753 1.8657639 1.7576504
6.4263592 1.8730731 1.7644506
6.4315228 1.88656 1.7730414
6.4346833 1.8966998 1.7715737
6.4243593 1.8984791 1.7703646
6.421988 1.9096719 1.7600679
6.2225451 1.8559034 1.7953589
6.2258272 1.8752998 1.7977853
6.2230616 1.8695798 1.7928478
6.21381 1.8931056 1.8100652
6.223464 1.9009881 1.8043355
6.2249355 1.8953418 1.7969487
6.2131958 1.9174595 1.7940857
6.2100344 1.9253503 1.7924035
6.2053933 1.9255425 1.8035449
6.1995311 1.9460007 1.7969273
6.2033601 1.938123 1.8036294
6.2058077 1.9561113 1.8010464
6.1906691 1.9539305 1.8040657
6.1905813 1.9651062 1.8019367
6.1876988 1.9885565 1.7990197
6.1790748 1.9961112 1.8017896
6.1830516 1.9945705 1.798014
6.1841536 2.0125253 1.7934699
6.1835608 2.0085077 1.8004622
6.174098 2.0213091 1.7992609
6.1780052 2.0406322 1.8015335
6.1686029 2.0451078 1.7931501
5.9899583 1.9953641 1.8306057
5.9810548 1.9897989 1.8339398
5.9700103 2.0040925 1.8320912
5.976037 2.0125148 1.8291681
5.9648223 2.0276797 1.836079
5.9698205 2.0267236 1.8323233
5.9702625 2.0279644 1.8359325
5.9576855 2.0425436 1.8437294
5.9638958 2.0638435 1.8422396
5.9523668 2.0585663 1.8366197
5.9524426 2.0641289 1.8344522
5.9533024 2.0835505 1.8383822
5.9574847 2.0947022 1.8282723
5.9398065 2.094667 1.8382553
5.9391937 2.1062148 1.8350775
5.9454799 2.1055698 1.8426218
5.9279995 2.1281881 1.8430893
5.9341164 2.121062 1.8298222
5.9280186 2.1429899 1.8295453
5.9204197 2.1362445 1.8356851
5.9271894 2.1524425 1.8390857
5.9317794 2.1523788 1.8336101
5.9202886 2.1793878 1.8309923
5.9186759 2.1716206 1.8400497
5.9070354 2.1861541 1.8323692
5.7278285 2.1216254 1.8724227
5.7206264 2.130569 1.8701564
5.713881 2.1485779 1.8724904
5.7138572 2.1434491 1.8684832
5.7135448 2.1536925 1.8694654
5.7193618 2.1736882 1.8783846
5.7085681 2.1812689 1.8789835
5.7122874 2.1803644 1.8783387
5.693378 2.1808648 1.8816783
5.7035151 2.1927533 1.8713074
5.6859608 2.2128518 1.8764417
5.6917877 2.2087047 1.8825414
5.6953378 2.2207797 1.8786759
5.6812105 2.2358093 1.8817114
5.6830649 2.2335167 1.8670245
5.6858907 2.2400417 1.8643718
5.6776247 2.2587848 1.8813423
5.6699462 2.2642705 1.8694551
5.661612 2.273881 1.8701195
5.6766067 2.2766736 1.8747276
5.6612191 2.2849679 1.8714937
5.6709547 2.3021567 1.8761767
5.6667795 2.3059738 1.8650026
5.6587272 2.318753 1.8809307
5.6536999 2.3164873 1.8666427
5.6539741 2.320159 1.8709611
5.6515851 2.3386869 1.8661079
5.4644833 2.2574959 1.9154909
5.4472604 2.266036 1.909918
5.4506917 2.2727265 1.9192363
5.4587202 2.2871964 1.908952
5.4435043 2.29458 1.907964
5.452961 2.3009768 1.902905
5.4312325 2.3025215 1.9027417
5.4454217 2.3222492 1.9124337
5.4253125 2.3254733 1.9179227
5.4295111 2.329541 1.9140695
5.4288459 2.3314228 1.9163342
5.4208927 2.3392317 1.9195315
5.4273558 2.3536317 1.9018164
5.4231267 2.3592312 1.9109725
5.4086032 2.3727961 1.9199179
5.4130807 2.3790095 1.9076705
5.4124885 2.3866971 1.9093823
5.4117231 2.3917873 1.9032412
5.4006386 2.3999918 1.912748
5.3950329 2.4156289 1.9187508
5.3855634 2.4138458 1.9190682
5.3983483 2.4273646 1.9196317
5.3943195 2.4306126 1.9070371
5.3925657 2.4329078 1.9124885
5.3799572 2.4439662 1.9039558
5.3762836 2.4627998 1.9140922
5.3803525 2.4643493 1.9043765
5.3661222 2.4684513 1.9122158
5.3657408 2.4847982 1.9007292
5.3548555 2.478879 1.9173541
5.3699627 2.48684 1.9046746
5.1871271 2.4079816 1.954658
5.1832104 2.4311817 1.9437172
5.1666889 2.4360092 1.9475647
5.1756091 2.4316201 1.9549683
5.1559863 2.4469602 1.9537079
5.1664896 2.4497819 1.9465042
5.1672673 2.4617968 1.9559149
5.1558743 2.4568639 1.9541892
5.1529846 2.4644902 1.9390657
5.1467099 2.4906781 1.94443
5.1477456 2.4957454 1.9464319
5.1420941 2.5002553 1.9444187
5.1454921 2.5116134 1.9400226
5.1327271 2.5152709 1.9440321
5.1273561 2.5226953 1.9561806
5.1207147 2.5240226 1.9439547
5.1268597 2.5295377 1.9565523
5.1224051 2.5470793 1.9370304
5.1162148 2.545161 1.937953
5.1148911 2.5604079 1.9378866
5.1189218 2.5601399 1.9557152
5.2806849 2.6458354 1.9142257
5.2845616 2.6704886 1.9135925
5.2840314 2.6658568 1.9094589
5.2675004 2.6793435 1.905597
5.2631083 2.689688 1.9159145
5.2664795 2.689687 1.9046041
5.2624378 2.6887507 1.903697
5.2588644 2.7051537 1.9137387
5.2562032 2.7037725 1.9118989
5.2534657 2.7299714 1.902668
5.2485461 2.7257519 1.9038593
5.2387877 2.7291012 1.9023454
5.2283859 2.7356229 1.9088461
5.23384 2.7493267 1.9014853
5.2354221 2.762361 1.9171261
5.2273121 2.7625 1.9054278
5.227881 2.762341 1.9054608
5.4011316 2.8746634 1.8779089
5.3906856 2.87603 1.8783143
5.3783898 2.878433 1.8776014
5.376852 2.8997009 1.8653575
5.3764954 2.8950045 1.8691567
5.3746147 2.9037108 1.8721766
5.3592238 2.9216862 1.8816048
5.356462 2.9250686 1.8767771
5.3493304 2.924176 1.8648032
5.3504901 2.9476972 1.865391
5.3516722 2.9547257 1.878726
5.3419528 2.9553032 1.8659167
5.3526282 2.9675894 1.8680048
5.3425803 2.9623537 1.8638608
5.3402781 2.9807875 1.8675263
5.4933929 3.0772927 1.8357489
5.4977551 3.0867774 1.8311245
5.4915347 3.0975575 1.8424054
5.4804759 3.1052732 1.8453219
5.4774327 3.1182268 1.8442937
5.4749665 3.1164508 1.842834
5.4858246 3.1290538 1.834497
5.4638629 3.1364417 1.8309976
5.4639783 3.1379011 1.8348196
5.4599395 3.1411881 1.829638
5.4595551 3.1501024 1.8376141
5.4640436 3.1676633 1.8274097
5.4438972 3.1632993 1.8403262
5.4550209 3.1721826 1.8333052
5.4490504 3.1823392 1.8315905
5.6116228 3.2938461 1.8037983
5.603004 3.3012969 1.7976347
5.6060376 3.3111341 1.79123
5.5855608 3.3254461 1.7986616
5.5888953 3.3200889 1.8017637
5.5870371 3.3387277 1.8061692
5.573144 3.346246 1.8005311
5.569036 3.3380191 1.8029308
5.5778337 3.3653283 1.8066216
5.5595994 3.3710895 1.7928827
5.5596395 3.374275 1.8035818
5.5485373 3.3734245 1.7939214
5.5512605 3.3802016 1.8062942
5.7153158 3.4936571 1.7685211
5.6989012 3.5127461 1.7542601
5.7055774 3.5146029 1.7708534
5.6966476 3.527204 1.7671869
5.7020693 3.520345 1.7675221
5.6898794 3.5269418 1.7674011
5.6813688 3.5399742 1.765283
5.6791086 3.5577269 1.7585981
5.6675367 3.5690687 1.7633173
5.6662931 3.5678353 1.7670747
5.6574111 3.5676227 1.7540046
5.6674056 3.5758619 1.7720635
5.6631284 3.5956552 1.7640263
5.8212919 3.6969867 1.7239834
5.809772 3.7232928 1.7258025
5.7985754 3.7223198 1.7262861
5.8072467 3.7377584 1.7318763
5.7937889 3.7358701 1.7273006
5.7936344 3.7473536 1.7261547
5.7781882 3.7625487 1.7358707
5.7864885 3.753828 1.717476
5.7817068 3.7600791 1.7194295
5.7749729 3.7870407 1.7332922
5.760191 3.7913065 1.7350309
5.9262328 3.8973229 1.6983135
5.9097142 3.9094279 1.6891892
5.9136672 3.9153843 1.6874167
5.9031987 3.933074 1.6956758
5.9081435 3.935812 1.687346
5.8919306 3.9483178 1.686146
5.8854222 3.9543483 1.6881673
5.8805079 3.9608338 1.6883891
5.8775353 3.9658332 1.687529
5.8684144 3.9813089 1.6828986
5.8610206 3.9838786 1.6881429
6.0160966 4.1059842 1.660581
6.0193439 4.107091 1.6473932
6.0208073 4.1231847 1.6436598
6.0105181 4.1296892 1.6544369
5.9918871 4.1454587 1.6494998
5.9920449 4.1402097 1.6623809
5.9942122 4.1555467 1.6535431
5.9765892 4.1534238 1.6615076
5.9780951 4.1677032 1.6567587
5.9749584 4.1801238 1.6463981
5.8190947 -4.9880652 1.5884527
5.8418498 -4.9820418 1.5736336
5.850256 -4.9721761 1.577163
5.8520226 -4.9622011 1.5744962
5.8652773 -4.9613404 1.5727577
5.8574204 -4.9345303 1.5778729
5.8748426 -4.9288902 1.5777878
5.8845282 -4.9332581 1.5806706
5.876009 -4.9196692 1.5738292
5.8952293 -4.9128723 1.5799413
5.906281 -4.9032288 1.5869287
5.9113483 -4.8977885 1.5718119
5.9015856 -4.8908901 1.5784236
5.9153404 -4.8691611 1.5868632
5.9264169 -4.8611026 1.5880071
5.9357433 -4.8678141 1.5877944
5.9301739 -4.8440061 1.5850457
5.9445076 -4.8374028 1.5897436
5.9417124 -4.8461981 1.5798351
5.952064 -4.8226409 1.5885183
5.8158274 -4.6910253 1.6152914
5.8190827 -4.6852636 1.6226196
5.8272099 -4.6760988 1.608613
5.8219376 -4.6800017 1.6080922
5.8450937 -4.6596384 1.6073771
5.8493819 -4.6567473 1.611688
5.8534465 -4.646214 1.6115354
5.8547506 -4.6481233 1.6097045
5.8607411 -4.6395926 1.6107876
5.876812 -4.6274629 1.6071279
5.8815546 -4.6056223 1.6229106
5.8763981 -4.6070833 1.6163492
5.8985586 -4.6069627 1.6108378
5.8867011 -4.5986495 1.6132998
5.894311 -4.5737033 1.6079922
5.9011946 -4.5709801 1.617433
5.9123774 -4.5706935 1.6092556
5.9233966 -4.5555916 1.6110086
5.9325728 -4.5409765 1.6131231
5.9428205 -4.536757 1.6191888
5.9493976 -4.5342498 1.6189075
5.9517455 -4.5233426 1.6089685
5.9475203 -4.5167065 1.6109442
5.9577723 -4.5083489 1.6130189
5.9704747 -4.4987903 1.6118163
5.8209391 -4.3702865 1.6617645
5.8175859 -4.3556638 1.6470976
5.8260446 -4.3563976 1.6592823
5.8362441 -4.3543186 1.6578227
5.8485475 -4.3483434 1.6523144
5.8469048 -4.3421311 1.6610363
5.8449697 -4.3199005 1.6523795
5.8530841 -4.3082118 1.662064
5.8631625 -4.3125768 1.6518025
5.8753042 -4.2905335 1.6627876
5.8862324 -4.2873898 1.6554961
5.8904366 -4.2737045 1.6547161
5.8799624 -4.2776551 1.6450832
5.9016614 -4.2574892 1.6494017
5.9018893 -4.2510915 1.6515594
5.8965974 -4.2523966 1.6517841
5.9200158 -4.2416859 1.6460865
5.9147663 -4.228898 1.6439159
5.9191895 -4.232058 1.6492102
5.9333396 -4.2090912 1.6483693
5.9384637 -4.2011995 1.6624854
5.9362845 -4.1950955 1.6620914
5.9533134 -4.1854463 1.6495429
5.9606981 -4.1800666 1.6489488
5.9523897 -4.1804171 1.6465319
5.9662275 -4.1720057 1.6545813
5.8191638 -4.0534239 1.6817651
5.8073483 -4.0389261 1.6968304
5.8133507 -4.0259171 1.6804823
5.824636 -4.0246577 1.6988395
5.8350692 -4.0241637 1.6968185
5.8396072 -4.0117264 1.692623
5.84374 -3.9881253 1.6897905
5.8553123 -3.9829941 1.6840426
5.8462796 -3.9720137 1.6896415
5.8548188 -3.9730268 1.6953411
5.8713956 -3.9658084 1.6986171
5.8784847 -3.9560564 1.6882887
5.8806272 -3.945941 1.6828593
5.8864102 -3.9501684 1.690571
5.8905392 -3.9295793 1.6906509
5.8926358 -3.9300575 1.6950346
5.8905253 -3.9119973 1.6948776
5.905571 -3.9079471 1.6917027
5.9148569 -3.8985009 1.6913512
5.9097304 -3.8860755 1.6818216
5.9302921 -3.8826218 1.6913378
5.9341178 -3.8776164 1.6824255
5.9276042 -3.8759942 1.6954404
5.9356494 -3.8541028 1.696032
5.9513946 -3.8535857 1.6890093
5.9472084 -3.8364635 1.693297
5.9473939 -3.8269317 1.6874261
5.9674115 -3.8278229 1.6973788
5.964242 -3.8248851 1.6885434
5.9607096 -3.8125193 1.6838917
5.9676361 -3.8050261 1.6944441
5.8182278 -3.6935201 1.7184052
5.8255873 -3.6797798 1.7190638
5.8259506 -3.663394 1.7333412
5.8268943 -3.656651 1.7198563
5.8408036 -3.659471 1.7352062
5.8389897 -3.6474702 1.7317933
5.8512931 -3.6408057 1.7191868
5.853538 -3.6226525 1.7212085
5.8469362 -3.6133621 1.7272787
5.8556714 -3.6224637 1.7325177
5.8749471 -3.6004417 1.7353214
5.8615127 -3.5962081 1.7237577
5.8687248 -3.5967481 1.7204648
5.8902035 -3.58147 1.7357926
5.8781853 -3.5773964 1.7201711
5.8815055 -3.56024 1.7284139
5.9014015 -3.5558715 1.7351775
5.90868 -3.5543382 1.7319436
5.8979678 -3.5444758 1.7298425
5.9133153 -3.5309355 1.7304748
5.9138894 -3.5231657 1.7249571
5.9172564 -3.513865 1.7354941
5.9290481 -3.5023751 1.7173052
5.9375348 -3.4944189 1.7262013
5.9413381 -3.4834809 1.7309709
5.9495087 -3.4742115 1.7246898
5.94591 -3.4700236 1.7345634
5.9490633 -3.4635236 1.7177491
5.9489717 -3.4526899 1.7225696
5.9667668 -3.4514523 1.7326953
5.9651828 -3.434572 1.7223494
5.9780698 -3.4392447 1.7330556
5.981482 -3.4170349 1.7269961
5.9866934 -3.4112349 1.7206305
5.8101254 -3.3088965 1.7535944
5.8088431 -3.301121 1.7708911
5.821269 -3.3018067 1.764093
5.8235564 -3.2841899 1.7555054
5.8290186 -3.2715046 1.7694551
5.8392897 -3.265852 1.7563392
5.8396754 -3.2665997 1.7717941
5.8497038 -3.2592654 1.7542593
5.8504267 -3.2533123 1.7706115
5.8450789 -3.2269292 1.7644335
5.8533545 -3.23122 1.7546366
5.8579216 -3.2214153 1.7645104
5.8597741 -3.2037959 1.7655872
5.8748174 -3.2084885 1.7561629
5.8812613 -3.1923072 1.7712996
5.8816433 -3.1904318 1.7639583
5.8888984 -3.1727364 1.7677323
5.8915968 -3.1695671 1.770697
5.896749 -3.1702173 1.7714651
5.898242 -3.1607471 1.7704601
5.8935452 -3.1475215 1.757002
5.8990402 -3.1342375 1.7651799
5.9143977 -3.1235983 1.762802
5.91082 -3.122402 1.7675502
5.9178066 -3.1192362 1.7602919
5.919919 -3.1001515 1.7667154
5.9346781 -3.0982635 1.7626342
5.9331994 -3.0781174 1.7735161
5.9346738 -3.0772479 1.7555351
5.9369054 -3.079303 1.7588059
5.9381199 -3.0704608 1.7670773
5.9458652 -3.0605178 1.7604018
5.9617763 -3.0396006 1.7561283
5.9552979 -3.0466323 1.7648078
5.9535565 -3.0310371 1.7684038
5.9645452 -3.0176787 1.7628289
5.9819455 -3.0138979 1.7708808
5.9752531 -2.9959211 1.7708111
5.9794307 -3.0007837 1.7633373
6.1613402 -3.0759048 1.728868
6.1709075 -3.0656691 1.731616
6.1687346 -3.0519676 1.7360154
6.1798739 -3.0466223 1.7330344
6.1867275 -3.052011 1.7347182
6.1822491 -3.0433857 1.7236875
6.181354 -3.0280046 1.7176999
6.1948724 -3.0194442 1.7271717
6.1964302 -3.001786 1.726293
6.1979065 -3.004148 1.7322185
6.2118969 -2.9845109 1.7228714
6.3851247 -3.0650826 1.6985092
6.3841496 -3.0663874 1.6959128
6.3875608 -3.0408266 1.6900597
6.3879795 -3.0326734 1.6902094
6.410069 -3.0332487 1.6903703
6.4011154 -3.0189562 1.6972922
6.4061618 -3.0153708 1.6841484
6.4206672 -3.014441 1.700031
6.4142818 -2.9962363 1.6849139
6.5919271 -3.0714772 1.6441296
6.602211 -3.0512304 1.656263
6.6047807 -3.0562432 1.6581889
6.6047411 -3.0421159 1.6567671
6.618835 -3.0318298 1.6545839
6.6130662 -3.0237014 1.6629049
6.6274452 -3.0087609 1.6565918
6.6287332 -3.0129962 1.6449316
6.6368647 -2.9869356 1.645263
6.8200159 -3.0724595 1.6181945
6.8289995 -3.0613885 1.6268421
6.8338466 -3.0443215 1.6265321
6.8308134 -3.0489607 1.6119988
6.8296933 -3.0379019 1.6223761
6.8471379 -3.0169985 1.6138169
6.8423858 -3.0061009 1.6241577
6.8459415 -3.005048 1.6202046
6.8431706 -2.9869182 1.6227759
7.0288801 -3.0635993 1.5855013
7.0348635 -3.0414686 1.5711132
7.0504251 -3.0346389 1.5782881
7.0546207 -3.0272343 1.5730156
7.0584927 -3.0271211 1.5735841
7.0478177 -3.0123734 1.5756855
7.0675063 -3.0044134 1.5891582
7.0586219 -2.9854238 1.5839909
7.241086 -3.0638113 1.5336722
7.2586689 -3.0521817 1.5485944
7.2588091 -3.039175 1.5360245
7.2583208 -3.0244598 1.5357724
7.2634301 -3.0184443 1.5525312
7.2757001 -3.0124807 1.5468699
7.2826838 -3.0068791 1.5514911
7.4719849 -3.0711272 1.5043628
7.4617143 -3.0446849 1.5120127
7.4649019 -3.0513201 1.5088037
7.4829078 -3.0406916 1.5140802
7.4872413 -3.0167525 1.5008734
7.4864817 -3.0169313 1.5105547
7.4931383 -3.0018425 1.5048262
7.4995279 -2.9858742 1.5149826
7.6852508 -3.0547705 1.4643054
7.6828103 -3.0477107 1.4657481
7.6849761 -3.0373001 1.4677485
7.6966591 -3.0214376 1.4657831
7.6959772 -3.0066504 1.4667686
7.6920714 -2.9981058 1.4679626
8.4462013 -3.2750113 1.3160278
8.4347324 -3.270323 1.3201243
8.4529295 -3.2431827 1.3288718
8.4453812 -3.2338426 1.3231444
8.4479723 -3.2255437 1.3309904
8.4565306 -3.2239478 1.3151863
8.4665155 -3.2044332 1.3190763
8.4784842 -3.1974678 1.3281068
8.4684715 -3.1754022 1.3211964
8.4794264 -3.1614447 1.3320967
8.49156 -3.1503193 1.3209009
8.478384 -3.1352329 1.3226244
8.4892883 -3.1265039 1.3197128
8.4889231 -3.1298609 1.3143595
8.5028143 -3.1151478 1.3255171
8.5045347 -3.0963809 1.3264762
8.5104342 -3.0921178 1.3151492
8.5202074 -3.080358 1.3189805
8.5189943 -3.063067 1.3330644
8.5308552 -3.039259 1.3292862
8.5335989 -3.0277405 1.3248079
8.5251303 -3.0338039 1.3235842
8.5383682 -3.0133531 1.3192517
8.5286789 -2.9976401 1.319718
8.7191019 -3.0576024 1.2863867
8.7352734 -3.0347152 1.2966266
8.7323875 -3.0302517 1.2792672
8.7381582 -3.0203218 1.2817994
8.7477427 -3.0158949 1.2897484
8.7513933 -3.0038812 1.289625
6.7120438 1.6019793 1.7718614
6.7153811 1.6061628 1.7864791
6.7061586 1.6199685 1.7757561
6.7071323 1.6394019 1.7794933
6.7136974 1.648566 1.7764407
6.7042503 1.6443851 1.7842999
6.6931996 1.6545686 1.7858888
6.7023945 1.6763861 1.7856592
6.693193 1.6708373 1.7778612
6.7024546 1.6812561 1.7735059
6.6954808 1.6985066 1.7833316
6.6977754 1.7013211 1.767982
6.6946745 1.7171521 1.7770822
6.6808376 1.7162095 1.7762634
6.6907248 1.7240971 1.775259
6.6775465 1.7448162 1.7807276
6.6722145 1.7567756 1.7870364
6.668458 1.7602344 1.785823
6.6644592 1.7768095 1.769724
6.4823771 1.7344217 1.8099331
6.48627 1.7376931 1.8028399
6.4799757 1.7456154 1.8092344
6.4783192 1.7528065 1.8221364
6.4657507 1.7685434 1.8047755
6.4723501 1.776563 1.8059853
6.4579329 1.7738131 1.8186007
6.4689717 1.7881526 1.8138653
6.4663067 1.8011702 1.8032819
6.4624157 1.8126366 1.8199703
6.4624133 1.8147538 1.815526
6.4473848 1.8231664 1.8053222
6.44525 1.8277 1.8140131
6.4494977 1.8530051 1.8208711
6.4466348 1.8481818 1.8144453
6.4463983 1.8724113 1.8070219
6.4473591 1.864689 1.8078347
6.4409227 1.8904839 1.8139765
6.4297385 1.8961045 1.8041292
6.427958 1.9003372 1.8167449
6.2340674 1.8512356 1.8377005
6.2445841 1.8652179 1.8428496
6.2248855 1.8796068 1.8435396
6.2338653 1.8807969 1.8405454
6.229691 1.88169 1.8437421
6.2190785 1.9049252 1.8421862
6.2210307 1.9117124 1.8439298
6.223784 1.9146668 1.8424932
6.2126665 1.9290531 1.837706
6.2116899 1.9242878 1.848184
6.2233167 1.9370594 1.8564445
6.2206645 1.9429237 1.8499906
6.2031493 1.9516765 1.8492326
6.2063122 1.9720091 1.8409753
6.2064686 1.9707792 1.8449254
6.2098098 1.9815611 1.8434286
6.1915827 1.9969312 1.8400406
6.195087 1.9977026 1.8509321
6.1971431 2.0100169 1.8475391
6.1943998 2.0240269 1.8507135
6.1821222 2.0323484 1.8379961
6.1780934 2.040714 1.8424832
6.0006161 1.9726536 1.8822898
5.9894376 1.991835 1.8785541
5.9899898 1.9939055 1.8849401
5.9944806 2.0020621 1.8734636
5.9774628 2.0147486 1.8887165
5.9770455 2.0137086 1.8761039
5.9675083 2.0375054 1.8871728
5.974566 2.041352 1.8836226
5.964787 2.0557263 1.8797687
5.9622788 2.0488889 1.8756592
5.9642458 2.0743856 1.8764915
5.9707851 2.0714586 1.888153
5.9535775 2.0718505 1.8735365
5.9627442 2.0995116 1.8787318
5.960423 2.0929446 1.8882732
5.9533429 2.108762 1.8884379
5.9536386 2.1178551 1.8840666
5.9449916 2.1168306 1.8752129
5.9327826 2.1288633 1.8924087
5.9367085 2.1412358 1.874446
5.9365134 2.1384349 1.8736632
5.9371386 2.1650445 1.8816404
5.9294143 2.1573291 1.8817006
5.9270616 2.1816745 1.881117
5.9298925 2.1866045 1.8856657
5.7375355 2.1192644 1.9129574
5.730145 2.1229985 1.9258269
5.7383718 2.1410263 1.9093834
5.7177343 2.1497974 1.9166882
5.7342811 2.1454582 1.9280851
5.7128539 2.1638992 1.9084049
5.7106328 2.1659527 1.9270624
5.7163782 2.1832798 1.9097365
5.7221723 2.1812639 1.9084927
5.7073717 2.185101 1.9239194
5.6971087 2.2043321 1.9118582
5.6989036 2.1991217 1.915538
5.6935573 2.2250984 1.9092566
5.6917562 2.2334089 1.9237616
5.6972485 2.2412488 1.9259468
5.6941271 2.2506554 1.9185965
5.6913142 2.2408459 1.9253273
5.6871476 2.2597973 1.9214171
5.6856441 2.2675703 1.9275274
5.6828856 2.2635806 1.9095151
5.6755433 2.2723773 1.9227786
5.6761284 2.2860293 1.9228806
5.6603818 2.2974062 1.9210126
5.6583433 2.3100646 1.9195126
5.6707988 2.3113089 1.9179144
5.6654282 2.3125362 1.917789
5.6526966 2.3340664 1.9199245
5.4646649 2.259536 1.9483091
5.4748363 2.2614067 1.961323
5.471108 2.283668 1.9624311
5.4693565 2.2817469 1.944424
5.4608579 2.2835817 1.9521614
5.4524508 2.2928524 1.9433727
5.4421649 2.3032777 1.9593437
5.4503684 2.3093624 1.9486649
5.4369631 2.3132918 1.951324
5.4434218 2.3277156 1.947628
5.4320054 2.3393645 1.9565418
5.4337401 2.3443284 1.9597043
5.4284787 2.3487175 1.9575105
5.4243145 2.3545196 1.9457822
5.4221325 2.3749981 1.9482801
5.4276776 2.370255 1.9524443
5.4244237 2.378422 1.959434
5.41713 2.3979998 1.944913
5.4191465 2.3873894 1.9467306
5.4038124 2.4064658 1.9553856
5.4047713 2.4173644 1.9481076
5.3946333 2.4132469 1.9582162
5.4076476 2.4271274 1.9451411
5.3984575 2.440114 1.9502999
5.3975286 2.4341996 1.9483734
5.379087 2.4571216 1.9541448
5.384799 2.4600911 1.960529
5.3774905 2.4590795 1.958941
5.3756504 2.4634075 1.9591975
5.3756175 2.4757345 1.95099
5.3642292 2.4923644 1.9461451
5.1869493 2.4193845 1.9848742
5.1784863 2.4253609 1.9947348
5.1769385 2.4255226 1.9900602
5.1805391 2.4281416 1.9919542
5.1822033 2.4357154 1.9892578
5.1696286 2.4524088 1.9820236
5.1634283 2.4652109 1.986275
5.1756296 2.4596012 1.9873564
5.1680779 2.4773967 1.9932718
5.152308 2.4672527 1.9883286
5.1516838 2.4818914 1.9857484
5.1545558 2.4914212 1.981915
5.1472778 2.5027668 1.9910188
5.1353159 2.5010872 1.9955215
5.1452374 2.5044558 1.9803829
5.132453 2.5186441 1.9947271
5.1324244 2.5300362 1.9946676
5.1366372 2.537044 1.9817975
5.1219211 2.5399241 1.9795265
5.1331105 2.5504692 1.9799204
5.1193471 2.563834 1.9877661
5.122993 2.563525 1.99796
5.1227961 2.5794029 1.9923224
5.2875447 2.6753111 1.9626106
5.2808104 2.6763527 1.9443228
5.2789273 2.6881042 1.953061
5.271378 2.683331 1.9460337
5.2637591 2.6862848 1.9588618
5.2632594 2.6980467 1.9474224
5.260479 2.7045321 1.9593852
5.2580819 2.720798 1.957575
5.2635202 2.7242639 1.9483231
5.2591424 2.7310967 1.9478213
5.2491169 2.7304001 1.9475865
5.2445922 2.7466767 1.9610305
5.2417688 2.7447879 1.9588677
5.227674 2.7590778 1.9445788
5.2265415 2.7694874 1.9458959
5.2382269 2.7831457 1.9516325
5.2184629 2.7777824 1.9565175
5.4043527 2.8864579 1.9151137
5.3945913 2.891927 1.925072
5.3955674 2.8968074 1.9145417
5.3760314 2.8954616 1.9159988
5.3762498 2.9134007 1.9264218
5.3699021 2.9123363 1.9276506
5.3613811 2.9210074 1.9158694
5.3585606 2.9323859 1.9272028
5.3570466 2.9393003 1.9249057
5.361259 2.9503112 1.9099612
5.3503461 2.957381 1.9237469
5.3532414 2.9586999 1.9154862
5.3460846 2.9650156 1.924596
5.3483872 2.9758267 1.9248557
5.3321366 2.9908984 1.9155558
5.4980211 3.0999582 1.8824761
5.4932671 3.1085153 1.8858027
5.4967208 3.0983248 1.8730264
5.491497 3.1107039 1.8796885
5.4839659 3.1313891 1.8898911
5.4814796 3.1252656 1.8796993
5.4727683 3.146152 1.8833677
5.4757853 3.1440067 1.8858989
5.4679017 3.1482995 1.8917941
5.4602671 3.1604872 1.8853194
5.4633222 3.1709929 1.884185
5.4485092 3.1810451 1.8839381
5.4570127 3.178863 1.8858373
5.4527287 3.1957798 1.8924583
5.6049047 3.2891209 1.8568906
5.6173253 3.304934 1.8427767
5.5995431 3.31639 1.8419101
5.6054182 3.315228 1.8512651
5.5938139 3.3305581 1.8572859
5.5880938 3.3426397 1.8478734
5.5958881 3.3421729 1.8413521
5.5825372 3.351301 1.8572745
5.5689287 3.3533502 1.8434125
5.577208 3.3755441 1.8388712
5.5720983 3.3845451 1.8404586
5.5666318 3.3905559 1.8500384
5.5670414 3.3833842 1.8432598
5.5465732 3.4066987 1.8475115
5.7232776 3.5059528 1.8040692
5.7180195 3.5214314 1.820136
5.7033381 3.5293477 1.8079476
5.7021241 3.5285671 1.8171053
5.6968217 3.5388424 1.8205367
5.6976461 3.5420735 1.8183932
5.6939182 3.5648811 1.8174883
5.6717663 3.5669198 1.8148382
5.6791835 3.5740759 1.8172673
5.679811 3.5854831 1.8152683
5.6646791 3.5904958 1.8218651
5.6613164 3.5951352 1.8159767
5.8200898 3.7157085 1.7748252
5.820436 3.7144866 1.7801657
5.8099284 3.7328796 1.7678385
5.8028407 3.7370257 1.7708062
5.7935987 3.7423835 1.768652
5.8034401 3.7505403 1.780614
5.7906199 3.751076 1.771817
5.7802176 3.7572117 1.7865183
5.7878056 3.7731993 1.778331
5.7819786 3.7908189 1.7868886
