# .PCD v0.7 - Point Cloud Data file format
VERSION 0.7
FIELDS x y z
SIZE 4 4 4
TYPE F F F
COUNT 1 1 1
WIDTH 1518
HEIGHT 1
VIEWPOINT 0 0 0 1 0 0 0
POINTS 1518
DATA ascii
-6.4080753 3.0509994 0.91501111
-6.4004483 3.0582659 0.91051006
-6.4010725 3.0378914 0.92573911
-6.4066987 3.0263541 0.9226253
-6.4238391 3.0293477 0.91306293
-6.4172282 3.0196621 0.92035109
-6.6074033 3.0788288 0.85548407
-6.6019869 3.0872245 0.87066734
-6.6141047 3.0660784 0.85967046
-6.6155472 3.0608804 0.85766339
-6.6222186 3.053087 0.85908324
-6.619081 3.0371666 0.85672182
-6.6204319 3.0248554 0.86294395
-6.6265407 3.0311384 0.86659259
-6.6357503 3.0044894 0.86220455
-6.8094277 3.0874221 0.80055648
-6.8209953 3.0792582 0.80264008
-6.8208666 3.0607941 0.80234951
-6.825541 3.0544827 0.81014913
-6.8211989 3.0509865 0.80199301
-6.8388505 3.025064 0.79529184
-6.8350692 3.0265107 0.80192435
-6.8336358 3.0108256 0.80550557
-7.0217547 3.0900545 0.74808538
-7.0305309 3.0672047 0.74983829
-7.0236812 3.0697761 0.74502629
-7.0419159 3.0450566 0.74157816
-7.038053 3.0447295 0.74919969
-7.0344672 3.0239785 0.74004948
-7.0430679 3.0318065 0.75694883
-7.0598106 3.0062065 0.7574771
-7.2398758 3.0834465 0.69245923
-7.2367644 3.0712221 0.69787002
-7.2500572 3.0508499 0.69526219
-7.244206 3.045979 0.69962519
-7.256588 3.0322211 0.69638592
-7.2537675 3.0244787 0.69825965
-7.2543812 3.0248351 0.68964481
-7.4447165 3.0861187 0.63357288
-7.4469323 3.0696442 0.63172948
-7.4522343 3.0606215 0.63414216
-7.4569936 3.0523493 0.62880844
-7.4502053 3.0314608 0.64136475
-7.4579921 3.0215366 0.64366949
-7.4683723 3.0217071 0.63122958
-7.6524386 3.0851066 0.57861364
-7.6417651 3.0639117 0.58494389
-7.6492033 3.0663042 0.58177471
-7.6652408 3.0399055 0.57692045
-7.6607852 3.0355659 0.5859952
-7.6581583 3.030184 0.57645667
-7.6731033 3.0242887 0.56906158
-9.4842567 1.4193293 0.19112037
-9.4800062 1.4013205 0.1904164
-9.4894047 1.3900981 0.18132022
-9.4863453 1.37413 0.18090355
-9.3046103 1.332775 0.24018174
-9.2966366 1.3232278 0.24710436
-9.3073673 1.3023336 0.24711671
-9.3104248 1.2894073 0.23850814
-9.2952671 1.2819897 0.23028095
-9.3116035 1.2638432 0.23305807
-9.3056231 1.2554861 0.23033093
-9.3087111 1.2333255 0.24284488
-9.3124857 1.2236946 0.23738918
-9.3053379 1.2190316 0.22922076
-9.3185892 1.2080624 0.23993614
-9.3090935 1.1869015 0.23409979
-9.3126583 1.176826 0.24036731
-9.3161917 1.1654912 0.24670902
-9.3283148 1.1510943 0.23863612
-9.3286486 1.1421227 0.24542221
-9.3261862 1.1208757 0.23685923
-9.3264322 1.118266 0.23914602
-9.3341465 1.0935894 0.24481466
-9.3272982 1.07775 0.23883544
-9.3286009 1.0703311 0.23490459
-9.3391695 1.0540603 0.2428326
-9.335556 1.0358607 0.23370726
-9.3256569 1.0357442 0.24627154
-9.3293972 1.0251026 0.23746553
-9.3411932 1.0157086 0.23271686
-9.3461847 0.99033922 0.23975226
-9.3397207 0.98626757 0.23721112
-9.3509521 0.97600746 0.24302882
-9.3364964 0.95410335 0.24604461
-9.3480015 0.93238676 0.23468101
-9.3434191 0.92157316 0.24008842
-9.3508902 0.91582614 0.2403398
-9.3474693 0.90141326 0.23352048
-9.3514652 0.88467634 0.22910723
-9.3442497 0.87754244 0.24834961
-9.3417635 0.86679763 0.23527431
-9.3522243 0.84387904 0.23118092
-9.3452082 0.83107346 0.22988291
-9.352356 0.8140496 0.23973808
-9.3564692 0.80682814 0.2409358
-9.3519278 0.80547839 0.24438086
-9.3619614 0.77792829 0.23514165
-9.1605167 0.75951654 0.30110452
-9.1770592 0.73414648 0.28684628
-9.1779985 0.73720908 0.29852214
-9.1796761 0.72395581 0.29252288
-9.1744118 0.70142204 0.29667634
-9.1732235 0.68706661 0.30109718
-9.1733141 0.68670732 0.30156872
-9.1835327 0.66335994 0.28789496
-9.1725349 0.64566094 0.28594914
-9.1780748 0.63901764 0.28953248
-9.1728354 0.6236816 0.30332083
-9.1781664 0.61283344 0.30455437
-9.1777363 0.60205996 0.30166727
-9.1856136 0.59060353 0.29834494
-9.179472 0.5853889 0.30530831
-9.1891594 0.56232274 0.29073706
-9.174407 0.56010699 0.28862873
-9.1791658 0.52859688 0.29599643
-9.1775808 0.52899021 0.29848987
-9.1779232 0.50473195 0.28716603
-9.194665 0.50658303 0.29333335
-9.1775999 0.48395589 0.30148095
-9.1792831 0.48259237 0.29168466
-9.183836 0.45416832 0.30326268
-9.1916924 0.45268449 0.30245796
-9.1925688 0.44229439 0.29142007
-9.1879978 0.42741889 0.29100052
-9.1855173 0.40852955 0.291906
-9.1956511 0.39195263 0.28604093
-9.1832733 0.37574238 0.28875479
-9.1822014 0.36348209 0.28615785
-9.1949453 0.34896016 0.29377282
-9.199523 0.35341021 0.29286432
-9.1938782 0.33394507 0.29637265
-9.1966381 0.32724249 0.29123896
-9.2001848 0.30026588 0.2885578
-9.1947517 0.29844397 0.30384466
-9.1897202 0.27966848 0.29308644
-9.2037649 0.27130714 0.29859635
-9.2036572 0.25585335 0.30074185
-9.2008171 0.2419834 0.30347359
-9.2005568 0.23586458 0.30453068
-9.1926632 0.22564453 0.30288568
-9.2056599 0.20152695 0.29462418
-9.1951303 0.19508991 0.29250929
-9.1897163 0.18552871 0.29626757
-9.1869659 0.16180551 0.29105437
-9.1889105 0.14350076 0.2999166
-9.2015963 0.13152 0.29326892
-9.1887531 0.11999816 0.30401945
-9.1937466 0.11164912 0.29375249
-9.1959906 0.10387594 0.2902196
-9.1971598 0.084293664 0.28931999
-9.1999559 0.071993791 0.29715651
-9.1909952 0.070484668 0.29141012
-9.2041321 0.054632641 0.28895697
-9.1934919 0.041756585 0.29563543
-9.0162086 0.026857741 0.3534146
-9.0018845 0.020017011 0.35551801
-9.0141897 0.0061908849 0.35895517
-9.0157261 -0.01247513 0.34689915
-9.007513 -0.033249266 0.35992602
-9.0028152 -0.035074428 0.34622684
-8.9989986 -0.059595555 0.35308415
-9.007328 -0.055074144 0.35128886
-9.0013866 -0.083625048 0.34649813
-8.9978809 -0.081489965 0.36168805
-9.007679 -0.093882084 0.35512146
-8.9962311 -0.11193916 0.35430306
-9.0026617 -0.12230884 0.35224748
-9.0056381 -0.13424054 0.34411475
-9.0006523 -0.15800121 0.34779671
-9.0026217 -0.15712374 0.3422423
-8.9982738 -0.1725077 0.34475547
-9.0070505 -0.19631654 0.34437856
-8.9976053 -0.19429663 0.34803918
-9.0129328 -0.20890109 0.34642312
-9.0130529 -0.23345147 0.34500298
-8.9997215 -0.24671891 0.35811359
-9.0071917 -0.2466 0.35344213
-8.9966993 -0.26965755 0.34942624
-8.9943228 -0.28794754 0.35423672
-9.0082464 -0.28844306 0.35251138
-9.0077066 -0.30484331 0.34798843
-9.0046368 -0.31029093 0.35224265
-9.0019255 -0.32658124 0.35110238
-8.9955368 -0.33850488 0.34794283
-8.9907455 -0.35087192 0.35281768
-9.0073576 -0.37024897 0.35700935
-8.9908419 -0.37745434 0.35390371
-8.9989796 -0.39454362 0.36032382
-8.9911156 -0.40964955 0.36103669
-8.9984236 -0.41909006 0.35383621
-8.9874392 -0.42841959 0.34281707
-9.0009604 -0.4351249 0.35893127
-8.9902096 -0.45958295 0.35133556
-9.0005817 -0.45813301 0.34439588
-8.9940958 -0.47239119 0.3576681
-8.9827175 -0.48377752 0.34414163
-8.9871302 -0.49918142 0.35598731
-9.1861401 -0.53449982 0.28677014
-9.1871872 -0.55156499 0.29157341
-9.1875038 -0.55652452 0.29951137
-9.3664637 -0.58313125 0.23414384
-9.3649464 -0.59212029 0.23119484
-9.5587244 -0.62355983 0.17981006
-9.568635 -0.63373303 0.17899734
-9.7568569 -0.65119088 0.11994685
-9.7403784 -0.66513252 0.11863025
-3.901485 5.007463 1.1971908
-3.9032209 5.0129757 1.1817576
-3.9162462 4.9927068 1.1870216
-3.917321 4.9893842 1.1937391
-3.8086994 4.8360724 1.2486429
-3.8136969 4.8251219 1.2494428
-3.8155277 4.8188682 1.2444669
-3.827915 4.8295274 1.2525221
-3.8278828 4.8118086 1.2368224
-3.8408244 4.8194818 1.2359535
-3.8540752 4.7981358 1.2439054
-3.8437288 4.8020205 1.2428282
-3.8488081 4.79984 1.2469496
-3.8686156 4.7835364 1.2532258
-3.8616984 4.7836056 1.2425141
-3.8750165 4.7854033 1.2461818
-3.887527 4.772089 1.2489359
-3.885006 4.7730989 1.2476978
-3.8944221 4.7608452 1.2540994
-3.8995302 4.7623463 1.2535419
-3.9054997 4.7572851 1.2370151
-3.9235096 4.7492518 1.2497597
-3.799643 4.5950193 1.3008661
-3.8143873 4.5956111 1.3059272
-3.8228478 4.5897794 1.2964717
-3.8220124 4.5772815 1.2942379
-3.817502 4.578917 1.3041229
-3.83023 4.5697098 1.3004601
-3.8441887 4.5577149 1.3099947
-3.8517382 4.5472336 1.3064911
-3.8598378 4.5573964 1.3033966
-3.8644564 4.5361547 1.2977481
-3.856323 4.5424323 1.2911495
-3.8722227 4.54035 1.2904688
-3.8830535 4.5361843 1.3092915
-3.8833323 4.5192232 1.3009598
-3.8858373 4.5131345 1.2996161
-3.8984499 4.5206728 1.2944267
-3.8947175 4.5005994 1.3026133
-3.9014428 4.4993162 1.3056977
-3.911664 4.4962654 1.3043327
-3.9249723 4.4949207 1.3071235
-3.9239213 4.4880261 1.3015976
-3.9294612 4.4715419 1.299404
-3.9356742 4.4705286 1.2984681
-3.9430568 4.4755311 1.3060035
-3.9587634 4.4643149 1.2928914
-3.9558058 4.4467659 1.2927672
-3.95803 4.4592209 1.2980283
-3.9720597 4.4512148 1.3074735
-3.9829974 4.4392433 1.2993443
-3.9752922 4.4402122 1.2953551
-3.9847887 4.4284739 1.3099653
-3.9998031 4.4174285 1.2935933
-3.9970031 4.4263959 1.3017192
-4.0151315 4.4141994 1.3003671
-4.0057163 4.4125061 1.2933276
-4.0294061 4.3999734 1.2942761
-4.0332117 4.3914108 1.2932254
-4.0317483 4.3950062 1.3097228
-4.0408316 4.3738432 1.299812
-4.0380363 4.3865571 1.296442
-4.0592227 4.3759384 1.3069137
-4.0657911 4.3564615 1.2919291
-4.0687232 4.3659329 1.2915097
-4.0635214 4.3634162 1.3044996
-4.0796638 4.3564477 1.301411
-4.0828376 4.3519139 1.2914129
-4.0850554 4.3296919 1.2984846
-4.0883155 4.3350425 1.2947918
-4.0950704 4.3174105 1.2955849
-4.1117277 4.3286672 1.2947494
-4.1117473 4.3048234 1.3089612
-4.1212873 4.3004889 1.3093706
-4.1258035 4.2992916 1.3049344
-4.1307311 4.2893581 1.303673
-4.1426611 4.2893357 1.3011428
-4.1376715 4.2921853 1.2997874
-4.1426716 4.2788553 1.3019269
-4.1605921 4.2682953 1.2951419
-4.1621971 4.2770019 1.2964591
-4.1630011 4.255065 1.294775
-4.1646323 4.2591143 1.2949975
-4.1720438 4.2596221 1.2966441
-4.1790376 4.2416029 1.3028611
-4.1904593 4.244638 1.3049201
-4.2031345 4.2417173 1.2927407
-4.1983314 4.2297516 1.3092034
-4.2148757 4.2187438 1.2981367
-4.2092724 4.2157645 1.3023187
-4.2104454 4.2171216 1.3010249
-4.2302933 4.2036085 1.3036199
-4.2318168 4.1943889 1.2960982
-4.23311 4.1836748 1.2949263
-4.232748 4.1918759 1.3015858
-4.246161 4.1745558 1.2971393
-4.2575064 4.1704531 1.2956387
-4.261023 4.1770377 1.3080478
-4.2680683 4.1529546 1.2953323
-4.2661724 4.1603422 1.3055294
-4.280086 4.1524167 1.3029834
-4.2752848 4.1504946 1.2928321
-4.2878804 4.1328926 1.2993773
-4.2879891 4.139832 1.3011329
-4.3092618 4.1329603 1.2970222
-4.3038664 4.118494 1.3015319
-4.3029089 4.1184926 1.3078879
-4.3234439 4.1007767 1.3067855
-4.3315611 4.1018085 1.3075646
-4.3323855 4.0905218 1.3017049
-4.3430042 4.0910983 1.2939006
-4.3361602 4.0822444 1.3101637
-4.3394594 4.086555 1.2948217
-4.356205 4.0765085 1.2924247
-4.3511863 4.0709333 1.3091693
-4.3702698 4.056488 1.2974693
-4.3648348 4.0487275 1.2917972
-4.3730354 4.0461497 1.2944465
-4.3823304 4.0411649 1.3041731
-4.3908372 4.0410566 1.3086662
-4.3851953 4.0360231 1.2997973
-4.3873491 4.0235171 1.3081437
-4.3932314 4.0133886 1.3068782
-4.4144468 4.0121822 1.3016515
-4.4180508 4.0016532 1.2969424
-4.424901 3.9976914 1.3038893
-4.4234433 3.9848063 1.3091842
-4.427649 3.9893541 1.2980183
-4.4291964 3.9702322 1.3079922
-4.4410086 3.96822 1.3039906
-4.448319 3.9574573 1.3010956
-4.44449 3.9701402 1.2918431
-4.4523053 3.9625316 1.298618
-4.4613776 3.9392898 1.3103501
-4.4756684 3.9380176 1.297725
-4.474659 3.9354596 1.3073174
-4.4866943 3.9199159 1.310212
-4.4934258 3.9257143 1.3038493
-4.4913144 3.9155042 1.3045676
-4.4992199 3.9190123 1.3094839
-4.5111189 3.9007313 1.3098557
-4.5059037 3.891793 1.3091363
-4.5099325 3.9005432 1.3070419
-4.5271773 3.8857167 1.307947
-4.5326815 3.8820868 1.2938288
-4.5308018 3.8649442 1.3034095
-4.5393209 3.8612361 1.3037105
-4.5449367 3.8562572 1.2960819
-4.5369058 3.8588419 1.3045229
-4.5481482 3.8389637 1.3027588
-4.5544653 3.8326216 1.3090088
-4.5604014 3.8369198 1.2926227
-4.5670485 3.8226066 1.2912967
-4.5757809 3.8164563 1.3014618
-4.5835991 3.8102014 1.2943221
-4.5855265 3.8112164 1.2963724
-4.5778642 3.8090942 1.3010546
-4.5898924 3.7867291 1.3071055
-4.58954 3.7977586 1.3020964
-4.6007376 3.782901 1.3035718
-4.6136899 3.7670724 1.305075
-4.6203837 3.7706449 1.2972542
-4.6234546 3.7728989 1.3015052
-4.6278419 3.75174 1.3059984
-4.6220555 3.7480733 1.2906365
-4.6434002 3.7477808 1.3026972
-4.6426849 3.7404432 1.2990502
-4.6372786 3.7263613 1.2994604
-4.645812 3.7179067 1.2973297
-4.6593456 3.7235203 1.3067783
-4.6513948 3.7214382 1.3068426
-4.661932 3.6979103 1.2969309
-4.6802807 3.6965506 1.295732
-4.6743689 3.6960328 1.2998405
-4.6839552 3.6865225 1.3067559
-4.6888938 3.6808796 1.2998596
-4.6817627 3.6811545 1.2921139
-4.6982698 3.6720295 1.2967817
-4.6943574 3.6595557 1.2994976
-4.7125664 3.6587236 1.294337
-4.7213173 3.6510088 1.2936114
-4.7099953 3.6379147 1.2958822
-4.7285752 3.6316202 1.3033247
-4.7283454 3.6363764 1.2967882
-4.7239971 3.6166766 1.3072873
-4.7327247 3.6171587 1.2986966
-4.7483392 3.6098838 1.2969412
-4.7516904 3.5912046 1.292628
-4.7503643 3.6015315 1.3024155
-4.7663131 3.5787339 1.2979525
-4.7674127 3.5722599 1.2923636
-4.7692294 3.5821743 1.3002762
-4.7687654 3.5585651 1.3084972
-4.7808499 3.5602338 1.3080842
-4.7794614 3.5512884 1.2945886
-4.7875643 3.5386446 1.3081992
-4.7842488 3.5354061 1.3011659
-4.8026791 3.5338273 1.3020917
-4.8054137 3.5185761 1.2999893
-4.7983508 3.512368 1.3017414
-4.815742 3.5100429 1.3036785
-4.8187122 3.5108747 1.302196
-4.8137612 3.4971347 1.3037773
-4.8205791 3.4962649 1.2937071
-4.8278008 3.4817295 1.3013783
-4.8285089 3.4840269 1.3030994
-4.8355966 3.4745672 1.3082826
-4.8497081 3.4715943 1.2985945
-4.8428845 3.4507954 1.3003695
-4.8581538 3.4619577 1.3026576
-4.8516617 3.4406188 1.3093486
-4.8632226 3.4411891 1.3036064
-4.8762569 3.4315817 1.2908657
-4.8677001 3.4200172 1.3040038
-4.869204 3.4260831 1.3093618
-4.8830271 3.4162834 1.3037794
-4.8951201 3.4042289 1.2955059
-4.90202 3.4028864 1.2910352
-4.8985982 3.3931816 1.2925478
-4.8933921 3.3930123 1.292012
-4.9058886 3.3841302 1.2969328
-4.911684 3.3684728 1.3092265
-4.9232121 3.3645573 1.2987218
-4.9274716 3.3539655 1.3034686
-4.9185829 3.3466268 1.3011036
-4.9243269 3.3502123 1.2957681
-4.9356437 3.3264434 1.3052139
-4.9352245 3.3205035 1.3001596
-4.9392662 3.3227038 1.2922493
-4.9417853 3.3148198 1.2910252
-4.9448309 3.2991397 1.3077811
-4.9629459 3.3023543 1.2957482
-4.8083429 3.1927693 1.3618221
-4.8045015 3.1897726 1.3490392
-4.8159046 3.180326 1.3558058
-4.8096628 3.1697876 1.3530529
-4.8287473 3.1525753 1.3534323
-4.8183761 3.1604152 1.3547794
-4.8330503 3.1488366 1.3652413
-4.8356252 3.1393526 1.3547399
-4.8394151 3.1314268 1.3554856
-4.8464394 3.1299806 1.3463795
-4.8454871 3.1273072 1.3605808
-4.8535981 3.1129019 1.3585075
-4.8544827 3.1115122 1.3537161
-4.8685913 3.1007724 1.3651212
-4.8654432 3.0953474 1.3460547
-4.8619061 3.0846827 1.361575
-4.8770127 3.0837243 1.3522701
-4.8816476 3.0645618 1.3602402
-4.8767743 3.0659711 1.3470501
-4.8911462 3.064708 1.3591849
-4.8946142 3.0487399 1.3554238
-4.8838716 3.0489938 1.3640413
-4.8951926 3.0326867 1.3580585
-4.9112954 3.0265851 1.3481317
-4.9159837 3.027936 1.3595814
-4.9197288 3.0171194 1.3471744
-4.9079442 3.0154819 1.3606226
-5.0897489 3.1133165 1.3065813
-5.0794187 3.1002307 1.2959216
-5.0822692 3.0970299 1.2908305
-5.0929747 3.0746086 1.2966089
-5.1074309 3.0671678 1.3094846
-5.1132603 3.072634 1.2929026
-5.1050625 3.0662165 1.2970743
-5.106781 3.0593197 1.3094584
-5.1170402 3.0528777 1.2978927
-5.1196966 3.0424106 1.2915626
-5.1288943 3.0386133 1.3101149
-5.1369767 3.0294561 1.3026953
-5.1357088 3.0217488 1.2991952
-5.1395221 3.0076263 1.3003999
-5.3037605 3.0999281 1.2461491
-5.3090343 3.0938385 1.2396495
-5.3108797 3.0802069 1.2538766
-5.3285427 3.0691066 1.2483569
-5.3338113 3.0719876 1.2435514
-5.3306355 3.0564427 1.2354404
-5.3337793 3.0559204 1.2506999
-5.3383603 3.0515258 1.243976
-5.3503504 3.0325994 1.2367243
-5.3458304 3.0340505 1.2425356
-5.360095 3.021657 1.2512392
-5.3534532 3.028295 1.2412825
-5.3533001 3.0173824 1.2451295
-5.5268497 3.1066587 1.1901708
-5.5380993 3.0811377 1.1806872
-5.5341434 3.083056 1.183112
-5.5382876 3.0660834 1.1924735
-5.5471616 3.0687721 1.1849058
-5.5627489 3.0637028 1.1858827
-5.5655766 3.0473754 1.1957877
-5.5625825 3.0409946 1.180782
-5.5708737 3.0454564 1.1999031
-5.5691109 3.0342612 1.1956062
-5.5834899 3.0216362 1.1945182
-5.5776701 3.0220621 1.1956501
-5.7508068 3.1014738 1.1313003
-5.7521505 3.0900416 1.1328776
-5.7641215 3.074003 1.1449026
-5.763649 3.0666337 1.1396232
-5.7621884 3.0606821 1.125787
-5.7708116 3.0619597 1.1333467
-5.7744288 3.03917 1.1331508
-5.7789135 3.0423563 1.1295483
-5.7876844 3.0353658 1.1411153
-5.7975316 3.0183864 1.1409081
-5.7862358 3.0219345 1.1371776
-5.9749889 3.0965629 1.0749168
-5.9714189 3.095139 1.0798187
-5.9758124 3.0784612 1.085412
-5.9854736 3.0675063 1.0731205
-5.9889588 3.0521796 1.070179
-5.9848733 3.0574751 1.0725263
-6.0009718 3.0425143 1.0861446
-6.0006609 3.043 1.0808624
-6.0087714 3.0178444 1.0866971
-6.017077 3.0281794 1.0841821
-6.0091019 3.0048022 1.0762757
-6.1804194 3.0947831 1.020151
-6.1947522 3.0789199 1.0308539
-6.2034788 3.0776672 1.0189663
-6.2044854 3.0571887 1.0201223
-6.2084212 3.0450442 1.0149502
-6.2099977 3.0410378 1.0231993
-6.2179437 3.0415668 1.0203226
-6.2111597 3.0181987 1.0206842
-6.2185292 3.0107257 1.0197809
-6.4016528 3.0987406 0.96875912
-6.3995352 3.0882416 0.96578348
-6.4183831 3.0676956 0.97560281
-6.4065151 3.0626955 0.9728334
-6.4265227 3.06095 0.97825551
-6.4253621 3.0395176 0.96020901
-6.4293604 3.040746 0.96683782
-6.4250975 3.0382528 0.96268356
-6.4436984 3.0267563 0.96385461
-6.441925 3.0120909 0.96625227
-6.6154408 3.0926378 0.90690053
-6.6305337 3.078455 0.92114991
-6.6285892 3.0697045 0.92381239
-6.6368122 3.0570886 0.91044003
-6.6277919 3.0487199 0.9242934
-6.6333365 3.0457547 0.9056915
-6.6369143 3.0230203 0.91730076
-6.6538506 3.0287664 0.91540575
-6.8302193 3.0790591 0.8558622
-6.8302226 3.0761292 0.8658008
-6.8278155 3.0782611 0.86439693
-6.8295994 3.0695801 0.85806638
-6.837121 3.0471101 0.85224712
-6.8419666 3.0406709 0.86307985
-6.8601708 3.027493 0.85481781
-6.8645086 3.0129983 0.85287005
-6.8674355 3.0191405 0.85747373
-7.035008 3.0892825 0.80196816
-7.0483003 3.0655558 0.80225658
-7.0459752 3.0661116 0.80916315
-7.0536981 3.0533473 0.80775571
-7.0628109 3.0430586 0.80722713
-7.0582409 3.0294943 0.81379461
-7.0594759 3.015317 0.80349475
-7.0698647 3.0071547 0.80959469
-7.2456164 3.0736208 0.75563681
-7.2462916 3.0663455 0.75255764
-7.2623487 3.0519457 0.75248188
-7.2587504 3.048526 0.7585268
-7.2748499 3.0316904 0.75498092
-7.2640281 3.0313771 0.74853015
-7.2745996 3.0061824 0.74165565
-7.4635229 3.0828013 0.69594121
-7.4681292 3.0691149 0.70107347
-7.4630203 3.0492299 0.68792623
-7.471797 3.0548842 0.69637358
-7.4793706 3.0441303 0.68768758
-7.4900084 3.0215714 0.69474959
-7.4807076 3.0068493 0.688546
-7.6638894 3.0715365 0.64051956
-7.6721597 3.0597217 0.63749236
-7.6668653 3.0615311 0.63944191
-7.6884308 3.0364358 0.63516206
-7.6805487 3.0310037 0.64762747
-7.6875196 3.014935 0.63064539
-7.6876225 3.0143292 0.62976116
-9.3165245 1.3870817 0.31594551
-9.3098392 1.3767 0.31429067
-9.3218136 1.3644147 0.31717402
-9.3113976 1.3501354 0.31617898
-9.3226118 1.3248808 0.31061167
-9.3086643 1.3203861 0.30172998
-9.3257198 1.3021042 0.29794678
-9.3154373 1.293219 0.30640066
-9.3205833 1.2798828 0.30168444
-9.3345757 1.2696614 0.2995345
-9.3304806 1.2590163 0.30967748
-9.3340702 1.2369674 0.30245134
-9.3392973 1.2248368 0.31595519
-9.3416224 1.2249975 0.30819768
-9.3249245 1.1958001 0.30820608
-9.3337755 1.1823883 0.31674278
-9.3314896 1.1737412 0.30002338
-9.3329687 1.1571792 0.30744681
-9.3459768 1.1572549 0.31456482
-9.3436813 1.1451042 0.30449465
-9.3435192 1.1187959 0.31681496
-9.3531942 1.1106269 0.30012444
-9.3500786 1.0989426 0.30434382
-9.3534403 1.0866263 0.30176678
-9.3445406 1.072683 0.30303738
-9.3556147 1.0515451 0.30394378
-9.3581343 1.0543314 0.30925289
-9.3573551 1.0372585 0.31105211
-9.3491335 1.0287802 0.30598149
-9.353776 1.0041806 0.30181661
-9.3484707 1.0013095 0.30440226
-9.3508263 0.99031001 0.31187996
-9.369854 0.96395612 0.30073652
-9.364645 0.95575154 0.31034192
-9.3619938 0.93793887 0.29907131
-9.3580542 0.93052649 0.29973236
-9.3731899 0.92205119 0.31625113
-9.362998 0.89579356 0.30877045
-9.3709888 0.89917707 0.30588704
-9.3640318 0.87931973 0.31148136
-9.3812218 0.86615145 0.307284
-9.3758078 0.85199255 0.30516854
-9.1913958 0.82324612 0.36492917
-9.1895866 0.81821167 0.35442349
-9.1781549 0.79713857 0.35919207
-9.1779757 0.78129733 0.36963701
-9.1771183 0.77159446 0.36469722
-9.1797228 0.75333905 0.36659211
-9.1897907 0.74833035 0.36496457
-9.182724 0.73149776 0.35657552
-9.1900454 0.71867645 0.3681156
-9.2015467 0.71245211 0.35859591
-9.1951447 0.70030242 0.37033692
-9.1841106 0.67108393 0.3698785
-9.2035646 0.67440218 0.36118355
-9.1982327 0.65898651 0.36948541
-9.2024374 0.64549804 0.36092401
-9.1915636 0.63045549 0.36694822
-9.1987772 0.60637826 0.36080629
-9.2076006 0.61038291 0.37067571
-9.2047949 0.5880639 0.36056921
-9.1904316 0.57522374 0.35708508
-9.2055693 0.56974715 0.3542994
-9.2089491 0.55624777 0.35514468
-9.1927681 0.54422009 0.37215891
-9.205265 0.51843262 0.36660954
-9.2094421 0.50933039 0.36042494
-9.2021618 0.49197358 0.37205228
-9.2088404 0.48825714 0.37245816
-9.201642 0.47655356 0.36972558
-9.2045565 0.46847379 0.35753202
-9.1975603 0.45555797 0.36535752
-9.2140293 0.42828637 0.36056671
-9.2132664 0.41840008 0.35513788
-9.2116404 0.40544069 0.37054384
-9.2129822 0.40071326 0.35302576
-9.2198544 0.39251971 0.35926992
-9.2128944 0.37229863 0.36102271
-9.2142887 0.36607426 0.37192547
-9.2152596 0.34770471 0.36399198
-9.2189445 0.32705939 0.36084697
-9.2148046 0.31403184 0.35765526
-9.2228222 0.30513799 0.36006191
-9.2156115 0.29759213 0.36545306
-9.2138128 0.27223963 0.37075648
-9.2165899 0.26609471 0.36420482
-9.2168665 0.25360802 0.36233279
-9.2108812 0.248595 0.35311353
-9.2231255 0.222683 0.37054449
-9.2244492 0.21627791 0.36248115
-9.2136879 0.20664722 0.36664838
-9.2260532 0.18159737 0.37066463
-9.2215929 0.16895388 0.35866418
-9.2147083 0.16392598 0.3719956
-9.222414 0.16108485 0.3728528
-9.2247982 0.1358365 0.36044389
-9.2137165 0.13066284 0.3684276
-9.0322533 0.10964298 0.41942492
-9.0322237 0.099128328 0.42224365
-9.0347462 0.087588184 0.41153798
-9.0253134 0.067089073 0.42408267
-9.0316963 0.054486025 0.42445898
-9.0340452 0.046587322 0.42507362
-9.0283775 0.04579965 0.41354248
-9.0293598 0.017514206 0.41205266
-9.0294685 0.0070344084 0.41819718
-9.0219679 0.0078086448 0.41205105
-9.0264654 -0.022035105 0.41993338
-9.0350952 -0.031716067 0.40991604
-9.0208893 -0.04380326 0.42097375
-9.0173702 -0.046360005 0.42414767
-9.0212898 -0.055219039 0.42733395
-9.0248146 -0.08636409 0.4152371
-9.0277081 -0.091795594 0.41496819
-9.0221148 -0.098182097 0.41902953
-9.0179939 -0.12466638 0.42522675
-9.02771 -0.12365734 0.42481393
-9.0235558 -0.14717123 0.42717302
-9.0315008 -0.15935755 0.41246676
-9.0294456 -0.15739754 0.41828889
-9.0163155 -0.17199686 0.41416973
-9.0199938 -0.1906108 0.41380689
-9.0204678 -0.21286303 0.41491416
-9.0130215 -0.21813887 0.42320499
-9.0258265 -0.23796947 0.4177241
-9.0145521 -0.23384462 0.41837358
-9.0170631 -0.25961974 0.41264644
-9.019969 -0.26144093 0.4160195
-9.0204992 -0.27142587 0.41982007
-9.0157175 -0.29959187 0.41819412
-9.0250959 -0.29488117 0.41458195
-9.0185757 -0.31411988 0.42496866
-9.0124006 -0.33412164 0.42571551
-9.0251017 -0.34698328 0.41379848
-9.0094929 -0.3529737 0.41466236
-9.0193481 -0.36803153 0.41226217
-9.0085363 -0.38595954 0.41669741
-9.0234346 -0.38717052 0.41192153
-9.0149412 -0.40930536 0.40977022
-9.0226307 -0.42707029 0.41206187
-9.0119276 -0.43464312 0.41167259
-9.0048189 -0.43614301 0.42465234
-9.0073071 -0.45193279 0.41023743
-9.0090303 -0.46090516 0.41556734
-9.0026522 -0.47476926 0.42751259
-9.0153933 -0.49900597 0.41700503
-9.0105171 -0.5129658 0.42117381
-9.0011883 -0.52237576 0.41673514
-9.208519 -0.53538024 0.36761755
-9.2060652 -0.56541187 0.36848387
-9.3931704 -0.57739908 0.29923162
-9.3887625 -0.59111553 0.3162266
-9.583189 -0.62054878 0.2548843
-9.5801611 -0.64004183 0.25231498
-9.571785 -0.65383291 0.24847911
-9.7632236 -0.67445022 0.19785625
-9.7733536 -0.67777717 0.20101605
-9.9510365 -0.70643085 0.15221359
-9.9613781 -0.73759913 0.1496644
-3.7892556 4.8663921 1.2978871
-3.8034625 4.843586 1.2887914
-3.8189688 4.8529253 1.2978349
-3.8269773 4.841917 1.2848414
-3.8207817 4.8411932 1.2944721
-3.8315592 4.8342795 1.2845674
-3.8404768 4.8273206 1.2819999
-3.8380926 4.8158407 1.2925345
-3.8531084 4.8154497 1.2926633
-3.8549519 4.8169427 1.284301
-3.8673518 4.8108358 1.2832648
-3.8764615 4.7972775 1.2847447
-3.8746595 4.79496 1.2808959
-3.8838062 4.7913747 1.2913798
-3.8859391 4.7807174 1.2864906
-3.8984334 4.7860079 1.3000479
-3.900825 4.7690988 1.2920158
-3.9057763 4.7612839 1.2978823
-3.9201856 4.7651558 1.288746
-3.934458 4.7538795 1.2865001
-3.9370854 4.7568913 1.2835546
-3.9407413 4.7374735 1.2924666
-3.9429095 4.7465301 1.2844871
-3.9489188 4.7331052 1.298357
-3.9644363 4.7242045 1.287014
-3.9648354 4.7294598 1.2864149
-3.9716697 4.7189655 1.2943692
-3.9865282 4.7101545 1.2999809
-3.9755123 4.7135615 1.294946
-3.9936249 4.6893153 1.2841254
-3.9939756 4.6890535 1.2818165
-3.9972641 4.6917396 1.2855988
-4.0116324 4.678854 1.2839561
-4.0139728 4.6865473 1.2944157
-4.0224357 4.6653042 1.2815118
-4.022233 4.6702352 1.2994089
-4.0426221 4.6548977 1.2923671
-4.035049 4.6512589 1.2820785
-4.0418558 4.6451864 1.2807704
-4.05369 4.647543 1.2807987
-4.0563369 4.6360831 1.2861567
-4.0612845 4.6278615 1.2998018
-4.0824418 4.6317902 1.2861712
-4.0852342 4.6198897 1.2858534
-4.097559 4.606029 1.2899207
-4.1027794 4.5988665 1.2845563
-4.1100945 4.5978022 1.2895004
-4.104444 4.5907907 1.2964615
-4.1090736 4.5834436 1.2830143
-4.1150036 4.5907259 1.2975974
-4.1208968 4.5818176 1.2864034
-4.1414242 4.5744095 1.2926794
-4.1482987 4.5722833 1.2885847
-4.1487956 4.5537972 1.2982987
-4.1496019 4.5494099 1.2998711
-4.1663327 4.5462184 1.3000083
-4.1684203 4.5421195 1.2848177
-4.1655555 4.5300717 1.2883612
-4.1757212 4.5397859 1.2903119
-4.1793261 4.529954 1.2853086
-4.1883397 4.5206046 1.2971691
-4.188539 4.5170956 1.2874024
-4.2024541 4.5130725 1.2812998
-4.2004561 4.494904 1.2825099
-4.2087355 4.5022726 1.285141
-4.2154341 4.4992456 1.2903972
-4.2219877 4.4804592 1.2973801
-4.2437234 4.4708562 1.2981492
-4.2419071 4.4773989 1.2944758
-4.238132 4.4666395 1.2868227
-4.2593517 4.4531612 1.2956811
-4.268703 4.4657707 1.2869003
-4.2678127 4.4507427 1.2999746
-4.2730165 4.443984 1.2807676
-4.2770014 4.4352074 1.2948252
-4.2783475 4.4259858 1.2917609
-4.2944288 4.4364562 1.2958232
-4.3035188 4.4114285 1.2962052
-4.3118315 4.4144459 1.2890605
-4.3038087 4.4074593 1.2970961
-4.323431 4.4054651 1.2976018
-4.3141861 4.4003243 1.2966737
-4.333714 4.3822694 1.2866836
-4.3401589 4.3851986 1.2959086
-4.3458028 4.3703218 1.28234
-4.3373799 4.38027 1.2855415
-4.3520131 4.3602991 1.2852138
-4.3625755 4.3573923 1.2858673
-4.3727474 4.3523192 1.2955556
-4.3700557 4.3414054 1.2842832
-4.3793197 4.3369985 1.2970512
-4.3880692 4.3279572 1.2907213
-4.3977385 4.3254995 1.2923884
-4.3973889 4.322701 1.2830449
-4.4078064 4.320354 1.2848933
-4.4117832 4.3125167 1.2827671
-4.4125504 4.296124 1.2867558
-4.4136367 4.2952385 1.2939322
-4.4340606 4.2902427 1.2821379
-4.4247875 4.2939916 1.2855413
-4.4267783 4.2745204 1.2906575
-4.4359922 4.2723355 1.2928603
-4.4515276 4.2665086 1.2987423
-4.4453869 4.2670488 1.2879708
-4.4685812 4.2631826 1.2810055
-4.4699187 4.2413402 1.2923645
-4.4733734 4.2447238 1.293501
-4.4728308 4.2330055 1.2999308
-4.4851027 4.2268391 1.2875516
-4.4891605 4.2159119 1.2851163
-4.4898062 4.2089529 1.2894137
-4.5053267 4.218729 1.297738
-4.4986353 4.1989112 1.2864554
-4.5060534 4.1911659 1.2819419
-4.5242343 4.1861501 1.2997988
-4.5293717 4.1857119 1.2820585
-4.5231409 4.1877251 1.2939551
-4.5357652 4.1761785 1.280395
-4.5419507 4.1582484 1.2869382
-4.5405064 4.1621408 1.2888325
-4.5614886 4.1512589 1.290054
-4.5581646 4.1507187 1.2873462
-4.5665073 4.1427236 1.2911233
-4.5661235 4.1331549 1.2934659
-4.5702443 4.1312418 1.2971116
-4.5764995 4.1300187 1.2866462
-4.5804858 4.1208444 1.2845296
-4.5925665 4.1048555 1.2972097
-4.5981984 4.1084819 1.2983115
-4.5972786 4.0993443 1.2896651
-4.6144547 4.0950079 1.2965046
-4.6104007 4.0797696 1.2891798
-4.6290455 4.081954 1.3002437
-4.6239042 4.0702782 1.288131
-4.6364112 4.0602288 1.2805051
-4.6452637 4.0496631 1.2980639
-4.6445718 4.0608401 1.2928643
-4.645988 4.0456576 1.2981
-4.6547151 4.0305543 1.2933943
-4.6623311 4.0220737 1.2859912
-4.6585841 4.0221105 1.2806995
-4.6679893 4.0118861 1.2866256
-4.6847095 4.0086927 1.2811999
-4.6903567 3.9963071 1.2905701
-4.6881075 3.9970722 1.2963709
-4.6934752 3.9946334 1.2980934
-4.7012749 3.9785259 1.2974887
-4.7142649 3.9866326 1.2882046
-4.7220101 3.9716339 1.2903284
-4.7144518 3.9746313 1.290491
-4.7142873 3.9669788 1.2972174
-4.7194052 3.9555156 1.3002541
-4.7385879 3.9529171 1.2866398
-4.743187 3.9302471 1.2871906
-4.7384067 3.9353931 1.2950643
-4.7478161 3.9207289 1.2870656
-4.7554941 3.9238136 1.2895329
-4.7637672 3.9194474 1.2866884
-4.7613153 3.9128661 1.2954345
-4.7767301 3.8993642 1.2937748
-4.7719731 3.8915381 1.2910674
-4.7804804 3.8840969 1.2835091
-4.7859416 3.882966 1.2999724
-4.7850075 3.88272 1.2803935
-4.8035135 3.8727293 1.292596
-4.8141365 3.8587945 1.2967774
-4.8127489 3.8626378 1.290694
-4.8088841 3.8436551 1.2869028
-4.8278546 3.832562 1.2831962
-4.8180699 3.8314824 1.2926612
-4.8299356 3.8205788 1.2809812
-4.8444986 3.8265779 1.2885485
-4.846611 3.8125157 1.2816812
-4.8522501 3.8047788 1.2812717
-4.8574591 3.8039176 1.2975826
-4.8504562 3.7978058 1.2866775
-4.859262 3.7784445 1.2863423
-4.8741417 3.7883015 1.293758
-4.8728037 3.7645321 1.296822
-4.8751621 3.7558823 1.2855551
-4.8880463 3.7606926 1.2901409
-4.8926005 3.7562554 1.2874891
-4.8895783 3.7350125 1.2975465
-4.893414 3.7334273 1.2866454
-4.8976493 3.7319207 1.2816688
-4.9055643 3.7226956 1.2973737
-4.9243746 3.709933 1.2805181
-4.923511 3.7075498 1.2803274
-4.9352217 3.7117548 1.2831826
-4.9238586 3.6988413 1.2842107
-4.9437528 3.6982744 1.2968789
-4.9390521 3.6783738 1.2919472
-4.9369931 3.6667073 1.2926174
-4.9448671 3.6764073 1.2985542
-4.808423 3.5529506 1.3435841
-4.811996 3.5410924 1.3525147
-4.8198552 3.5355976 1.3355565
-4.8245602 3.5361304 1.3430959
-4.8294468 3.530107 1.3417282
-4.8314686 3.5205913 1.3343424
-4.8324528 3.5163162 1.353292
-4.8407593 3.5018678 1.3392507
-4.8339882 3.4945941 1.3404597
-4.8465371 3.4845526 1.3382927
-4.8531399 3.4808424 1.3537139
-4.848444 3.4784865 1.3439982
-4.8548079 3.4731901 1.3355159
-4.8581204 3.4680974 1.3343015
-4.8738842 3.4430182 1.3538057
-4.871006 3.4408071 1.3505429
-4.875504 3.4424925 1.3497608
-4.881043 3.4407427 1.3412927
-4.8806138 3.4306262 1.3523202
-4.8989658 3.4128129 1.3400824
-4.8994756 3.4132395 1.350917
-4.9045544 3.4031959 1.3461854
-4.8993397 3.3916123 1.3429538
-4.9025974 3.3815308 1.3414327
-4.9270597 3.3804905 1.3416419
-4.9320083 3.3871243 1.3464568
-4.9202104 3.3740458 1.3397803
-4.9291849 3.3602052 1.338184
-4.9266176 3.3515606 1.3533077
-4.9330134 3.3493214 1.3374612
-4.9516373 3.3513207 1.3488914
-4.9594169 3.3329792 1.3371344
-4.9519181 3.3245819 1.3406569
-4.8073411 3.2108018 1.3947079
-4.8044267 3.2043369 1.4008548
-4.8012938 3.1976235 1.4005184
-4.8133368 3.1873991 1.393993
-4.812047 3.1928813 1.4005228
-4.8123441 3.1856022 1.4053108
-4.8175077 3.176589 1.3947686
-4.8385086 3.1736042 1.3931412
-4.8280697 3.1674826 1.4000945
-4.8293786 3.1534922 1.405579
-4.8471556 3.1484015 1.3910624
-4.8446126 3.1506896 1.3967985
-4.8559127 3.1405656 1.4025452
-4.8475399 3.1228445 1.4047973
-4.8656831 3.1108496 1.3992679
-4.8572874 3.1229851 1.3932018
-4.8640938 3.1143742 1.4048713
-4.881433 3.1091704 1.400311
-4.8803897 3.0988045 1.3963897
-4.8723841 3.0915189 1.4052453
-4.8788843 3.0708361 1.3957834
-4.8998914 3.0770671 1.395389
-4.895153 3.0563586 1.391656
-4.9046583 3.0683744 1.3969934
-4.911902 3.0465891 1.3971336
-4.9046655 3.0375323 1.3962128
-4.9034853 3.0459921 1.3934909
-4.9106259 3.0414264 1.3923812
-4.9223175 3.0222077 1.4077271
-4.9179206 3.0152893 1.4026152
-4.9246588 3.0061557 1.4036545
-5.1056228 3.1000981 1.3440239
-5.1023374 3.1030071 1.3442713
-5.1027746 3.080667 1.3433862
-5.1178641 3.07533 1.3475733
-5.1128039 3.0814667 1.3495672
-5.1286545 3.0730109 1.3468906
-5.1272168 3.0616324 1.3465235
-5.1268792 3.0627706 1.3538191
-5.1311855 3.0525043 1.3410835
-5.1405935 3.0396891 1.3461074
-5.1489525 3.0348632 1.3521649
-5.1431913 3.017632 1.3482661
-5.1571727 3.0242629 1.3491683
-5.152029 3.0200927 1.3518803
-5.3293815 3.1018305 1.2941415
-5.3381715 3.0951858 1.2888464
-5.329628 3.0942378 1.2993375
-5.3414407 3.0778768 1.2981375
-5.3459477 3.0614486 1.293848
-5.3431797 3.0598414 1.283926
-5.3553777 3.0540943 1.2963666
-5.3615074 3.0383174 1.2987704
-5.3515253 3.032758 1.2950054
-5.360631 3.0365312 1.2942766
-5.3670139 3.0338237 1.2859292
-5.3773847 3.0266299 1.2983881
-5.3730402 3.0122726 1.2973557
-5.5466123 3.1039121 1.2336845
-5.5530863 3.0815549 1.2347944
-5.563839 3.0862274 1.2417715
-5.5645022 3.0829535 1.2304822
-5.5727148 3.0577903 1.2309026
-5.5785122 3.0668395 1.2332561
-5.5680637 3.0510032 1.226881
-5.5783334 3.0329936 1.2453029
-5.5769391 3.0288122 1.244041
-5.5830755 3.0331638 1.2359378
-5.5902333 3.0165393 1.2334694
-5.5873108 3.0177391 1.2364066
-5.7732291 3.1031654 1.1780449
-5.7823248 3.0812752 1.1779244
-5.7826977 3.075438 1.1804218
-5.7826395 3.068058 1.1797553
-5.7802162 3.0553699 1.1910454
-5.7841568 3.0566449 1.1921245
-5.7896643 3.0435357 1.1768268
-5.7964225 3.0285013 1.173691
-5.8112721 3.0305092 1.1817474
-5.808579 3.0196285 1.1788257
-5.8029375 3.0169694 1.1784668
-5.9932404 3.0975797 1.1305485
-5.9924402 3.0937891 1.1386107
-5.9891315 3.0743277 1.1273762
-6.0064774 3.0615494 1.1315429
-6.0125217 3.0490792 1.1250798
-6.0174751 3.0553389 1.1336087
-6.017714 3.0390663 1.1352103
-6.0210776 3.0321589 1.1269327
-6.0163727 3.0321476 1.1358935
-6.0345778 3.02197 1.1303197
-6.2056775 3.102675 1.0716755
-6.1985154 3.0825608 1.0713569
-6.203279 3.0700355 1.0799586
-6.219265 3.0644331 1.0841697
-6.211072 3.0570433 1.0843043
-6.2293301 3.0489454 1.0790981
-6.2190471 3.0448418 1.0660249
-6.2271504 3.0415964 1.0744556
-6.2435188 3.027266 1.0712924
-6.2309146 3.0189288 1.0663749
-6.4175987 3.0994785 1.0311809
-6.4155636 3.0879891 1.0182889
-6.4338346 3.0760181 1.0215535
-6.4234915 3.0723312 1.0279036
-6.4289246 3.0610948 1.0155578
-6.4342108 3.035846 1.0238138
-6.4446902 3.0451138 1.016672
-6.4482303 3.0304995 1.0149965
-6.4433274 3.0237257 1.0277082
-6.6363339 3.0948167 0.96706563
-6.6395993 3.0758278 0.96618968
-6.6443057 3.0631628 0.96280199
-6.641891 3.0565026 0.97642714
-6.6561985 3.0444491 0.97535503
-6.6441431 3.0512135 0.97204214
-6.6644201 3.0369303 0.97248209
-6.6564288 3.0163934 0.97119725
-6.6555657 3.0165296 0.9643116
-6.852129 3.0846305 0.90593123
-6.8403139 3.0795658 0.92034405
-6.8553877 3.0755241 0.90504313
-6.8513236 3.0510519 0.90635812
-6.8706341 3.053257 0.91029996
-6.8563061 3.0454042 0.91148126
-6.8630366 3.0338435 0.90872592
-6.8730669 3.0262291 0.9209922
-7.0592775 3.0877099 0.86829191
-7.0502329 3.077112 0.85878491
-7.0680599 3.0698991 0.86784047
-7.0705137 3.0587828 0.86140513
-7.0785403 3.0368614 0.86050791
-7.0818543 3.0432584 0.86472416
-7.0838394 3.0345864 0.8607372
-7.0818686 3.0244706 0.85849494
-7.2761846 3.0867538 0.80055511
-7.2758651 3.0680454 0.79835063
-7.2832646 3.0639479 0.81034952
-7.2696104 3.0531766 0.80161822
-7.2854486 3.0488458 0.81554782
-7.2922168 3.0263155 0.80824101
-7.2854066 3.0199986 0.80889833
-7.299479 3.0145943 0.80584425
-7.4876285 3.0643456 0.75027531
-7.481545 3.0670891 0.74823427
-7.4776893 3.0571833 0.74347073
-7.4980183 3.0318727 0.75016159
-7.5005369 3.0234237 0.74292386
-7.4910421 3.0128763 0.75508964
-7.5102639 3.0107236 0.7531054
-7.6945534 3.0772028 0.70503718
-7.687222 3.0632653 0.69458514
-7.6992188 3.0394452 0.70892721
-7.6942549 3.0299592 0.69029689
-7.7111039 3.0308199 0.70486927
-7.7099791 3.0197854 0.70000088
-9.3275118 1.4330841 0.37127933
-9.3272476 1.4226969 0.37171739
-9.3225327 1.4221177 0.38466525
-9.3226547 1.4000115 0.38252068
-9.3193836 1.386448 0.36723876
-9.3329639 1.3673393 0.3826285
-9.3309364 1.3596082 0.36775118
-9.3297987 1.3576142 0.38478103
-9.3284874 1.3467448 0.37924013
-9.3438425 1.3257818 0.37444213
-9.3440876 1.3155684 0.3756066
-9.3413372 1.3076062 0.37941253
-9.33813 1.2863286 0.37567067
-9.3419571 1.26688 0.38285676
-9.3479109 1.2526361 0.36951613
-9.3491278 1.246727 0.37010628
-9.3549376 1.2247417 0.37600765
-9.3556051 1.225773 0.37295979
-9.3592253 1.2099764 0.37209007
-9.3483686 1.2006667 0.3833074
-9.3622913 1.1729362 0.37736395
-9.355031 1.1697619 0.37651345
-9.3639469 1.151582 0.36744294
-9.3565855 1.1513443 0.37198409
-9.3620205 1.1269042 0.37534392
-9.3607779 1.12298 0.38585964
-9.3589268 1.0949612 0.36745757
-9.3711567 1.0879705 0.38315663
-9.366415 1.079038 0.3761313
-9.362525 1.0626228 0.37287068
-9.3674002 1.0539268 0.37495649
-9.3781996 1.0341146 0.36694717
-9.3698311 1.026992 0.37383935
-9.3705158 1.0088173 0.37357742
-9.3866405 1.0067766 0.38196123
-9.3793869 0.98752916 0.37950873
-9.3815994 0.97166532 0.38212758
-9.3821955 0.9650864 0.37084812
-9.3870745 0.94474465 0.38373056
-9.3789606 0.92977029 0.37329423
-9.3940887 0.91138071 0.3672604
-9.3871136 0.90363246 0.37451485
-9.1963282 0.86766231 0.42148966
-9.1904078 0.87069309 0.42965391
-9.204731 0.8389855 0.42888388
-9.1906528 0.83589941 0.4219749
-9.1990099 0.83195049 0.43231237
-9.2047291 0.80873674 0.4291831
-9.2017107 0.80195725 0.43882608
-9.2057915 0.78458667 0.42661056
-9.2002897 0.77336442 0.42912307
-9.2008047 0.7503764 0.43700677
-9.2140474 0.74761325 0.44005427
-9.2140379 0.73196715 0.43898764
-9.2058458 0.72317624 0.43907017
-9.2184057 0.70962441 0.42892492
-9.2178574 0.68885905 0.42769074
-9.2069521 0.68349916 0.43610436
-9.2191591 0.66226518 0.4306016
-9.2217054 0.65803975 0.4205929
-9.2164488 0.6403864 0.43222815
-9.208662 0.62327135 0.433743
-9.2129726 0.61394918 0.42536378
-9.2142191 0.60565424 0.43420905
-9.2165127 0.58655083 0.42713538
-9.2187071 0.57586896 0.43938315
-9.2110281 0.56669962 0.4237403
-9.2245655 0.54938042 0.43561357
-9.2296715 0.54078197 0.43913025
-9.2202616 0.53054738 0.43130007
-9.2208433 0.50646114 0.43869644
-9.2297707 0.51103574 0.42185888
-9.2171659 0.49215499 0.42858145
-9.2329226 0.4728663 0.43989259
-9.2198153 0.47210315 0.42498502
-9.2337637 0.44994804 0.43228135
-9.2354469 0.43625578 0.42329532
-9.2327547 0.42979223 0.42987803
-9.2381716 0.418971 0.42075136
-9.2200527 0.39828935 0.43428019
-9.2297468 0.37773862 0.43661386
-9.2320271 0.36895412 0.43641421
-9.2311258 0.35345066 0.4302268
-9.223484 0.34284908 0.43764472
-9.224514 0.3259947 0.43719435
-9.2404327 0.31581381 0.4274846
-9.2290373 0.30455428 0.43697923
-9.2266102 0.29657325 0.43290773
-9.2375822 0.28374401 0.43091327
-9.2376623 0.26958331 0.42113617
-9.2241964 0.24626094 0.42370817
-9.2283783 0.24117331 0.43039617
-9.2327414 0.23748289 0.43448192
-9.2432747 0.22191228 0.42086801
-9.2263718 0.20577264 0.42330226
-9.0372934 0.19037317 0.48219925
-9.0505095 0.17084566 0.48900008
-9.0342131 0.15415192 0.48072428
-9.0419712 0.14687467 0.49252418
-9.0517054 0.13988729 0.48306882
-9.051199 0.12671863 0.48319709
-9.0481033 0.10970239 0.49114415
-9.0383024 0.10863893 0.48830771
-9.0443974 0.077340901 0.48280799
-9.0440893 0.083226219 0.4940764
-9.0413284 0.065844543 0.48663667
-9.0533934 0.055486154 0.492309
-9.038641 0.041645717 0.49392745
-9.052146 0.020251751 0.48090881
-9.053833 0.009309805 0.49354324
-9.0449581 -0.00095718016 0.48564968
-9.0359373 -0.0079771876 0.49338081
-9.0389519 -0.025062202 0.49268958
-9.0447855 -0.04812644 0.49334159
-9.0361004 -0.050783783 0.49252036
-9.03613 -0.070599958 0.48695901
-9.043581 -0.082418352 0.4836809
-9.0453424 -0.099438109 0.47920412
-9.0454683 -0.10993502 0.48597515
-9.0385942 -0.12210914 0.47444603
-9.0390682 -0.12541582 0.48529175
-9.0474186 -0.13972674 0.48175925
-9.0480204 -0.15709484 0.49378347
-9.0492945 -0.16035651 0.47538513
-9.0499001 -0.17501143 0.48697102
-9.0513086 -0.1897912 0.49138218
-9.0382614 -0.21213552 0.47661623
-9.0484743 -0.21637203 0.47747168
-9.0431471 -0.22088225 0.48047116
-9.0310307 -0.2386848 0.48393723
-9.0504255 -0.25714523 0.47673708
-9.0389566 -0.26415706 0.48786622
-9.031003 -0.27198917 0.47426718
-9.0310078 -0.30133274 0.49004605
-9.0293932 -0.31153578 0.48380923
-9.0361748 -0.32341945 0.47543153
-9.0385275 -0.32254508 0.477348
-9.0356293 -0.35219076 0.48766601
-9.0318575 -0.35683325 0.48611146
-9.0450687 -0.36970147 0.47939152
-9.0347958 -0.38232455 0.48684779
-9.0317059 -0.38385668 0.4799284
-9.0374689 -0.3978304 0.4778125
-9.0368128 -0.41222143 0.47898808
-9.0403614 -0.42542812 0.48259509
-9.0301285 -0.44586453 0.48695225
-9.0282555 -0.44911948 0.484817
-9.0244484 -0.4699589 0.4856686
-9.0303059 -0.48752728 0.47450957
-9.0377007 -0.49882516 0.48311344
-9.0317974 -0.50038648 0.49172467
-9.0384207 -0.51941127 0.49143338
-9.2242441 -0.53631157 0.43605685
-9.2198505 -0.56187254 0.43265772
-9.4065294 -0.58366609 0.37493873
-9.4173002 -0.60404122 0.38315004
-9.4036961 -0.60318524 0.38073188
-9.6044216 -0.632065 0.31635845
-9.5920458 -0.65486413 0.32078066
-9.7829866 -0.67917216 0.27278721
-9.7931099 -0.68513733 0.26959458
-9.9867411 -0.71241152 0.2062574
-9.9884863 -0.72026914 0.22392112
-10.163947 -0.75900757 0.15517049
-10.170668 -0.77873319 0.16333073
-10.353405 -0.80509329 0.11052872
-10.355833 -0.8239398 0.10547514
-3.8056879 4.8768721 1.3272775
-3.8016565 4.8585987 1.335412
-3.8222804 4.8648443 1.3408266
-3.8227205 4.8490319 1.3313172
-3.8169749 4.8418293 1.3390799
-3.838167 4.8490653 1.3365226
-3.8362982 4.8416443 1.3406389
-3.8474915 4.8297138 1.3345604
-3.8508055 4.8260579 1.3290341
-3.8524697 4.8207231 1.3357112
-3.8707197 4.8190598 1.3300786
-3.8755589 4.8082047 1.3314961
-3.872256 4.8034935 1.3444922
-3.8835309 4.8051038 1.3270181
-3.8843079 4.7992134 1.3276937
-3.8973143 4.7988772 1.3409665
-3.9128704 4.7871485 1.3321891
-3.9043026 4.7709579 1.3368616
-3.9218056 4.7781768 1.3432674
-3.9248273 4.7704477 1.3297375
-3.9411643 4.7711778 1.3399531
-3.943126 4.7537694 1.3447309
-3.9436624 4.7463579 1.3302249
-3.9511955 4.7543573 1.3427656
-3.9561946 4.7482581 1.3348618
-3.9605103 4.7358236 1.3320768
-3.9715457 4.7344961 1.3430278
-3.9713504 4.7283921 1.3432618
-3.9864752 4.7114329 1.336198
-3.9951861 4.7180924 1.3268975
-3.9974194 4.7150478 1.3438286
-4.009429 4.6966662 1.3288624
-4.0166531 4.7043653 1.3320047
-4.0183754 4.6911411 1.3286759
-4.0275493 4.6795197 1.3447866
-4.0246191 4.690177 1.3340107
-4.0444655 4.6763849 1.3274643
-4.0533533 4.6693668 1.3403803
-4.0419993 4.6537948 1.3419126
-4.0577011 4.656075 1.3356891
-4.0626955 4.6426773 1.3320146
-4.0707512 4.6438174 1.3355616
-4.0737648 4.6442728 1.3324201
-4.0936279 4.6295381 1.3416758
-4.0968122 4.6321535 1.3449404
-4.1038775 4.6242156 1.3445016
-4.1017113 4.6229386 1.3359195
-4.1060829 4.6192746 1.325977
-4.1175308 4.6134572 1.3261293
-4.1274381 4.5984225 1.3342377
-4.1235609 4.6048703 1.3346334
-4.1433501 4.5897312 1.3418632
-4.1395841 4.5780392 1.3352516
-4.1389518 4.5729365 1.3396173
-4.1490555 4.571095 1.3323195
-4.1558867 4.5686245 1.3428137
-4.1631479 4.5547495 1.3377705
-4.1789837 4.5629239 1.3348113
-4.1847539 4.5460634 1.3317918
-4.1903634 4.5457006 1.3395035
-4.1878562 4.5356112 1.3394377
-4.2049451 4.5321217 1.3300167
-4.2147965 4.5187783 1.3346965
-4.2112508 4.5124402 1.3400757
-4.2233315 4.5223627 1.3294237
-4.2227015 4.5118108 1.3421209
-4.2315688 4.5003457 1.3267716
-4.2454715 4.4993849 1.325434
-4.2423248 4.4989858 1.333082
-4.2421894 4.4793015 1.3262218
-4.254334 4.4684396 1.3351364
-4.2665362 4.4667959 1.3264339
-4.2681513 4.4616008 1.3302698
-4.2650776 4.4662423 1.3336579
-4.2766171 4.445086 1.3328676
-4.2787995 4.4508338 1.3274332
-4.2882767 4.4339809 1.3364502
-4.2930951 4.4294834 1.3304317
-4.299242 4.4343824 1.3299485
-4.3177333 4.4256587 1.3357236
-4.3230758 4.4110231 1.3365884
-4.3194952 4.4104109 1.3417699
-4.3246093 4.4144001 1.3277252
-4.3458786 4.407671 1.3442994
-4.3437514 4.3956027 1.3257036
-4.3424058 4.3875437 1.3388511
-4.3464861 4.3761902 1.3411491
-4.3615413 4.3661938 1.344962
-4.362606 4.3762169 1.339695
-4.3641458 4.3539066 1.3317333
-4.3799014 4.3524036 1.3351744
-4.394784 4.3406224 1.3440497
-4.3844767 4.3498602 1.3429695
-4.3882051 4.3439531 1.3412243
-4.3953509 4.3262892 1.3334832
-4.4010839 4.3160782 1.3437639
-4.413661 4.3278856 1.3287809
-4.4239311 4.3107285 1.3298994
-4.4303799 4.2985888 1.3271474
-4.4420872 4.3109827 1.3282002
-4.4417472 4.2936859 1.3338737
-4.4379578 4.2875624 1.3338981
-4.4452844 4.2777944 1.3293006
-4.4536819 4.2703371 1.3449451
-4.4638162 4.2617645 1.3290828
-4.4616833 4.2734809 1.3291754
-4.4692607 4.2586341 1.3272495
-4.4718122 4.259522 1.3343493
-4.4932365 4.2399569 1.3355001
-4.4974041 4.2346725 1.3352443
-4.5005102 4.2357068 1.3438993
-4.4979339 4.226501 1.3326468
-4.5153241 4.2159305 1.3378509
-4.5173035 4.2229152 1.3418303
-4.5236292 4.2057095 1.3434782
-4.5258083 4.1965723 1.343092
-4.5278864 4.1857853 1.3341165
-4.5318813 4.1783643 1.3322945
-4.5487676 4.1754284 1.3371817
-4.5444942 4.1742253 1.343067
-4.5604677 4.1758084 1.3362772
-4.5677776 4.1658506 1.3265808
-4.5663304 4.1643767 1.3326209
-4.5796709 4.1467891 1.3319608
-4.5890226 4.1487317 1.3404188
-4.5767179 4.1343436 1.3260716
-4.5847898 4.1237164 1.3272771
-4.6018291 4.114924 1.3274097
-4.6006808 4.115067 1.3309625
-4.6146364 4.1052957 1.3396767
-4.6226974 4.1053543 1.3363464
-4.6175394 4.103898 1.3294388
-4.6220689 4.0896745 1.327446
-4.6405492 4.0878873 1.3342621
-4.6396809 4.0825162 1.3294262
-4.6503448 4.0752091 1.3366147
-4.6553473 4.0655794 1.3395969
-4.6591349 4.0646524 1.3402158
-4.6627812 4.0506058 1.3274145
-4.6628656 4.048326 1.3312869
-4.6742263 4.0436997 1.3416711
-4.6689086 4.0299363 1.3370599
-4.6904888 4.0173397 1.3446939
-4.6940532 4.0119495 1.3370177
-4.6907921 4.0131063 1.3304553
-4.692358 4.0092678 1.3430785
-4.7067256 4.0060868 1.3325731
-4.7181025 3.9847691 1.3276491
-4.7088509 3.9854467 1.3351946
-4.7123914 3.971673 1.3269852
-4.7320504 3.972162 1.3406817
-4.7413158 3.9635835 1.3271548
-4.7351837 3.9590297 1.3275791
-4.7414079 3.9565077 1.3291693
-4.7552991 3.9428341 1.3384796
-4.7557435 3.9331727 1.330523
-4.763555 3.9347119 1.3259645
-4.7618632 3.9304342 1.3266751
-4.7650857 3.9209585 1.334658
-4.7807531 3.9134831 1.3354698
-4.7846212 3.911881 1.3433809
-4.7947831 3.9065361 1.3293313
-4.7984629 3.8928373 1.3373535
-4.8017087 3.8784182 1.3294873
-4.8033552 3.8756032 1.3345885
-4.8156815 3.8778296 1.336677
-4.8159556 3.8577206 1.3269612
-4.8207784 3.8647709 1.3396317
-4.8248816 3.8540566 1.3294981
-4.820992 3.8531229 1.3385686
-4.8362813 3.833761 1.3327237
-4.8436499 3.8296669 1.3282286
-4.8450589 3.8273137 1.3367366
-4.8584361 3.827126 1.3375354
-4.8596702 3.8106937 1.3422363
-4.8557935 3.8073275 1.3358884
-4.8698187 3.8090706 1.3361638
-4.8735504 3.7913647 1.3302294
-4.8846021 3.79492 1.340328
-4.885778 3.7877195 1.3362478
-4.8978734 3.7705755 1.339568
-4.8958044 3.7713988 1.3255638
-4.898221 3.7561398 1.3359838
-4.9121199 3.7528205 1.3330007
-4.9052105 3.7535751 1.3403774
-4.9135904 3.7435045 1.3311876
-4.928309 3.7246976 1.3305478
-4.9227424 3.727438 1.3390161
-4.9231005 3.7243967 1.3378614
-4.9333501 3.70544 1.3363355
-4.9476705 3.6996381 1.344502
-4.9386611 3.7011468 1.3403354
-4.9436464 3.6854703 1.3277607
-4.803 3.56634 1.3910563
-4.8003688 3.5543256 1.389641
-4.8103514 3.5591342 1.3850284
-4.8095145 3.5544181 1.3884887
-4.829308 3.5404525 1.381577
-4.8206239 3.5313032 1.3785187
-4.8330846 3.5370686 1.3834056
-4.8270621 3.5136688 1.3893999
-4.8328638 3.5044239 1.383819
-4.8428226 3.5153296 1.3894854
-4.8453465 3.4968061 1.3977293
-4.8568964 3.4858701 1.3806798
-4.8698521 3.4898984 1.395167
-4.8674107 3.4797015 1.3916728
-4.8614998 3.4746392 1.380955
-4.8824911 3.4631798 1.3878365
-4.8865314 3.464169 1.3872389
-4.885675 3.4560809 1.3900039
-4.8988147 3.4470816 1.3902934
-4.8975258 3.4330046 1.3882645
-4.8905606 3.4412756 1.394495
-4.8953424 3.4228587 1.3965793
-4.9171638 3.4163392 1.3894883
