# .PCD v0.7 - Point Cloud Data file format
VERSION 0.7
FIELDS x y z
SIZE 4 4 4
TYPE F F F
COUNT 1 1 1
WIDTH 1531
HEIGHT 1
VIEWPOINT 0 0 0 1 0 0 0
POINTS 1531
DATA ascii
-3.8375685 3.6467702 1.978199
-3.8466618 3.6376498 1.9716351
-3.8506689 3.6440566 1.9732025
-3.8581018 3.627537 1.9744508
-3.8604679 3.6335213 1.9722805
-3.8789072 3.6254349 1.9821277
-3.8777399 3.6119785 1.9800855
-3.8805532 3.6093857 1.9738203
-3.8765185 3.5990067 1.9824086
-3.8875618 3.6093338 1.9730824
-3.9023871 3.6002698 1.9799315
-3.9005868 3.5871837 1.9830446
-3.9053431 3.5751545 1.9779563
-3.908524 3.5807488 1.9817472
-3.9104493 3.5690258 1.9769279
-3.914537 3.5639048 1.9894351
-3.9287698 3.5649848 1.9739057
-3.9250374 3.5482776 1.9812105
-3.9275625 3.5606236 1.9835699
-3.9414914 3.5469377 1.9816974
-3.9447389 3.5434296 1.9762088
-3.9411297 3.5267177 1.9830892
-3.9543993 3.5302377 1.9834024
-3.9527497 3.5155573 1.9747784
-3.9673016 3.5239248 1.9799073
-3.966665 3.51317 1.9853978
-3.9735136 3.5131397 1.9774581
-3.9758837 3.501792 1.9783078
-3.990941 3.4928615 1.9770073
-3.9836314 3.4949369 1.9875311
-3.9981863 3.4786918 1.9800642
-3.9982221 3.4709752 1.9814095
-4.0113697 3.4749005 1.971806
-4.0041962 3.465379 1.9730601
-4.0056391 3.466202 1.9882265
-4.021945 3.4525499 1.9781896
-4.0127525 3.4569299 1.9736809
-4.0314922 3.4438128 1.9833896
-4.0293741 3.4405034 1.9897401
-4.0285487 3.4293609 1.983745
-4.0371914 3.4285131 1.9870902
-4.0532932 3.4324713 1.9883114
-4.0480418 3.4081159 1.9790571
-4.0523858 3.41576 1.9858873
-4.0554681 3.40678 1.9791532
-4.0633759 3.4063044 1.9843863
-4.0613127 3.3998237 1.9796257
-4.0837502 3.3793986 1.9873809
-4.0764713 3.3858786 1.9774662
-4.0828333 3.3779631 1.9820553
-4.0951829 3.3661759 1.9714494
-4.0841794 3.3630502 1.9904613
-4.0919466 3.3699315 1.9907842
-4.1089602 3.3572161 1.9844242
-4.0991354 3.3461583 1.9747636
-4.1160364 3.3519244 1.9903134
-4.1076965 3.3444774 1.9850756
-4.1241093 3.3393087 1.9851118
-4.1327591 3.3261271 1.9773339
-4.1313148 3.3112829 1.9873531
-4.1252737 3.3087809 1.9913042
-4.1298308 3.3019669 1.9778553
-4.1353674 3.3120615 1.9770199
-4.140573 3.2898109 1.9892079
-4.1521306 3.2820449 1.9760832
-4.1533408 3.2820294 1.9744763
-4.1589932 3.2749979 1.9911808
-4.1698751 3.2761896 1.9884813
-4.1807127 3.2733595 1.9783711
-4.1793199 3.2565935 1.9791946
-4.1878996 3.2504799 1.9833003
-4.1925201 3.2444136 1.9863826
-4.1905818 3.237406 1.9853565
-4.1894703 3.2297802 1.9878831
-4.1961627 3.2351761 1.9884536
-4.1959715 3.2239332 1.974825
-4.2173791 3.2116015 1.9799874
-4.222074 3.2129428 1.9721705
-4.2094603 3.2079935 1.9873589
-4.2269483 3.208976 1.9716228
-4.2236047 3.205909 1.9756213
-4.2361469 3.182744 1.9794078
-4.2255988 3.1860321 1.9820473
-4.2360682 3.1749375 1.982928
-4.2440028 3.1816485 1.975078
-4.251359 3.1730404 1.9818647
-4.2523351 3.1675065 1.9822055
-4.2481408 3.161751 1.9897797
-4.2517548 3.1530745 1.9783031
-4.2601724 3.1513667 1.9737134
-4.2643175 3.1374516 1.9719678
-4.2644558 3.1354344 1.9729741
-4.2807989 3.1283977 1.9831916
-4.2744946 3.1153154 1.9882441
-4.2873011 3.1187141 1.9859431
-4.2879491 3.099164 1.9809759
-4.3018022 3.1030369 1.9764224
-4.2953062 3.095495 1.9720677
-4.3012276 3.0887213 1.9849966
-4.3186169 3.0779045 1.9821841
-4.3205876 3.0873084 1.9714289
-4.3242955 3.0809317 1.9846351
-4.3269887 3.0625606 1.9767894
-4.3194561 3.0548348 1.9818518
-4.3268623 3.058635 1.9763097
-4.3365612 3.0461111 1.9772203
-4.3312192 3.0440502 1.9880126
-4.3504214 3.0327923 1.977278
-4.3539705 3.0199125 1.9857906
-4.3445816 3.0139334 1.9895133
-4.3579974 3.0102658 1.9886727
-4.3621593 3.0071642 1.9874943
-8.8042545 1.9560013 1.266168
-8.8170528 1.9301741 1.262506
-8.8133183 1.9269382 1.2561812
-8.8202991 1.9061559 1.2530221
-8.8211842 1.8936832 1.2620412
-8.8182497 1.889791 1.2609237
-8.6338549 1.8334926 1.2872492
-8.637043 1.8156881 1.2915245
-8.6298523 1.8060765 1.2980596
-8.6399708 1.7961313 1.3025764
-8.6538973 1.7804956 1.2984229
-8.6377659 1.7747586 1.3007599
-8.6452799 1.7554359 1.2921822
-8.6591024 1.7517945 1.2951473
-8.6560659 1.7299138 1.2979685
-8.6639938 1.7335953 1.28923
-8.6530228 1.712182 1.2970985
-8.6538057 1.7101179 1.299234
-8.6702967 1.6977649 1.303833
-8.6602345 1.6777967 1.2905651
-8.6656399 1.6663885 1.2937437
-8.6751814 1.6535813 1.3032707
-8.6823683 1.635713 1.3055639
-8.6781168 1.6264591 1.296308
-8.6708832 1.6226603 1.2972673
-8.6808109 1.6133358 1.2940071
-8.6794605 1.5973684 1.3014361
-8.6902246 1.5829867 1.2989068
-8.6788368 1.5744663 1.2961334
-8.6828327 1.5583423 1.3055043
-8.700079 1.5391314 1.2955825
-8.5007305 1.4988396 1.3430688
-8.5051908 1.4877554 1.3267125
-8.5073414 1.4831902 1.3332274
-8.4987307 1.4681094 1.328072
-8.5091448 1.445334 1.3257236
-8.5028019 1.4461255 1.3395423
-8.5090141 1.4183525 1.3311172
-8.5177383 1.4241506 1.3263123
-8.5092192 1.4081186 1.3375274
-8.5113134 1.3969889 1.3416783
-8.5233116 1.3739399 1.3315279
-8.5259047 1.3684988 1.342176
-8.5248365 1.3629588 1.3401445
-8.5172367 1.3480641 1.3349206
-8.5347767 1.3247739 1.3388127
-8.534647 1.329828 1.3353903
-8.5406828 1.3106555 1.3360919
-8.5351276 1.3047268 1.3344911
-8.5343599 1.2892691 1.3287609
-8.5423603 1.2736529 1.3238059
-8.5461931 1.2679565 1.3277099
-8.5401602 1.2415699 1.3380833
-8.5434628 1.2381366 1.3348297
-8.5487795 1.2241719 1.3285972
-8.5393028 1.2145201 1.3309928
-8.5459185 1.2068329 1.3303635
-8.5559397 1.194929 1.3424851
-8.5452423 1.1703835 1.3406041
-8.5561295 1.1683912 1.3351939
-8.5527296 1.1601675 1.3260984
-8.5542688 1.1498631 1.3432401
-8.5518866 1.1273279 1.3259311
-8.5591145 1.1232098 1.3371272
-8.5495796 1.0954775 1.3262992
-8.5662603 1.098907 1.3377624
-8.5605278 1.0773906 1.3334839
-8.5554094 1.0675056 1.3292494
-8.5581512 1.0499537 1.3324192
-8.5627584 1.0431343 1.3255491
-8.5727587 1.0413171 1.3424098
-8.5718374 1.0195472 1.3409232
-8.5737581 1.0017285 1.3288602
-8.5729713 0.99823451 1.3246403
-8.5809717 0.98581165 1.3246515
-8.5797834 0.9782275 1.3400577
-8.5671148 0.95787764 1.325915
-8.5787077 0.9441328 1.3338571
-8.5745192 0.92911452 1.3362191
-8.5871429 0.93094188 1.3437353
-8.5866213 0.90420479 1.3414104
-8.589221 0.89980763 1.3292933
-8.5932913 0.89489228 1.3313372
-8.5894079 0.87214965 1.3418689
-8.5897274 0.86277586 1.3319614
-8.5900192 0.85594285 1.3264552
-8.5948877 0.84311402 1.3325866
-8.5938826 0.82001078 1.3369626
-8.584918 0.82239866 1.3383113
-8.5935755 0.81344742 1.3334804
-8.5946989 0.78628713 1.333907
-8.5981312 0.77777857 1.341933
-8.5936642 0.76643497 1.3370419
-8.5871363 0.76019347 1.341408
-8.5900593 0.75483412 1.328402
-8.6028728 0.7303682 1.3405664
-8.6011763 0.722202 1.3319067
-8.5933323 0.71619278 1.3321505
-8.6010942 0.70028257 1.3267902
-8.6074915 0.67683345 1.3244885
-8.5987024 0.67336172 1.3270377
-8.6094704 0.6675424 1.3330913
-8.612195 0.6472584 1.3398155
-8.5997944 0.63455367 1.332314
-8.6030102 0.61995989 1.3314704
-8.5992165 0.61356968 1.3381796
-8.603241 0.60987681 1.3287427
-8.6159077 0.59501278 1.3253181
-8.6083145 0.57335359 1.3380061
-8.6060648 0.56624788 1.3392692
-8.6060991 0.54886478 1.3290859
-8.6035681 0.54163098 1.3251103
-8.6149673 0.53257257 1.3328787
-8.6196251 0.51679832 1.3399718
-8.6117668 0.49867451 1.3245015
-8.6247358 0.48519513 1.3346728
-8.6109791 0.48852456 1.3331841
-8.6266422 0.46000311 1.3288656
-8.6257133 0.4598746 1.334923
-8.6120796 0.44277877 1.325911
-8.6171656 0.42641389 1.3315533
-8.6124182 0.41332927 1.3420004
-8.6116295 0.40957844 1.3354284
-8.6230555 0.40188569 1.3251226
-8.6273718 0.38274947 1.3287345
-8.627142 0.3713263 1.3309095
-8.6167231 0.35432535 1.3284574
-8.6277771 0.3423098 1.329528
-8.6231318 0.33185503 1.3425155
-8.6324129 0.31564903 1.330453
-8.6306887 0.31495497 1.3340727
-8.6233063 0.29958966 1.3366555
-8.6254587 0.28557748 1.3275361
-8.6341677 0.28068686 1.3427731
-8.6331644 0.27201083 1.330924
-8.6285334 0.24407919 1.3397026
-8.6217098 0.24706326 1.3435318
-8.617322 0.21947441 1.3273976
-8.6318455 0.21699411 1.3328615
-8.6333666 0.20567977 1.334173
-8.6269321 0.19651943 1.3268443
-8.6368608 0.17515546 1.3362051
-8.6241903 0.17203481 1.3436091
-8.6206226 0.16058552 1.3381782
-8.6218014 0.15050186 1.3361276
-8.6348114 0.12539579 1.3382021
-8.6190271 0.12744235 1.3353181
-8.6193962 0.11418938 1.3369029
-8.6358824 0.086707607 1.3280656
-8.6268883 0.07798443 1.3399725
-8.6365652 0.075957499 1.3347781
-8.6335545 0.064246498 1.3402789
-8.6211662 0.045434281 1.3347187
-8.621357 0.030401388 1.3297691
-8.6269617 0.014384937 1.3267962
-8.6346006 0.0055359015 1.3307776
-8.6201477 -0.0073671159 1.3288664
-8.628562 -0.02049493 1.325763
-8.635375 -0.029981704 1.327239
-8.6310081 -0.030363534 1.3320532
-8.634717 -0.040328991 1.3269018
-8.6236048 -0.067206621 1.342101
-8.6269741 -0.081635587 1.3305495
-8.6358871 -0.076211944 1.3360269
-8.6297321 -0.096366569 1.3375497
-8.6265335 -0.10415004 1.3422852
-8.8156519 -0.1204849 1.288083
-8.8303461 -0.14253503 1.2909112
-8.828125 -0.15143859 1.2963144
-8.8244114 -0.1560329 1.2933973
-8.8158665 -0.16441102 1.2925764
-8.8324556 -0.1817674 1.2969393
-9.0101109 -0.20724279 1.260838
-9.0230112 -0.21738814 1.260318
-9.010417 -0.22152053 1.2517045
-9.0162811 -0.2426129 1.2673681
-9.0173931 -0.25668377 1.2617545
-9.2108393 -0.27165619 1.2283287
-9.2051849 -0.27888393 1.2164298
-9.2141094 -0.30262873 1.2122704
-9.2059326 -0.31807637 1.2120663
-9.2185593 -0.33037826 1.2268388
-9.2068043 -0.34433523 1.2131103
-9.4092255 -0.35915416 1.1837463
-9.4159489 -0.37432045 1.1809523
-9.4112682 -0.37569296 1.1896713
-9.4109049 -0.39853621 1.1769242
-9.3961363 -0.41895589 1.187821
-9.5928106 -0.42314875 1.1462715
-9.6052208 -0.44793552 1.151951
-9.6017723 -0.46498433 1.1350594
-9.5985088 -0.47511601 1.138742
-9.6004543 -0.49396771 1.141343
-9.7921724 -0.50993806 1.111559
-9.7990618 -0.5230329 1.0978531
-9.7887259 -0.531986 1.0959219
-9.7896528 -0.54113376 1.1042939
-9.9793081 -0.56757843 1.0672954
-9.9820299 -0.58394551 1.0663702
-9.9881859 -0.61334896 1.0740762
-9.9886427 -0.61994803 1.0581503
-9.9859715 -0.62394696 1.0655086
-10.175515 -0.66342986 1.0293339
-10.186503 -0.66668522 1.0190934
-10.169159 -0.67756379 1.0294449
-10.165501 -0.69885957 1.0245291
-10.379596 -0.73580438 0.98605382
-10.369437 -0.75351709 0.98440278
-10.358161 -0.75477821 1.0003408
-10.367789 -0.76304072 1.0008304
-10.565453 -0.80766958 0.95057827
-10.563239 -0.81574094 0.9483763
-10.553647 -0.83834326 0.95349956
-10.562112 -0.85287529 0.94959104
-10.756471 -0.88716203 0.9109298
-10.744761 -0.88290775 0.92329013
-10.757947 -0.89790779 0.90687585
-10.751491 -0.92379022 0.90724045
-10.942245 -0.95668691 0.88273752
-10.941434 -0.96333623 0.88255709
-10.940113 -0.99298894 0.86727917
-10.930926 -1.0015711 0.87868857
-11.139402 -1.0400461 0.8441565
-11.127226 -1.0501213 0.84794432
-11.138936 -1.060086 0.8483367
-11.326592 -1.0987295 0.8099122
-11.326437 -1.1129591 0.80960768
-11.322674 -1.1220214 0.7984426
-11.513845 -1.1675264 0.76853424
-11.516051 -1.1738907 0.76536429
-11.518416 -1.2003109 0.76783079
-11.516036 -1.2189429 0.75700259
-11.697431 -1.2530378 0.72321022
-11.700003 -1.275646 0.73299545
-11.698763 -1.291453 0.72837013
-2.5281458 4.9030142 1.9929832
-2.5265598 4.8982272 1.9823744
-2.525562 4.8831162 1.9774966
-2.539664 4.8852167 1.9813877
-2.5514026 4.8861542 1.987842
-2.5574036 4.8739386 1.9913609
-2.5551116 4.871294 1.9887624
-2.5673821 4.8844028 1.9915559
-2.570823 4.8783784 1.9868981
-2.5788832 4.8762712 1.986406
-2.5927815 4.8542485 1.9799725
-2.6000779 4.8606262 1.9922888
-2.5979779 4.8548121 1.9930407
-2.6007504 4.8617005 1.9794492
-2.619627 4.8436508 1.9903601
-2.6120441 4.846395 1.9926307
-2.6209371 4.8382206 1.9758413
-2.6324236 4.8445611 1.9757541
-2.6411114 4.8342409 1.9932458
-2.6544518 4.8226352 1.9922434
-2.648279 4.8239012 1.9928405
-2.6685348 4.824636 1.9834476
-2.6764688 4.81423 1.9918815
-2.6836457 4.8078065 1.9908547
-2.6844091 4.8092561 1.9754382
-2.6942563 4.8050327 1.9864353
-2.7018273 4.798656 1.9929372
-2.7061827 4.8075266 1.9894681
-2.7106199 4.7944388 1.9793764
-2.7175603 4.794735 1.9813864
-2.7254975 4.7879219 1.9883789
-2.7328324 4.7875671 1.9798319
-2.7295551 4.7859864 1.9846146
-2.7378383 4.7839322 1.9867184
-2.747143 4.7678123 1.9740258
-2.7518587 4.768538 1.9808736
-2.7655721 4.7683797 1.9851173
-2.772778 4.7705488 1.9820142
-2.7834477 4.7549572 1.989615
-2.7842035 4.7590966 1.9813123
-2.7829442 4.7419653 1.9900072
-2.7946868 4.7441597 1.9821665
-2.7949708 4.7362876 1.9765742
-2.8104668 4.7467823 1.9927655
-2.8238533 4.7346177 1.9766843
-2.829927 4.7243762 1.9851856
-2.8291473 4.727056 1.9773948
-2.8441184 4.7291584 1.975648
-2.8421872 4.7272148 1.9821941
-2.8526495 4.711133 1.9767735
-2.851409 4.7029233 1.9781247
-2.8614681 4.709578 1.9855827
-2.8593621 4.7025499 1.98909
-2.882843 4.7066226 1.9870228
-2.8901267 4.7038989 1.9767306
-2.8934863 4.6816869 1.9801464
-2.8883386 4.6868339 1.9902003
-2.8909762 4.6835837 1.9863243
-2.915355 4.6688337 1.9844812
-2.9131818 4.6701846 1.9905423
-2.9164236 4.6793332 1.9923887
-2.9183085 4.6649742 1.984894
-2.9327297 4.6592679 1.9743849
-2.9436378 4.6566215 1.9919708
-2.9366076 4.6532259 1.9908646
-2.9598637 4.6530008 1.9915874
-2.9596982 4.6444468 1.9815071
-2.9694731 4.6397734 1.992236
-2.9631181 4.6372337 1.9922831
-2.9786005 4.6433744 1.977758
-2.9880157 4.6327739 1.976468
-2.9955788 4.6267838 1.9849147
-2.9906306 4.6128621 1.9917595
-2.996186 4.6145167 1.9800714
-3.0041494 4.6096792 1.9891107
-3.0132132 4.6080585 1.9820564
-3.0215483 4.61307 1.9905889
-3.0199575 4.5947676 1.978598
-3.0276322 4.5892749 1.9882263
-3.0352538 4.5947495 1.9881628
-3.0573945 4.5772524 1.9816756
-3.0608194 4.5786295 1.9933844
-3.0557914 4.5713868 1.9753666
-3.0639126 4.5650148 1.9832069
-3.0837159 4.5770998 1.990423
-3.0744741 4.566535 1.9802401
-3.0922804 4.5540433 1.9792993
-3.1015482 4.5495448 1.9842958
-3.1028008 4.5437679 1.9880484
-3.1144192 4.5567603 1.9815334
-3.1060951 4.5339966 1.9817876
-3.1242518 4.5341868 1.9876946
-3.1306939 4.5257778 1.9906433
-3.1351476 4.535614 1.9915134
-3.1317549 4.5320077 1.9887702
-3.1411397 4.5239983 1.9797734
-3.1407015 4.5245309 1.982605
-3.1611979 4.5221381 1.9852668
-3.1566916 4.5048299 1.9864898
-3.1684265 4.5022335 1.9850515
-3.1666701 4.4942861 1.9852051
-3.1846535 4.4945002 1.989913
-3.1967235 4.494585 1.9905849
-3.1858387 4.476522 1.9854748
-3.1940775 4.488152 1.9811493
-3.2050531 4.4766912 1.9932137
-3.2050195 4.4719563 1.990219
-3.2221477 4.4730067 1.989249
-3.216608 4.4648395 1.9753965
-3.2298391 4.4512062 1.9833825
-3.2445018 4.4455929 1.9878643
-3.2390049 4.4482527 1.9770125
-3.2487936 4.4450936 1.9907061
-3.2579043 4.439064 1.9908066
-3.2721183 4.4310336 1.9870154
-3.2706518 4.4382596 1.9762503
-3.2771144 4.4317455 1.9852462
-3.2865653 4.4143224 1.9797972
-3.2969799 4.4086523 1.9906938
-3.3012404 4.4159579 1.9924793
-3.2975085 4.4148016 1.9931817
-3.3092885 4.4053364 1.9810835
-3.3119135 4.3922706 1.9903738
-3.3208387 4.3962755 1.9781911
-3.3296568 4.3922415 1.9825432
-3.3222597 4.3958435 1.9786953
-3.3456211 4.3791451 1.9929154
-3.3399801 4.3791518 1.9743032
-3.3397815 4.3748941 1.9746207
-3.3486798 4.3725185 1.9868522
-3.3557858 4.3600121 1.9825438
-3.3621831 4.361856 1.9933958
-3.3806722 4.347199 1.9758157
-3.369864 4.3497343 1.9868832
-3.391232 4.3495622 1.9785678
-3.3882413 4.3428922 1.978514
-3.389092 4.3389587 1.9864298
-3.395716 4.3267574 1.9790291
-3.4009454 4.3208399 1.9920554
-3.4058506 4.3121028 1.9874003
-3.4185178 4.322331 1.9749409
-3.4354866 4.3122277 1.9890361
-3.4415967 4.3096938 1.9931931
-3.4452803 4.3040204 1.9846131
-3.4378896 4.3030248 1.9805971
-3.4588075 4.2910585 1.9746554
-3.4597723 4.2842741 1.9895329
-3.4728148 4.2768912 1.9769709
-3.4732513 4.2702985 1.983261
-3.4806545 4.2648125 1.9855921
-3.4727061 4.272665 1.9829382
-3.4772103 4.2695484 1.9749757
-3.4876125 4.2663136 1.9892828
-3.4938507 4.2453809 1.9827285
-3.5086622 4.2378178 1.9799982
-3.5074828 4.2353096 1.9901303
-3.5122383 4.2378011 1.9783148
-3.5221093 4.2332096 1.9839615
-3.5245354 4.2341332 1.9878687
-3.5406647 4.2135987 1.9911517
-3.5344558 4.2269516 1.9871576
-3.550894 4.2217317 1.9849249
-3.5552878 4.2120342 1.9843442
-3.5653675 4.2020168 1.9877259
-3.5619946 4.2030988 1.9884477
-3.5613449 4.1912646 1.9915725
-3.5705562 4.1805725 1.9821088
-3.5715761 4.1859002 1.9929813
-3.5869422 4.174685 1.9897138
-3.5983942 4.1732178 1.9908563
-3.6065562 4.1638293 1.9903041
-3.5987051 4.1638656 1.9894929
-3.6130795 4.1653643 1.9839532
-3.6080279 4.1426325 1.9933733
-3.6195874 4.149116 1.9888608
-3.6304181 4.1420846 1.9775077
-3.6381168 4.13167 1.9804642
-3.635272 4.1260567 1.9737581
-3.6415477 4.1308918 1.9808551
-3.6510839 4.1300821 1.9915109
-3.6594703 4.1069112 1.9778123
-3.6684017 4.1173844 1.9891925
-3.6581373 4.0992689 1.9871218
-3.6734052 4.0919847 1.9873779
-3.6792459 4.0989132 1.9791839
-3.6895921 4.1007762 1.989033
-3.6912839 4.0806985 1.9735501
-3.6900122 4.0892162 1.9775449
-3.6954393 4.0772023 1.9914734
-3.7137623 4.061389 1.9896992
-3.7214222 4.0629187 1.9898686
-3.7227733 4.0612392 1.985634
-3.7327371 4.0555396 1.9884151
-3.7247643 4.0402803 1.9890509
-3.7365282 4.0448813 1.9817618
-3.7364786 4.0448298 1.9814904
-3.7465727 4.0287733 1.9863039
-3.7521424 4.0196676 1.9848059
-3.7537098 4.030807 1.9764724
-3.7613413 4.0092883 1.977512
-3.7707398 4.0057673 1.9852759
-3.7799616 4.006546 1.9765627
-3.7734106 4.0030041 1.9873604
-3.784071 3.9930708 1.9881167
-3.7940884 3.9970024 1.9787
-3.7913873 3.9866049 1.9744657
-3.8089502 3.9717271 1.9794163
-3.801692 3.9768867 1.9805107
-3.8159246 3.9660783 1.978002
-3.8184831 3.9732304 1.9792398
-3.8199947 3.9565685 1.9822299
-3.833735 3.9562624 1.9912794
-3.8361807 3.9480774 1.9820753
-3.8478215 3.9347947 1.9882345
-3.8386984 3.9370499 1.9836295
-3.8589845 3.9275539 1.9739387
-3.8634973 3.9260354 1.9746902
-3.8630519 3.9173079 1.9859287
-3.8615046 3.9198735 1.9916936
-3.8824584 3.9053986 1.9899535
-3.8821669 3.914923 1.9769024
-3.8788776 3.8962104 1.9889033
-3.8865314 3.9005477 1.9780853
-3.9033816 3.8987324 1.9793581
-3.8940649 3.8915212 1.9882674
-3.9093459 3.8694971 1.9930696
-3.9143097 3.8684258 1.98175
-3.9185145 3.8732581 1.9871073
-3.9314733 3.8650885 1.9804419
-3.9186592 3.8614078 1.9847213
-3.9275775 3.8434544 1.9839523
-3.9295394 3.8542182 1.9899052
-3.9394927 3.8427486 1.9856378
-3.9402564 3.8398416 1.9850049
-3.9597394 3.8316565 1.9826182
-3.9703054 3.8135881 1.9836724
-3.9560616 3.8159459 1.9891279
-3.9731295 3.8194811 1.9848957
-3.9848323 3.8154323 1.9779813
-3.9831929 3.8095646 1.9928814
-3.9772661 3.8001378 1.9753307
-3.9921007 3.7941008 1.9740539
-4.0009747 3.7834542 1.986825
-3.994108 3.7773805 1.9822141
-4.0078664 3.7771523 1.9749506
-4.004004 3.7716789 1.9751586
-4.0190792 3.7657628 1.9832716
-4.0286913 3.7480838 1.9804747
-4.0225272 3.7439997 1.9791911
-4.0432701 3.746845 1.9776094
-4.0491052 3.7408993 1.9921778
-4.0524826 3.7253931 1.9862934
-4.0571289 3.7262797 1.9753544
-4.0489969 3.7192917 1.9839408
-4.0654674 3.7237959 1.9779054
-4.0691934 3.717406 1.9920104
-4.0727034 3.7011762 1.9858201
-4.0680928 3.7005615 1.9875795
-4.0862708 3.6913304 1.9908904
-4.0857244 3.686568 1.9826897
-4.0867519 3.6811748 1.9741933
-4.0932031 3.6775999 1.9758484
-4.1055303 3.6745665 1.9840549
-4.108789 3.6648457 1.9909453
-4.1034527 3.6638267 1.9880195
-4.1241441 3.6442459 1.9843901
-4.1307225 3.6463113 1.9902245
-4.1234832 3.6381359 1.9811454
-4.1344762 3.6369228 1.9885433
-4.1421504 3.6213887 1.976894
-4.1380172 3.6299515 1.9855741
-4.1423721 3.6171799 1.9764088
-4.1450639 3.6171896 1.9899471
-4.1595411 3.5990412 1.9795084
-4.1671195 3.6113217 1.9738016
-4.1576161 3.5879951 1.9742721
-4.1717339 3.5831666 1.9825734
-4.1800089 3.5906463 1.9884715
-4.1773548 3.5721929 1.9789362
-4.187295 3.5711179 1.9796531
-4.1888757 3.5592206 1.9747266
-4.2017689 3.5680041 1.982829
-4.2038183 3.5591242 1.9767487
-4.2123218 3.5407872 1.9783349
-4.2112556 3.5398834 1.9780231
-4.215888 3.5334868 1.9802134
-4.2200418 3.5379682 1.983411
-4.2358856 3.5191622 1.9799306
-4.2258234 3.5279894 1.9838467
-4.2452884 3.5118477 1.9925444
-4.2440281 3.499088 1.975208
-4.2476859 3.4983904 1.9925259
-4.2432327 3.5005898 1.9868413
-4.264852 3.4992242 1.9887038
-4.2648768 3.4838548 1.9755536
-4.2652049 3.468775 1.9819051
-4.2633343 3.4744556 1.9786429
-4.2782578 3.4691975 1.9824865
-4.2766533 3.458899 1.9810759
-4.2911243 3.4540248 1.9894491
-4.2968898 3.4552917 1.9909952
-4.2999825 3.4377732 1.9777828
-4.3057494 3.4295719 1.9927157
-4.2971921 3.4246073 1.9922357
-4.3067641 3.4244659 1.9823458
-4.3094778 3.4088354 1.9833425
-4.3258319 3.4199066 1.9759929
-4.3254395 3.4008768 1.9893651
-4.3211951 3.4082656 1.9784253
-4.3383527 3.3859894 1.9886044
-4.3471289 3.3827457 1.9860505
-4.3343506 3.3811982 1.9919848
-4.3547759 3.378665 1.9757313
-4.36026 3.3694611 1.9805331
-4.3462152 3.3554494 1.9912204
-4.3620524 3.3634794 1.9923104
-4.356884 3.3599029 1.9905118
-4.3790569 3.3414576 1.9757298
-4.3678489 3.3319869 1.9743901
-4.3875723 3.3300805 1.9768342
-4.3771076 3.3241115 1.982101
-4.3891888 3.3156259 1.9918934
-4.3953271 3.3114116 1.9852321
-4.3977098 3.3064013 1.9754533
-4.3952827 3.3001146 1.9777554
-4.4021592 3.3026624 1.974187
-4.4079375 3.2950408 1.9931479
-4.4155054 3.2899008 1.9797757
-4.4178472 3.2806141 1.9830517
-4.4215193 3.2762413 1.9905465
-4.422739 3.2669609 1.978204
-4.4386835 3.2502196 1.9835144
-4.4448266 3.2519515 1.9907551
-4.4376225 3.255903 1.9791366
-4.4401884 3.2468762 1.9873892
-4.4604435 3.235558 1.9843535
-4.4642587 3.2230389 1.9798669
-4.4691038 3.22752 1.9764168
-4.4673128 3.2142193 1.9898634
-4.4622369 3.2017975 1.9851265
-4.4696574 3.1926982 1.9773053
-4.4694118 3.1921887 1.9789449
-4.4838467 3.1900609 1.988525
-4.4910326 3.1796539 1.9882717
-4.4898276 3.1711886 1.9852126
-4.5003619 3.1669676 1.9770629
-4.4939227 3.1634221 1.982628
-4.5119615 3.159513 1.9789141
-4.5134416 3.1618681 1.9881461
-4.5214663 3.1537635 1.9912087
-8.8274155 1.9526831 1.32332
-8.8265619 1.9379209 1.3319491
-8.8201256 1.9295167 1.3229711
-8.8373861 1.9240202 1.3226566
-8.8253975 1.8948783 1.320552
-8.8303299 1.8973539 1.3136984
-8.835022 1.8836259 1.3267947
-8.8337193 1.8753339 1.3298502
-8.8422785 1.8620582 1.3201145
-8.8448286 1.8435453 1.3232192
-8.8435516 1.8367362 1.3330482
-8.8563795 1.8134812 1.3204497
-8.8605604 1.7993455 1.3317853
-8.8537016 1.7906152 1.3299667
-8.8671408 1.7765222 1.331352
-8.8626671 1.7601291 1.3275626
-8.8650293 1.7616583 1.3223984
-8.8742781 1.7470871 1.3212991
-8.8604546 1.7265369 1.3192847
-8.8763485 1.7259989 1.3311214
-8.8691216 1.7092832 1.3285168
-8.8720474 1.7022686 1.3150285
-8.8875551 1.6735839 1.3197792
-8.8717089 1.6742513 1.3281778
-8.8776646 1.6639565 1.3148652
-8.8822184 1.6405947 1.3175447
-8.890543 1.6373123 1.3141419
-8.8840151 1.6272057 1.32856
-8.8985691 1.6133305 1.3148233
-8.8951197 1.585951 1.3329473
-8.8998165 1.5881717 1.3267577
-8.9071007 1.5698218 1.3259587
-8.907856 1.5583029 1.3288839
-8.9038429 1.5449505 1.3248883
-8.9114132 1.5279461 1.3230131
-8.9122801 1.5286751 1.3301944
-8.910449 1.5033479 1.3265148
-8.9120035 1.4868004 1.3251535
-8.9191236 1.4779334 1.3223447
-8.9199619 1.4747325 1.3245871
-8.9226589 1.4490345 1.3214844
-8.9115286 1.4382346 1.3324691
-8.9211788 1.4288448 1.3243748
-8.9278879 1.4256157 1.3153714
-8.9185743 1.3969458 1.3218096
-8.931118 1.3895227 1.3214259
-8.9364643 1.3860259 1.3281671
-8.9254713 1.3630525 1.3308158
-8.9358234 1.3550208 1.3170553
-8.9289665 1.3481939 1.3325547
-8.9398499 1.340696 1.3148196
-8.9338179 1.3263375 1.318751
-8.9367838 1.3043194 1.3257618
-8.9478273 1.2975668 1.3220153
-8.9478559 1.2820843 1.3220738
-8.9414301 1.2759968 1.3271866
-8.955369 1.2664855 1.3212827
-8.9425507 1.2498707 1.3248883
-8.9470654 1.2247912 1.3329476
-8.945323 1.2284383 1.3266681
-8.9480639 1.2030543 1.3253814
-8.9485226 1.1855369 1.3222293
-8.9650326 1.1868705 1.3295549
-8.9545145 1.1789608 1.3226265
-8.9677248 1.1528046 1.3327163
-8.9608593 1.1348399 1.329222
-8.9688635 1.1246833 1.328722
-8.9627533 1.1290756 1.3241155
-8.9730215 1.1106659 1.3269402
-8.9752121 1.0956937 1.3259249
-8.9636641 1.0796582 1.332041
-8.9733858 1.0648243 1.3331574
-8.9662428 1.0551237 1.3281274
-8.971756 1.037567 1.3277099
-8.9841805 1.0284079 1.3136609
-8.9864969 1.0277048 1.3141738
-8.972291 1.0005707 1.3170592
-8.9785671 1.0011016 1.3168681
-8.9894323 0.97290319 1.3308007
-8.9774551 0.96403474 1.3222964
-8.9864759 0.94821674 1.3302943
-8.9893627 0.94416255 1.315998
-8.9911156 0.92872006 1.3245428
-8.9978809 0.90921503 1.3280747
-8.9850473 0.89871889 1.3149931
-8.9862442 0.88732165 1.3137565
-8.9869108 0.87152892 1.3179353
-8.9846745 0.87084079 1.3151969
-9.0026112 0.86065072 1.3168136
-8.986598 0.8437835 1.3221173
-8.9990721 0.8392238 1.3241605
-9.0035305 0.81308782 1.3147087
-9.0022669 0.80649197 1.3223755
-8.9924421 0.79440612 1.3231001
-8.9990673 0.77641296 1.3258932
-8.9987564 0.75846344 1.3298553
-8.9996643 0.76107049 1.3305928
-8.996376 0.74711949 1.3232119
-8.9958096 0.73641944 1.3182125
-9.013608 0.72290289 1.3289189
-9.0060844 0.69806564 1.3276404
-9.0165014 0.68990552 1.3328022
-9.0163517 0.68412626 1.323946
-9.0085182 0.66927278 1.3155835
-9.0199423 0.64887691 1.3218088
-9.0085554 0.64985722 1.322667
-9.0131893 0.63097703 1.3187162
-9.0170679 0.6164152 1.3333998
-9.0083094 0.60343337 1.3299702
-9.0245333 0.5936482 1.3256123
-9.0100327 0.57236344 1.3290068
-9.0167933 0.56162232 1.3168321
-9.0183744 0.5519731 1.3314704
-9.0087938 0.53108257 1.3238488
-9.0275593 0.51967531 1.3284264
-9.0200806 0.52054441 1.3265803
-9.0117264 0.49765211 1.3184514
-9.0273056 0.49173588 1.3283592
-9.0281839 0.4754149 1.317885
-9.0324736 0.46368974 1.3302265
-9.0211039 0.44726691 1.3138855
-9.0263224 0.44486785 1.3194064
-9.0236979 0.42165443 1.3278823
-9.0264168 0.40877047 1.3280729
-9.0167398 0.39785352 1.3294628
-9.0224686 0.39512885 1.3243289
-9.0300245 0.38145471 1.3289112
-9.0256929 0.37288028 1.3201865
-9.031435 0.34408924 1.3277512
-9.0276346 0.33165202 1.3162017
-9.0314741 0.3312107 1.3208414
-9.0316372 0.30615973 1.315695
-9.0262623 0.30432451 1.319949
-9.0323935 0.28034332 1.3239336
-9.0383167 0.26659474 1.3296164
-9.0228319 0.26765621 1.3251908
-9.032464 0.24168167 1.3197079
-9.0374956 0.24054228 1.3182679
-9.0312347 0.23414595 1.3206553
-9.0373907 0.21201852 1.3232244
-9.03508 0.20650154 1.3179717
-9.0281105 0.18125388 1.3202883
-9.0262709 0.18179646 1.3333904
-9.0401592 0.15660526 1.3151325
-9.0300446 0.14587097 1.315748
-9.0342302 0.13098338 1.3300474
-9.0428238 0.12680876 1.3309951
-9.0368834 0.11792939 1.3234267
-9.0323639 0.095620617 1.3220859
-9.0254402 0.087447047 1.3312418
-9.0359297 0.081859291 1.3275055
-9.0316544 0.063497134 1.3311464
-9.0250444 0.047214225 1.3279551
-9.0253153 0.037264507 1.3321984
-9.0438261 0.017632542 1.3183334
-9.0417042 0.014001262 1.322207
-9.0252647 0.0019450358 1.3145324
-9.0278597 -0.024019085 1.3306051
-9.0380058 -0.025330909 1.316996
-9.0294752 -0.039603036 1.3278404
-9.0317717 -0.044266377 1.3257242
-9.0377855 -0.064573608 1.3178732
-9.0401421 -0.078208178 1.3263669
-9.025671 -0.092068017 1.3175383
-9.0269403 -0.10441089 1.3217052
-9.0420561 -0.11462127 1.3148685
-9.0332813 -0.12839982 1.3286031
-9.0321627 -0.14479877 1.3290013
-9.0349541 -0.15138644 1.3207151
-9.0313368 -0.16950366 1.3307842
-9.0368576 -0.16999443 1.3288174
-9.024477 -0.19659516 1.3191706
-9.0399303 -0.20566493 1.3285162
-9.0268717 -0.22039488 1.3166291
-9.022624 -0.23654172 1.3250257
-9.0341921 -0.24797046 1.3158385
-9.0325794 -0.25080755 1.3254989
-9.0372133 -0.27272746 1.3313864
-9.2179432 -0.28395197 1.2866514
-9.230422 -0.30577546 1.2930851
-9.2328129 -0.31337371 1.291653
-9.2171535 -0.32886282 1.296245
-9.231123 -0.3400937 1.2843914
-9.4121895 -0.36623901 1.2537712
-9.4286537 -0.38106921 1.2562881
-9.4167023 -0.38780922 1.2599992
-9.4139194 -0.39329571 1.2534956
-9.4214582 -0.40379396 1.2576941
-9.6194944 -0.42794341 1.2129235
-9.6091709 -0.45622933 1.2158852
-9.6123943 -0.46734586 1.2041432
-9.6170311 -0.46325979 1.209806
-9.6170578 -0.49361792 1.2171313
-9.8052549 -0.51948297 1.1822096
-9.8110418 -0.53219938 1.1822845
-9.8142929 -0.53350484 1.1687849
-9.8138142 -0.5525865 1.1829635
-9.7998199 -0.55978394 1.1798078
-9.9978657 -0.58098835 1.1380428
-10.007728 -0.60099059 1.1380889
-9.9946089 -0.62486184 1.1404541
-9.9932127 -0.63403392 1.14034
-10.182323 -0.65678972 1.1066409
-10.187881 -0.67950732 1.1075785
-10.191681 -0.68874717 1.1095057
-10.195385 -0.70199227 1.1038322
-10.388684 -0.72950166 1.0761203
-10.39165 -0.75011235 1.0715742
-10.377751 -0.75332218 1.0713041
-10.388938 -0.76724112 1.0650061
-10.576091 -0.80397278 1.0321497
-10.564803 -0.82540238 1.0207535
-10.573609 -0.84065855 1.0334471
-10.579434 -0.84241593 1.0376664
-10.760246 -0.88509542 0.99022752
-10.763142 -0.89657617 1.0004448
-10.771689 -0.90624386 0.99136198
-10.771268 -0.91991985 0.99618018
-10.951223 -0.95801377 0.95563829
-10.955552 -0.97139567 0.95234668
-10.946157 -0.97699988 0.96189588
-10.952936 -0.9924612 0.96479481
-11.146844 -1.0362412 0.91055471
-11.152257 -1.0489566 0.92599386
-11.153429 -1.067744 0.92968768
-11.341033 -1.1098434 0.88028651
-11.342696 -1.122867 0.8929227
-11.33342 -1.1367601 0.88692558
-11.339303 -1.1560689 0.87512934
-11.524611 -1.1813231 0.84860313
-11.517594 -1.1985742 0.84844381
-11.521006 -1.2240049 0.84813178
-11.716974 -1.2500899 0.80103338
-11.714993 -1.262251 0.81345797
-2.7471588 5.0092092 1.9915819
-2.7522867 5.010747 1.9959008
-2.7548938 5.0049982 1.9953943
-2.759264 5.0027771 1.9935069
-2.7820382 4.990737 1.985253
-2.7912896 4.9849534 1.9872918
-2.783128 4.9767647 1.9888612
-2.7957914 4.9811378 1.9867353
-2.7983882 4.976913 1.9955217
-2.8095222 4.9680753 1.997407
-2.8220911 4.9741497 1.9871552
-2.8159754 4.9620643 1.9822959
-2.8255353 4.9543347 1.9955517
-2.8355958 4.949192 1.9904606
-2.8475385 4.9482265 1.9972128
-2.8477294 4.9449568 1.9820752
-2.865876 4.936789 1.9826518
-2.8624475 4.942893 1.9915143
-2.8811393 4.933331 1.9800746
-2.8710392 4.9395595 1.9837295
-2.8790481 4.9401379 1.9974008
-2.8973033 4.9337459 1.9829381
-2.9004121 4.9247017 1.9847069
-2.9102592 4.9124999 1.9853036
-2.9051919 4.9152517 1.9889158
-2.9133666 4.9047046 1.9932481
-2.9366734 4.9028969 1.9934123
-2.9393976 4.9113975 1.9836904
-2.9332538 4.8880811 1.9884253
-2.9385438 4.9017344 1.9834173
-2.9601731 4.8942413 1.9830259
-2.9681256 4.8953514 1.9802903
-2.9705348 4.8802052 1.992568
-2.9711695 4.8820577 1.9967105
-2.9912014 4.8758187 1.987682
-2.9876153 4.8682404 1.9921921
-2.9996912 4.8641844 1.9789902
-3.0115972 4.8642278 1.9983941
-3.0132191 4.857233 1.9785967
-3.0101004 4.8517609 1.9965763
-3.0119836 4.8514657 1.9911971
-3.0342522 4.8500185 1.9910712
-3.0392506 4.8329573 1.9799517
-3.0519655 4.8420506 1.9948473
-3.0405316 4.8378949 1.9876755
-3.0581205 4.8241029 1.9971066
-3.0711932 4.825007 1.9866724
-3.0774617 4.8207703 1.9804819
-3.0843205 4.8216724 1.9915065
-3.0909708 4.8124471 1.9812778
-3.0796351 4.8080864 1.9949824
-3.093673 4.8081999 1.9914778
-3.1078303 4.790051 1.9951595
-3.1131012 4.7859178 1.9921912
-3.1234705 4.7799425 1.9893336
-3.1210055 4.7830977 1.9969597
-3.1291032 4.7798924 1.9897746
-3.1276293 4.7771249 1.9826475
-3.1523395 4.7741995 1.980726
-3.146019 4.7713184 1.9938923
-3.1499209 4.7664614 1.9870206
-3.1601121 4.7542491 1.984594
-3.1738017 4.7545562 1.9883597
-3.1838036 4.7562623 1.9923427
-3.1767673 4.7342639 1.9947107
-3.1925826 4.7413888 1.9846026
-3.2007654 4.7270679 1.9956676
-3.1961272 4.7208676 1.988353
-3.2186098 4.7165966 1.9825101
-3.2230077 4.7252803 1.9981923
-3.2142329 4.7166891 1.9934331
-3.2323234 4.7045283 1.9808866
-3.2328343 4.7052937 1.9930811
-3.2495732 4.7026663 1.9914253
-3.2423229 4.6936774 1.9922235
-3.2526982 4.6954703 1.9846084
-3.253175 4.6956711 1.9871436
-3.2625806 4.6870942 1.9879584
-3.2792943 4.6826129 1.9889919
-3.2818446 4.680305 1.9832073
-3.2887063 4.6733379 1.9933398
-3.3003206 4.674839 1.9958285
-3.3044751 4.6623821 1.9836086
-3.3164287 4.6597328 1.9932964
-3.3100317 4.6508746 1.99854
-3.3228297 4.6381745 1.9901304
-3.3232365 4.651525 1.9864841
-3.3411016 4.6419911 1.9788327
-3.3381453 4.6422586 1.9912808
-3.3541491 4.6264839 1.9860114
-3.3559308 4.6303496 1.9983737
-3.3675735 4.6290965 1.9968456
-3.3567209 4.6101775 1.9874779
-3.3780818 4.6057882 1.9800874
-3.3697484 4.6142721 1.9884739
-3.3761644 4.5964274 1.9888048
-3.3909836 4.6046395 1.9871399
-3.3894424 4.5814433 1.9806039
-3.395546 4.5876532 1.9790068
-3.4091947 4.5843034 1.9863155
-3.4081063 4.585609 1.9821795
-3.414649 4.5817022 1.9814889
-3.4227128 4.5750728 1.9865874
-3.4401379 4.5534997 1.9920129
-3.4449465 4.5666709 1.9906478
-3.4413621 4.5598307 1.9961727
-3.4574401 4.544569 1.9946529
-3.4551761 4.5372396 1.9946892
-3.4594414 4.5301909 1.985697
-3.465297 4.5358715 1.9981252
-3.4838371 4.5290117 1.9966381
-3.4865065 4.5219736 1.9960325
-3.4898596 4.5132298 1.9935941
-3.5081072 4.513412 1.9943885
-3.5009227 4.51513 1.993169
-3.5150964 4.5067701 1.9899327
-3.5237384 4.5086632 1.9962671
-3.5138934 4.4991446 1.9801134
-3.5240049 4.4916782 1.9817613
-3.543102 4.4846668 1.9939488
-3.5497639 4.4854193 1.9841442
-3.5579059 4.4697995 1.9921782
-3.5466466 4.4771171 1.9963537
-3.5578189 4.4724708 1.9856056
-3.5681896 4.4612851 1.9814783
-3.5797732 4.4621964 1.9939028
-3.5745857 4.4407282 1.9931411
-3.5830569 4.4353609 1.9877899
-3.5876749 4.4461317 1.9799103
-3.5906379 4.4440479 1.989966
-3.6014063 4.4215374 1.9857297
-3.6019723 4.4171138 1.9908378
-3.6144972 4.4101706 1.9882364
-3.6228395 4.4182701 1.98597
-3.621923 4.4022069 1.9975085
-3.6251264 4.4007607 1.9949567
-3.6358984 4.3906956 1.9959444
-3.6474252 4.3983459 1.9965814
-3.6442957 4.387558 1.993014
-3.669039 4.3799806 1.9923962
-3.6637192 4.3878002 1.9943101
-3.6626287 4.3812122 1.9968511
-3.6764226 4.3682513 1.9975083
-3.692811 4.3730927 1.991333
-3.6914585 4.3649883 1.9941707
-3.6985602 4.3598108 1.9806472
-3.7082064 4.3499846 1.9821523
-3.7168579 4.3347483 1.9964101
-3.704865 4.3287501 1.9849911
-3.7164323 4.324111 1.9911137
-3.7286103 4.3308864 1.9901836
-3.7388668 4.3248401 1.9878021
-3.7465754 4.31108 1.9976047
-3.7536192 4.3070054 1.9974021
-3.7468312 4.3103495 1.9942567
-3.7571981 4.2926502 1.9911042
-3.761081 4.291357 1.9833043
-3.7634516 4.287457 1.9854552
-3.7715569 4.2815866 1.9868037
-3.7710738 4.2701793 1.988717
-3.7844608 4.2726169 1.9826182
-3.7987707 4.2708135 1.9956942
-3.7954543 4.2673097 1.9802396
-3.8023281 4.262763 1.9859481
-3.809397 4.250998 1.9802468
-3.8196037 4.2548523 1.9821011
-3.8129556 4.2408028 1.9879251
-3.8341 4.2303543 1.9951202
-3.833086 4.2377648 1.9817246
-3.8307161 4.2316155 1.9822098
-3.8464253 4.2180281 1.9904287
-3.8482258 4.2160735 1.9821486
-3.8569429 4.2033696 1.9956778
-3.8611069 4.2097197 1.9899813
-3.8595548 4.1949205 1.9978493
-3.8836966 4.195827 1.9949094
-3.8859763 4.1892867 1.983266
-3.8824244 4.1874995 1.9865283
-3.89167 4.172616 1.9825635
-3.8943036 4.1659856 1.9978199
-3.8964443 4.1695209 1.984868
-3.9103584 4.1571231 1.9953487
-3.912545 4.1618686 1.9985209
-3.9211948 4.1483026 1.9934465
-3.9355335 4.1421337 1.9789846
-3.9419963 4.1376605 1.990849
-3.9313915 4.1367378 1.9816011
-3.9524224 4.1251888 1.9960021
-3.9501832 4.130209 1.9809642
-3.951901 4.118403 1.984748
-3.9583547 4.1102557 1.9975276
-3.9577527 4.113986 1.9833782
-3.9666622 4.1013141 1.9794509
-3.9723918 4.0857692 1.9874427
-3.9831879 4.0816545 1.9947584
-3.9884381 4.0768385 1.983102
-4.0018163 4.0683813 1.9960315
-4.0044346 4.0646386 1.9829292
-4.0126438 4.0688734 1.9803722
-4.0158834 4.0571213 1.9915421
-4.0153313 4.0646377 1.9801059
-4.0219913 4.0584717 1.9979491
-4.0227933 4.0491037 1.9886776
-4.0275145 4.0397053 1.9894263
-4.0442362 4.0252028 1.9916334
-4.0536342 4.0311341 1.9946053
-4.0546808 4.0293636 1.9947085
-4.0627899 4.010644 1.9966662
-4.063993 4.0093751 1.9884634
-4.0677457 4.0105195 1.994121
-4.0803204 3.9978614 1.9929157
-4.0843234 3.9841802 1.9911729
-4.0904751 3.9953263 1.9856982
-4.0858903 3.9873726 1.9964695
-4.1005487 3.9683111 1.9983904
-4.0929923 3.9654572 1.9919025
-4.1024556 3.9671547 1.9893118
-4.1118078 3.9663329 1.9936765
-4.1191945 3.9498897 1.982456
-4.1147757 3.9552679 1.9980711
-4.1246915 3.9336376 1.986727
-4.1358042 3.9335625 1.9874084
-4.1486516 3.9328861 1.9849504
-4.146966 3.9223366 1.980261
-4.154501 3.922663 1.98224
-4.1601067 3.9160719 1.9871029
-4.1721921 3.9055357 1.9794085
-4.1668606 3.8911576 1.9966456
-4.1771555 3.8948951 1.9832002
-4.1786633 3.8885453 1.9809015
-4.1845474 3.8777661 1.9827489
-4.1817679 3.8813522 1.9903049
-4.1982985 3.8775606 1.9829761
-4.197279 3.8609169 1.9908969
-4.2009406 3.8621922 1.9849508
-4.2026153 3.8633072 1.9982282
-4.2194185 3.8577745 1.9867914
-4.2239079 3.843003 1.986806
-4.2311525 3.8433576 1.9963953
-4.2318339 3.8276179 1.9854798
-4.2348056 3.8313987 1.9896373
-4.2359214 3.8233562 1.9832407
-4.2494731 3.8041718 1.97892
-4.2503457 3.8113873 1.9838305
-4.2632885 3.8003132 1.9958987
-4.2621694 3.7929292 1.9949721
-4.2677646 3.7940974 1.9944103
-4.2847886 3.776124 1.9849818
-4.2817888 3.7762458 1.9818203
-4.2891917 3.7610173 1.988839
-4.2875023 3.7681401 1.9855659
-4.3016462 3.7594616 1.980185
-4.3021789 3.7625377 1.9815619
-4.3070235 3.7500396 1.9961038
-4.3069496 3.7498882 1.9855288
-4.3147988 3.7361372 1.9935342
-4.323566 3.7220643 1.9886795
-4.3328867 3.7162325 1.9918306
-4.3316278 3.7186568 1.9810899
-4.3335214 3.7189262 1.9811146
-4.3483882 3.7061253 1.9942634
-4.3465195 3.7044113 1.984742
-4.3500228 3.6873879 1.9843127
-4.3521414 3.6907346 1.9974082
-4.3597093 3.6793613 1.9963827
-4.3778434 3.6653368 1.987644
-4.3679638 3.6677344 1.9908773
-4.3829303 3.665992 1.994331
-4.3747373 3.6506813 1.9862684
-4.3972764 3.6586409 1.9845418
-4.3997817 3.6368895 1.996088
-4.3891301 3.642154 1.9920014
-4.4079914 3.6290536 1.9969798
-4.4072733 3.6189649 1.9914001
-4.4134507 3.62643 1.9805498
-4.4206457 3.6208742 1.9817847
-4.4165702 3.6103022 1.991534
-4.4292531 3.6098599 1.9856648
-4.4384732 3.6026986 1.9906162
-4.4357476 3.5780768 1.9896654
-4.4347401 3.57602 1.9931086
-4.4421773 3.5696766 1.9879687
-4.4536924 3.5695255 1.9958879
-4.4602208 3.5551369 1.9798849
-4.4723196 3.559607 1.9975207
-4.4752607 3.5419097 1.9957811
-4.4769578 3.5533066 1.9896574
-4.4888968 3.5370309 1.9892861
-4.4866962 3.5365365 1.9879549
-4.4795356 3.5237606 1.9882108
-4.4933171 3.5169766 1.9926254
-4.5036464 3.5077307 1.9969192
-4.4991069 3.5119369 1.9872913
-4.5066395 3.4945729 1.9895116
-4.5101662 3.4900591 1.9824452
-9.2728653 1.7685941 1.3147013
-9.2780733 1.7626756 1.3138421
-9.2893867 1.7497449 1.3229711
-9.2810545 1.7239325 1.3178768
-9.294034 1.7101901 1.3262844
-9.2867403 1.7075667 1.3141928
-9.2950134 1.6995057 1.319147
-9.298975 1.6808671 1.3146055
-9.2925463 1.6595701 1.3190054
-9.3038788 1.6596119 1.3252035
-9.3022594 1.6386282 1.3152069
-9.2991362 1.6348795 1.3122574
-9.2968531 1.622242 1.3093458
-9.3054237 1.6003445 1.3135943
-9.2990694 1.5878559 1.3170758
-9.3042908 1.565032 1.310913
-9.3215847 1.5562874 1.3096713
-9.3139057 1.545916 1.3227764
-9.310751 1.5442901 1.3275734
-9.3231773 1.5136298 1.3254043
-9.3293886 1.5068688 1.3152465
-9.3255768 1.5054939 1.3143383
-9.3246975 1.4886454 1.3137943
-9.3267107 1.4654529 1.3243573
-9.3244581 1.4508219 1.3154395
-9.3387051 1.4531598 1.3167084
-9.339097 1.4403753 1.3222467
-9.3407125 1.4174227 1.3104304
-9.3292046 1.3997601 1.3100082
-9.332881 1.3917879 1.3119484
-9.3387089 1.3797039 1.3201536
-9.3346758 1.3735117 1.3200123
-9.3515329 1.3502617 1.3160543
-9.3489161 1.3470426 1.3219384
-9.3557177 1.3281027 1.3262285
-9.3514194 1.3169236 1.3258969
-9.3458338 1.3073425 1.3258238
-9.3546915 1.2781177 1.3158435
-9.3553467 1.2823542 1.3212492
-9.3564062 1.2648493 1.311734
-9.3555079 1.2434338 1.3231884
-9.3663855 1.2279499 1.3215072
-9.3573856 1.2174895 1.3096353
-9.3723259 1.2115084 1.327606
-9.3613644 1.2005699 1.3197012
-9.3660936 1.175756 1.3136842
-9.3711367 1.1783358 1.3111557
-9.376235 1.1538475 1.3124743
-9.371295 1.1504749 1.3111039
-9.3809299 1.1277958 1.3253056
-9.3800631 1.1077505 1.3111712
-9.3677235 1.0985441 1.3146346
-9.3770466 1.1000354 1.3207217
-9.3782225 1.0682666 1.3139144
-9.3814106 1.0691215 1.3292575
-9.3724842 1.0468905 1.3128779
-9.3895569 1.0412419 1.3121715
-9.3891401 1.0321025 1.3200725
-9.3873863 1.0094922 1.3176991
-9.3869839 0.99881667 1.3257467
-9.3923626 0.99056071 1.3268512
-9.3918562 0.97617877 1.3118539
-9.3878689 0.95398962 1.3114547
-9.3977757 0.95212144 1.3123952
-9.3944712 0.92854488 1.3273016
-9.3958063 0.91535521 1.3130898
-9.3935022 0.90653563 1.3263444
-9.3918858 0.89955747 1.3235765
-9.4023504 0.87573946 1.3113172
-9.3951702 0.87371111 1.3215033
-9.3999233 0.84767431 1.3165561
-9.403554 0.84349447 1.3103517
-9.4021645 0.82463515 1.3150848
-9.4011545 0.81718349 1.3110781
-9.3991861 0.79433221 1.3166251
-9.4022932 0.79142445 1.3221145
-9.3995934 0.77208066 1.311918
-9.4036207 0.75559431 1.327879
-9.4103985 0.7498666 1.3131592
-9.4094162 0.73252404 1.3095502
-9.4182291 0.73161411 1.3130449
-9.411972 0.70824158 1.325502
-9.4118996 0.6874091 1.3122438
-9.4070768 0.68871742 1.3246795
-9.4262419 0.67310715 1.3274109
-9.4198418 0.65548474 1.3203833
-9.4279337 0.6416384 1.3271619
-9.4262037 0.6248228 1.3106059
-9.4284945 0.62226993 1.3214753
-9.229002 0.58934093 1.3633792
-9.2295675 0.5812555 1.3623066
-9.2266207 0.56041259 1.3510188
-9.2311983 0.56060791 1.3520572
-9.2290163 0.54657453 1.347564
-9.2343807 0.53430575 1.3606218
-9.2369957 0.50934857 1.3492198
-9.2266207 0.49719244 1.3571355
-9.2294483 0.48764086 1.3614007
-9.2288141 0.47665489 1.3562794
-9.2372923 0.46951473 1.3637762
-9.2390718 0.44261137 1.356082
-9.2419052 0.43943951 1.3604404
-9.2360096 0.4324564 1.3578906
-9.2290564 0.40840387 1.354205
-9.2265787 0.3997176 1.3511492
-9.2310257 0.38912901 1.3560361
-9.2268562 0.36961052 1.3616673
-9.2347527 0.36794078 1.3506485
-9.2383661 0.3475638 1.3615463
-9.2470827 0.33934894 1.3582073
-9.2282848 0.32997754 1.3608694
-9.2371626 0.29837701 1.3532647
-9.2416649 0.29325953 1.3515829
-9.2486982 0.27566358 1.3587554
-9.2393999 0.26109591 1.3501492
-9.2331381 0.26261434 1.3638626
-9.241972 0.24881701 1.3509668
-9.2451572 0.2276196 1.349311
-9.2393427 0.2232873 1.3601886
-9.2426119 0.21069883 1.3557626
-9.2492027 0.19735108 1.3548768
-9.2331133 0.17554983 1.3553029
-9.2446098 0.16965349 1.3635244
-9.237771 0.15711226 1.3470635
-9.243741 0.13424058 1.348949
-9.0414419 0.11549068 1.3804901
-9.0422649 0.11100841 1.3959262
-9.0359669 0.1036581 1.3830804
-9.0513077 0.082421005 1.3988181
-9.0557518 0.078194939 1.3948836
-9.0446053 0.067640975 1.3905182
-9.0543261 0.05342114 1.3972684
-9.0436039 0.027930751 1.3910397
-9.0446424 0.029488051 1.3851875
-9.0421238 0.0052655535 1.3893815
-9.0377026 0.0066570649 1.3902359
-9.0369444 -0.012623846 1.3992517
-9.0407333 -0.025473025 1.3935608
-9.0373507 -0.033546273 1.3992767
-9.0382118 -0.045965906 1.3934108
-9.0429897 -0.067157999 1.3896351
-9.0521154 -0.078008272 1.3842838
-9.0544739 -0.098090604 1.3860866
-9.0430431 -0.09918341 1.382091
-9.037447 -0.11774756 1.3865175
-9.0476389 -0.13189758 1.38498
-9.0369587 -0.14531505 1.396806
-9.0372458 -0.16256382 1.3884271
-9.0432053 -0.15648971 1.3846195
-9.0434313 -0.17135498 1.3810363
-9.0495062 -0.191094 1.3889052
-9.0393391 -0.20007224 1.3985678
-9.0345049 -0.2115394 1.3807918
-9.0478506 -0.23172413 1.3945667
-9.0451746 -0.24647866 1.3824207
-9.0380535 -0.25160897 1.3887678
-9.0324535 -0.26626059 1.3943404
-9.231782 -0.28772074 1.3600841
-9.2426901 -0.28934914 1.3597667
-9.2373877 -0.31145793 1.357226
-9.235651 -0.31991309 1.3475879
-9.246027 -0.33849031 1.3616127
-9.4234457 -0.36021721 1.3215883
-9.4418888 -0.36821285 1.3292422
-9.4265375 -0.39387447 1.3147813
-9.4233141 -0.39277554 1.3278295
-9.4337254 -0.40645361 1.3188648
-9.635211 -0.4321323 1.2921586
-9.6190338 -0.44036573 1.291959
-9.6231546 -0.46373662 1.2825625
-9.6297979 -0.46582806 1.277622
-9.6260605 -0.47877115 1.2870148
-9.8248768 -0.50332564 1.2400445
-9.8118639 -0.51669723 1.253485
-9.8111782 -0.53525901 1.2544469
-9.824934 -0.55115676 1.2496901
-9.8256216 -0.55804348 1.2444367
-10.011776 -0.58214098 1.2205124
-10.012857 -0.59916824 1.2170316
-10.014119 -0.62096274 1.2236335
-10.004758 -0.63006508 1.2215967
-10.196769 -0.66900522 1.1848457
-10.202898 -0.678249 1.182636
-10.200755 -0.69521558 1.1807789
-10.205152 -0.71225113 1.1740831
-10.208566 -0.72381639 1.1852118
-10.393074 -0.75112623 1.147952
-10.386439 -0.75489342 1.1473318
-10.388485 -0.78059036 1.1436775
-10.393992 -0.78841656 1.1522205
-10.58915 -0.82312793 1.1104292
-10.59003 -0.83922023 1.1118016
-10.592417 -0.84238583 1.0981928
-10.576993 -0.86437243 1.1018784
-10.779591 -0.88819498 1.0675657
-10.772655 -0.90025461 1.0711685
-10.77457 -0.92148954 1.0759815
-10.974616 -0.95443004 1.0363342
-10.979121 -0.97349769 1.0407407
-10.96726 -0.97917634 1.0318476
-10.966835 -1.0048641 1.0381275
-11.168971 -1.0309695 1.0078901
-11.153673 -1.0625508 1.0045054
-11.151962 -1.0599159 0.99392825
-11.166544 -1.0849218 1.0107764
-11.356103 -1.1237307 0.97540677
-11.346101 -1.1265546 0.96908772
-11.351263 -1.1546235 0.96216607
-11.536654 -1.1888443 0.93628705
-11.541762 -1.2125713 0.93528301
-11.535742 -1.2172745 0.92392033
15.407045 -4.8346066 0.11445026
15.412642 -4.8127084 0.12769295
15.422644 -4.781076 0.11598232
15.42926 -4.7610068 0.12958558
15.430788 -4.7407322 0.11862607
15.436924 -4.7170968 0.12813036
15.447129 -4.7035584 0.12630275
15.456779 -4.6851048 0.12160286
15.465234 -4.6638322 0.11303262
15.47633 -4.6455255 0.12473968
15.470272 -4.617599 0.13121723
15.479424 -4.5908117 0.11808524
15.481787 -4.5807281 0.11506862
15.49241 -4.5507026 0.1305951
15.496606 -4.525795 0.12486079
15.509812 -4.5013666 0.12121672
15.512493 -4.4933181 0.1295571
15.513316 -4.4621754 0.11478779
15.529408 -4.4491014 0.11971845
15.536901 -4.4114275 0.12137454
15.53607 -4.4062757 0.12936629
15.541686 -4.3784075 0.12254579
15.554139 -4.3545799 0.12420052
15.563546 -4.3265038 0.11426327
15.56845 -4.3205757 0.12760711
15.567588 -4.287755 0.12374406
15.583053 -4.2785382 0.12628578
15.586826 -4.2547522 0.11831743
15.595801 -4.221097 0.12176117
15.589676 -4.2061434 0.12120894
15.605176 -4.178184 0.12412935
15.418446 -4.0998855 0.14845316
15.414986 -4.0863571 0.15968588
15.43315 -4.0694942 0.15729032
15.441348 -4.0537705 0.15910992
15.44286 -4.0249205 0.15202859
15.440477 -4.0065875 0.15243454
15.440607 -3.9704323 0.15488838
15.452739 -3.9512234 0.14925078
15.468284 -3.9440303 0.15681224
15.463246 -3.9071975 0.15057027
15.481099 -3.8927326 0.14999998
15.468023 -3.8674564 0.16144443
15.48615 -3.8497145 0.14823009
15.481851 -3.8294439 0.14920995
15.49934 -3.8133008 0.15750261
15.489719 -3.7851484 0.16258265
15.500473 -3.7624447 0.16226503
15.513652 -3.7331588 0.15959541
15.521162 -3.7138462 0.16255008
15.516203 -3.7050598 0.16076143
15.524972 -3.6838789 0.15185359
15.533141 -3.6612024 0.16663022
15.532724 -3.6257975 0.15754968
15.539062 -3.6200602 0.1471331
15.54635 -3.5821707 0.15124545
15.541901 -3.5592103 0.16188861
15.562501 -3.5507734 0.15360625
15.562753 -3.5344059 0.15297362
15.560305 -3.4957454 0.15000975
15.560781 -3.4872308 0.15418144
15.579439 -3.4551039 0.15787588
15.589158 -3.439935 0.16258146
15.593624 -3.4102798 0.16101922
15.588979 -3.3993526 0.1635147
15.593886 -3.3661735 0.16221301
15.602876 -3.3424501 0.16217794
15.409971 -3.2818666 0.18410185
15.421204 -3.2674809 0.18546303
15.411774 -3.2404583 0.18377009
15.41935 -3.217844 0.18887047
15.431067 -3.2014267 0.18436964
15.426449 -3.1801145 0.19330275
15.446506 -3.1591306 0.19014944
15.444971 -3.1475556 0.19617499
15.445901 -3.1158063 0.19362453
15.4455 -3.0997701 0.19303586
15.465034 -3.0688043 0.1900268
15.451238 -3.0511906 0.1998976
15.458774 -3.0275626 0.19527887
15.464586 -3.0008833 0.19175588
15.668745 -3.024447 0.14790255
15.675149 -2.9993584 0.15905303
15.863836 -3.0155728 0.1144274
15.87601 -3.0005317 0.11505585
-3.1463027 5.0103574 2.0033929
-3.1558151 5.0107865 1.9999992
-3.1651263 4.9945478 1.9921556
-3.1676323 4.9905 1.9932897
-3.1806254 4.983355 1.9954098
-3.1869578 4.9946399 2.0048184
-3.185122 4.9743271 1.994983
-3.1951854 4.9690304 2.0003099
-3.2065353 4.9650493 1.9917958
