# .PCD v0.7 - Point Cloud Data file format
VERSION 0.7
FIELDS x y z
SIZE 4 4 4
TYPE F F F
COUNT 1 1 1
WIDTH 1567
HEIGHT 1
VIEWPOINT 0 0 0 1 0 0 0
POINTS 1567
DATA ascii
-4.1139808 1.6524634 1.1838034
-4.1231871 1.6361519 1.1831423
-4.1295862 1.6466146 1.1838793
-4.1168027 1.6273998 1.1938205
-4.1199398 1.6373954 1.1907909
-4.1269679 1.6303339 1.1993133
-4.1300282 1.6128132 1.1837084
-4.296176 1.6843339 1.1116554
-4.3170676 1.6703126 1.1210315
-4.3162341 1.6602744 1.1164441
-4.3189669 1.667372 1.1078093
-4.3170924 1.6475472 1.1086271
-4.3158703 1.643599 1.1056745
-4.3139029 1.6347027 1.1092776
-4.3219862 1.6449294 1.1086498
-4.3330903 1.6303797 1.1067371
-4.3356638 1.6150134 1.1130836
-4.3338337 1.6083581 1.1100384
-4.3281994 1.6031322 1.1189991
-4.3331804 1.6010522 1.1039521
-4.3427401 1.598543 1.1220361
-4.3409266 1.600204 1.1063322
-4.3382864 1.5853739 1.11272
-4.3385906 1.5747896 1.1162548
-4.3352833 1.5783926 1.1160626
-4.3525953 1.5731531 1.1073704
-4.3518109 1.5675936 1.1093644
-4.3446722 1.5661091 1.1107591
-4.36057 1.5524954 1.1129869
-4.3474984 1.5361284 1.1191968
-4.3494658 1.5324211 1.1089628
-4.3533401 1.5327387 1.1064579
-4.3529105 1.5178988 1.1151944
-4.5410137 1.585335 1.0435724
-4.5307283 1.577634 1.0374796
-4.540626 1.5747981 1.032228
-4.5392075 1.5549148 1.0475003
-4.5557857 1.5643305 1.0473747
-4.5509601 1.5400001 1.0397252
-4.5438981 1.5508842 1.0418013
-4.5506172 1.5419359 1.046266
-4.5475616 1.531239 1.0371467
-4.5670018 1.5230899 1.0392891
-4.5576968 1.5238762 1.0345862
-4.5641561 1.5171328 1.0285341
-4.5566993 1.5026675 1.046001
-4.5744848 1.4917881 1.0299424
-4.5769897 1.4864886 1.0296605
-4.5796108 1.4881637 1.031412
-4.5698724 1.4790415 1.0304146
-4.5780492 1.4653314 1.0468388
-4.5817523 1.4567997 1.038939
-4.5745659 1.4509416 1.0292659
-4.5852284 1.4564933 1.0467578
-4.5805845 1.4376818 1.0438881
-4.5819836 1.4484143 1.0329378
-4.7626858 1.4781775 0.96164685
-4.7627349 1.4725202 0.96729559
-4.7630568 1.466302 0.96101284
-4.7616181 1.4718732 0.972004
-4.781167 1.4513102 0.95568424
-4.7642832 1.4490774 0.95723468
-4.7752891 1.4560555 0.95933169
-4.775959 1.4343872 0.95338804
-4.7791276 1.4393696 0.95504338
-4.7851567 1.4249504 0.95384443
-4.7821269 1.4285965 0.95408636
-4.7945294 1.4142495 0.95533657
-4.7812743 1.4016273 0.95703703
-4.7942924 1.3924816 0.97098005
-4.7963099 1.3858148 0.97103423
-4.7946382 1.3780513 0.95553261
-4.7914066 1.381291 0.95368904
-4.8060684 1.3658612 0.95685989
-4.8066645 1.3692538 0.97169846
-4.8055959 1.3685989 0.9588061
-4.9839549 1.4027276 0.88040209
-4.9838939 1.3963863 0.89019352
-4.982573 1.3852538 0.89405924
-4.9795418 1.3830473 0.89547843
-4.9825583 1.3807583 0.8769328
-4.9855103 1.3620665 0.87732816
-4.9839544 1.3685228 0.88767064
-4.9842324 1.362224 0.88929325
-5.0013294 1.3572265 0.88102102
-5.0035787 1.3351858 0.87880915
-4.9987102 1.3349026 0.88766271
-4.996387 1.3366194 0.87714446
-5.0042629 1.3215859 0.88246578
-5.0082636 1.3115029 0.89255559
-5.0108347 1.3003134 0.88733369
-5.0119419 1.3080713 0.89040029
-5.0126443 1.2992753 0.88690591
-5.0029941 1.2920817 0.88409823
-5.0117116 1.2696614 0.88328111
-5.1881871 1.3118891 0.81156516
-5.1874318 1.3155495 0.80240822
-5.1978126 1.3033742 0.80196381
-5.1987019 1.2851545 0.81348437
-5.1942592 1.2847562 0.80192292
-5.199717 1.2835984 0.80617535
-5.2103863 1.2631357 0.80519181
-5.197979 1.2637632 0.80242079
-5.2090554 1.2558235 0.81946725
-5.20293 1.2409394 0.80110699
-5.2176113 1.2508384 0.80695444
-5.2081494 1.2433089 0.80373156
-5.2078342 1.2272043 0.81560498
-5.2279534 1.2120064 0.81653291
-5.2165422 1.2230366 0.80433923
-5.216682 1.2103847 0.81826699
-5.2325592 1.2088288 0.8190136
-5.4099236 1.2421987 0.73182315
-5.4095917 1.2252216 0.73982829
-5.4122024 1.216105 0.74023825
-5.4131632 1.2140317 0.73783869
-5.4082656 1.2031347 0.73520333
-5.4065809 1.1942569 0.74375969
-5.4130116 1.1869539 0.74441677
-5.4185042 1.1727464 0.74340504
-5.4161797 1.1800729 0.73704463
-5.4199166 1.1731858 0.73643398
-5.4228969 1.1511017 0.73573798
-5.4172082 1.1510494 0.72562712
-5.4235034 1.1500756 0.73396438
-5.4293785 1.1298199 0.72779542
-5.4376421 1.1361299 0.73829877
-5.4285307 1.1257826 0.72749609
-5.6122317 1.1473724 0.66111571
-5.6139369 1.1481322 0.66395289
-5.616643 1.1328424 0.66169518
-5.6256981 1.1154308 0.66013128
-5.6153526 1.116644 0.66406626
-5.6256928 1.1051403 0.65553439
-5.6261325 1.108925 0.65361625
-5.6182241 1.0884078 0.65903217
-5.6164737 1.0811892 0.65835011
-5.6242089 1.0846341 0.65491492
-5.6227355 1.0672985 0.66394502
-5.6317835 1.06984 0.66158664
-5.6379828 1.0512464 0.65179253
-5.6264286 1.0451576 0.65244293
-5.6364279 1.0309628 0.66216487
-5.8245897 1.0608805 0.59239483
-5.8192091 1.0587169 0.59012073
-5.8157358 1.0459777 0.57519412
-5.8268347 1.036494 0.58091581
-5.8186045 1.0207692 0.57795131
-5.8337984 1.0280007 0.58552235
-5.8199506 1.0076567 0.58350784
-5.8284497 1.0025746 0.59077495
-5.8267317 0.99049652 0.57983041
-5.8243518 0.98985863 0.58257037
-5.8322387 0.98459595 0.59019494
-5.8340354 0.96617663 0.58379328
-5.8380947 0.97268254 0.59279203
-6.0197453 0.97913313 0.50459987
-6.0130281 0.98538423 0.50467527
-6.029264 0.9778592 0.50012761
-6.0179162 0.96558815 0.50338352
-6.0285721 0.94621277 0.50970674
-6.0319486 0.94993895 0.51210326
-6.0262575 0.93741703 0.50201529
-6.0178151 0.91836905 0.51481992
-6.0217366 0.91887373 0.49736232
-6.0320477 0.91665691 0.51456964
-6.0333486 0.89679205 0.51678491
-6.0269804 0.88500088 0.51366907
-6.0405259 0.87831885 0.51144797
-6.2217898 0.91060019 0.42952859
-6.21664 0.88700831 0.43250605
-6.2251544 0.88134927 0.42763492
-6.2312598 0.88267845 0.438669
-6.2274418 0.87373602 0.43908399
-6.2308064 0.86214632 0.42843434
-6.2316165 0.84150791 0.42400035
-6.2352076 0.84081948 0.42813569
-6.2365708 0.82773757 0.42891583
-6.2210379 0.82233769 0.43145162
-6.2277136 0.82007211 0.42842495
-6.240448 0.80419683 0.43050328
-6.4137912 0.82424551 0.35977241
-6.4084272 0.8159374 0.35491985
-6.4120164 0.8126514 0.34982678
-6.4151783 0.78719205 0.36184773
-6.428977 0.78210175 0.36193556
-6.4271975 0.77458799 0.3500419
-6.4212704 0.76686591 0.35377496
-6.4145503 0.7558198 0.36081833
-6.4252815 0.75922853 0.35430792
-6.4190273 0.75102144 0.36063561
-6.4306822 0.73417604 0.35251641
-6.6211395 0.74420923 0.28921324
-6.6125321 0.73112226 0.28744712
-6.609005 0.71597493 0.28919762
-6.6134439 0.7081176 0.27483532
-6.6177821 0.7031163 0.2819382
-6.6140013 0.70510644 0.27029946
-6.6264739 0.69486809 0.27659661
-6.6118908 0.67493713 0.27528584
-6.623805 0.66228682 0.27475289
-6.6293783 0.65899563 0.2863608
-6.8072581 0.66799939 0.20075284
-6.808404 0.66855234 0.20715256
-6.8113027 0.65363657 0.20765227
-6.812438 0.6352731 0.20954338
-6.8079219 0.63354975 0.19568329
-6.8162899 0.61657292 0.21306477
-6.8162832 0.60807562 0.20946072
-6.8099666 0.59510136 0.19517982
-6.8049469 0.59113961 0.19750407
-6.820447 0.58251816 0.20579381
-6.9887562 0.59636235 0.11867855
-7.0024018 0.57447112 0.13748141
-7.0096345 0.57058048 0.13088621
-6.9963536 0.56644094 0.13544649
-7.0011678 0.54769009 0.12780361
-6.9998288 0.54143095 0.13270526
-7.0010943 0.53602481 0.11863222
-7.0059505 0.5177688 0.12110864
-7.0050735 0.50535214 0.12914823
4.6550951 2.7404411 0.84589851
4.6546135 2.7530465 0.85616422
4.6409383 2.7557855 0.85800046
4.627748 2.7555771 0.85533851
4.6381121 2.7735679 0.84972996
4.6313925 2.7802305 0.84906077
4.6199784 2.7802086 0.84916246
4.6255307 2.7760468 0.84128416
4.6223893 2.7842526 0.85555571
4.6052341 2.7920027 0.85611123
4.6016192 2.8146758 0.84634095
4.6039443 2.8206785 0.84270185
4.5965261 2.8168261 0.85533297
4.5909352 2.8236122 0.8412922
4.6026735 2.8246009 0.85878396
4.5887942 2.8427169 0.85648566
4.5942369 2.8332751 0.847718
4.579772 2.8532507 0.84834635
4.5774202 2.8539588 0.85074413
4.5693312 2.8613949 0.85446066
4.4045191 2.7705331 0.92891884
4.4073353 2.7842526 0.92846537
4.4065037 2.7744639 0.91774452
4.3982944 2.7830036 0.92740059
4.3960361 2.7872093 0.9316414
4.3912611 2.8014727 0.92759973
4.3841791 2.8051243 0.92772353
4.3883209 2.8182662 0.92143565
4.3730822 2.8130198 0.92947412
4.3802333 2.8236568 0.91857237
4.3710923 2.8307326 0.92901278
4.3619065 2.8444772 0.92702705
4.3722587 2.8412509 0.92911249
4.3718815 2.8536854 0.93360269
4.3611522 2.8477395 0.91616911
4.3546548 2.8609052 0.92687494
4.3441076 2.8708842 0.91511399
4.3536758 2.8689086 0.93038177
4.3369474 2.875607 0.91429555
4.3482494 2.8933771 0.92274421
4.3286409 2.8859351 0.93217206
4.1851525 2.7901025 1.0037473
4.1741261 2.7914958 0.99151665
4.1651769 2.8164673 1.0056403
4.1607099 2.8146727 1.0077434
4.1588011 2.8103528 0.99694324
4.1475902 2.8194661 0.99005842
4.1446104 2.8221362 0.99514019
4.1568899 2.8320754 1.000868
4.1530757 2.8373218 0.99831903
4.1377015 2.8469741 1.0022871
4.1317472 2.8514724 1.00753
4.1428661 2.8488312 1.0083518
4.1217461 2.8611357 1.0083359
4.1347418 2.8728762 1.0007217
4.1298327 2.8666191 1.0029894
4.1141152 2.8730702 1.0085778
4.111505 2.8804684 0.99104899
4.1139688 2.8840818 0.99767756
4.1021519 2.907824 1.0037766
4.1077785 2.9001436 0.99375701
4.0973649 2.9104686 1.0024707
4.0921865 2.9158797 1.0027834
4.087822 2.9241467 0.98964667
4.0834332 2.9293928 1.0025018
3.9206529 2.8254662 1.0778513
3.9310532 2.8378663 1.0794202
3.9270344 2.8316641 1.0826558
3.9254789 2.8319411 1.0637785
3.9105446 2.8444252 1.0829229
3.9017017 2.8465674 1.0686722
3.9028316 2.8623359 1.0790371
3.8926673 2.8569734 1.0691096
3.9028084 2.8713019 1.0817511
3.8998053 2.8653052 1.0739465
3.8896496 2.8713691 1.0647836
3.8803415 2.8917615 1.0825505
3.8725951 2.892071 1.0686501
3.8880763 2.8947682 1.0695673
3.8646729 2.906482 1.0775146
3.8604064 2.9133112 1.0821558
3.8618817 2.9052365 1.0771226
3.8537142 2.9109714 1.0812895
3.8556118 2.9308288 1.0743531
3.8501432 2.9316716 1.0759938
3.8568628 2.9263554 1.0782779
3.8544118 2.935735 1.0755396
3.8497202 2.9413795 1.0677011
3.831121 2.9465244 1.0771561
3.8334312 2.9522924 1.0729268
3.8236816 2.9578283 1.0701342
3.8185656 2.9688807 1.0738801
3.6818264 2.8619545 1.1524738
3.6759884 2.8546383 1.151055
3.6632068 2.8659179 1.1451092
3.6720586 2.8679888 1.1484829
3.6631875 2.8716881 1.1558778
3.651571 2.8747828 1.1435645
3.6521089 2.8833721 1.151049
3.6420949 2.8983736 1.1389602
3.6478443 2.8877344 1.1470716
3.630794 2.8960958 1.1409056
3.6374826 2.8984241 1.1563498
3.6282635 2.9188871 1.1393639
3.6176186 2.9105477 1.1485494
3.621021 2.9150469 1.1547034
3.62779 2.9346685 1.1394594
3.6219468 2.9266746 1.1422186
3.6037831 2.9432263 1.1484812
3.6130972 2.9337788 1.1446651
3.6103153 2.9541028 1.145135
3.5956378 2.9614055 1.1488974
3.5947874 2.9594328 1.149925
3.5893741 2.9722843 1.1463577
3.5869679 2.9585414 1.1493989
3.5737405 2.9722579 1.1518929
3.5866599 2.9768076 1.148968
3.5643284 2.9795856 1.1530139
3.5647492 2.9882784 1.1485822
3.5714257 2.9903705 1.1496794
3.5542789 2.9937732 1.1460825
3.5575955 3.0065978 1.1447761
3.4029813 2.8827796 1.230985
3.4112413 2.8973622 1.2305505
3.3959274 2.8936596 1.231378
3.4036481 2.9008567 1.2209327
3.3938563 2.9051075 1.2300539
3.3811331 2.9111683 1.2169756
3.3924489 2.9217982 1.2276181
3.3793266 2.9232597 1.2153867
3.387295 2.9317369 1.2215978
3.3716598 2.9276996 1.215679
3.3747118 2.9349101 1.2208921
3.3694718 2.9343958 1.215943
3.3637905 2.9425898 1.2225517
3.3589303 2.942533 1.2316238
3.3436186 2.9567196 1.2202187
3.3574214 2.9622245 1.2301519
3.3381393 2.9630938 1.2259982
3.3494933 2.9748955 1.2185948
3.3286092 2.9787271 1.2149632
3.33393 2.9709916 1.2225944
3.3333254 2.9903824 1.2127419
3.3179274 2.9886143 1.2176869
3.3175738 2.9852529 1.2261431
3.3238225 3.0011253 1.2298657
3.3191369 3.0057867 1.2231036
3.3030396 3.0083578 1.217181
3.296869 3.0157607 1.2274677
3.3065386 3.0186377 1.2249023
3.2887981 3.0247571 1.2215202
3.2874198 3.0203307 1.22576
3.2936661 3.0194392 1.2247541
3.2900538 3.0272958 1.2173492
3.2713799 3.0389514 1.2219577
3.2811561 3.0410147 1.2178195
3.1388116 2.9160707 1.2882233
3.1257122 2.9254987 1.3020965
3.126684 2.9329348 1.2987708
3.1179364 2.9342251 1.293726
3.1266174 2.9419665 1.2902108
3.1119101 2.9325271 1.2976849
3.1014369 2.9535384 1.2996892
3.1099515 2.9551477 1.3049775
3.1110551 2.9623001 1.2973551
3.0967615 2.9634516 1.2872351
3.0983233 2.9623251 1.2941034
3.095789 2.9721582 1.3060404
3.0871217 2.9670286 1.3010598
3.0751226 2.9772224 1.2930218
3.0780728 2.980175 1.2883828
3.0775018 2.9925036 1.289968
3.064399 2.9784484 1.2882335
3.0732946 2.9970033 1.3037833
3.0674725 3.0007634 1.302166
3.0540221 2.9943373 1.2973866
3.0504456 3.0135868 1.287173
3.0537314 3.0144212 1.3024904
3.0489485 3.0107141 1.2883816
3.0391791 3.0191395 1.3001763
3.0413659 3.0146525 1.2906384
3.0389075 3.0337381 1.2891504
3.0180285 3.0238705 1.2893338
3.0154092 3.0270538 1.3038048
3.0083339 3.0485764 1.2977742
3.0196352 3.0408156 1.3010617
3.0061514 3.0536516 1.2993488
3.0024481 3.0539527 1.2942263
2.9940565 3.0536561 1.3011583
2.99155 3.067781 1.2922834
3.0008326 3.0682893 1.294695
2.9805715 3.0705421 1.2919716
2.9788165 3.0761247 1.2951657
2.9772391 3.0833023 1.2973341
2.9701269 3.087625 1.296822
2.9769783 3.0874753 1.304352
2.838547 2.9642015 1.3750212
2.8271484 2.9551554 1.3673121
2.830622 2.9619613 1.375127
2.821022 2.9705107 1.3728932
2.8225417 2.9725983 1.3670005
2.8264675 2.9786863 1.379199
2.8076644 2.9872866 1.3728245
2.8120499 2.9785826 1.3694781
2.7985983 2.987045 1.3663108
2.8046291 2.9866436 1.3788562
2.7981846 3.0006657 1.3778684
2.7879095 3.0073984 1.3638883
2.7899201 3.001719 1.3727736
2.7797399 3.01056 1.3662738
2.7873206 3.0050459 1.3779325
2.7690034 3.0075889 1.3717561
2.7628791 3.015465 1.3702625
2.770375 3.0118687 1.3761532
2.754519 3.0189681 1.3666005
2.7554905 3.0362513 1.3727465
2.749002 3.0312483 1.3690201
2.7415204 3.040134 1.3681382
2.7400532 3.0351992 1.3776944
2.7474658 3.0442588 1.3722147
2.7283735 3.045079 1.3773502
2.7409346 3.0517673 1.3611635
2.727314 3.0565219 1.3689938
2.7321944 3.0529687 1.3693744
2.7229602 3.057761 1.3730069
2.7241683 3.0677314 1.3700812
2.7115169 3.0754256 1.3783168
2.7151339 3.0798554 1.3716081
2.6978636 3.0870409 1.3761408
2.6901443 3.0858676 1.3659151
2.6969399 3.0898352 1.3726976
2.6888661 3.0906029 1.3623621
2.6846001 3.1019938 1.3729812
2.6881592 3.1025147 1.3762527
2.6720939 3.0980561 1.380528
2.6796558 3.0990655 1.3709915
2.6642869 3.1116886 1.3653725
2.6571481 3.1121993 1.3804132
2.6632957 3.1197152 1.3788749
2.6539707 3.1237931 1.3724047
2.6544151 3.1189528 1.3661497
2.6416366 3.1303301 1.3769157
2.5188103 2.9798903 1.4498264
2.5265033 2.9989922 1.4450294
2.517463 2.9863362 1.4520452
2.5126929 3.0055547 1.436348
2.4983816 2.993722 1.4495574
2.4984465 2.9990735 1.439567
2.4935472 3.0149009 1.4533885
2.4871047 3.0057364 1.4475893
2.4941874 3.0213544 1.4532577
2.4950099 3.0285378 1.4466171
2.4865937 3.0169506 1.4477044
2.4765892 3.0172122 1.4443868
2.4817827 3.0325937 1.4449121
2.4739873 3.0273709 1.4411604
2.47049 3.032007 1.4420866
2.4601972 3.0408831 1.4448805
2.4599092 3.0490398 1.4400238
2.453438 3.054939 1.4425306
2.4411628 3.0521104 1.4371895
2.4345512 3.0542989 1.4555712
2.4412944 3.0522704 1.4389113
2.4291201 3.0644414 1.4390646
2.4336236 3.0660152 1.4511569
2.4186475 3.064007 1.4545894
2.4199152 3.0627203 1.4392272
2.4221041 3.0753639 1.449316
2.4070826 3.0719478 1.4441427
2.4071994 3.0862932 1.4414552
2.4098184 3.0926011 1.4525319
2.4070914 3.0965395 1.4423958
2.4027417 3.0914683 1.4468358
2.4017274 3.098475 1.4400574
2.3808618 3.0942414 1.4514692
2.3920836 3.099293 1.4374956
2.3867338 3.1098783 1.4388635
2.3660169 3.1069231 1.4495094
2.3753841 3.1132216 1.4533796
2.3595734 3.1239169 1.4482416
2.3610709 3.1215158 1.4460636
2.3536403 3.1206775 1.4444827
2.3560688 3.1197832 1.4544948
2.3429329 3.1221733 1.4481839
2.3430142 3.128001 1.4543157
2.3345027 3.1293585 1.4421816
2.3320129 3.1296787 1.4373211
2.3308866 3.133599 1.4461999
2.3204014 3.1512086 1.4380776
2.3137822 3.1373336 1.4373572
2.3220203 3.149287 1.4509484
2.3080761 3.1581454 1.4404196
2.3125465 3.1537726 1.4457213
2.3070245 3.1606085 1.4501438
2.295187 3.1718748 1.437131
2.2894769 3.1589832 1.4422188
2.2916281 3.1679604 1.4443758
2.2889144 3.1801739 1.4472082
2.2750752 3.1662698 1.4444113
2.2731092 3.1701181 1.4445068
2.1625776 3.0355148 1.5278234
2.1536846 3.042264 1.5222838
2.1542585 3.037869 1.529157
2.16013 3.0323422 1.519658
2.15042 3.0393724 1.5182232
2.1476929 3.0450916 1.5207011
2.1500494 3.0573654 1.5289661
2.1345587 3.0513337 1.5262612
2.1418962 3.0558748 1.5264747
2.1264327 3.0628669 1.5273654
2.1310606 3.0515893 1.5215542
2.124507 3.0556331 1.5194836
2.1124094 3.0644698 1.5300155
2.1071811 3.0634007 1.5120238
2.1124494 3.076849 1.5180717
2.0962789 3.0718012 1.5268539
2.1025822 3.0733454 1.5249312
2.0971465 3.0836387 1.5140035
2.0890019 3.0855134 1.5246502
2.0810668 3.0961723 1.5193276
2.0740182 3.095711 1.5197724
2.0811543 3.0929523 1.5213118
2.066216 3.1023562 1.5287446
2.0618052 3.090796 1.512171
2.0593991 3.1087728 1.5261142
2.0630367 3.0948517 1.5120845
2.0554526 3.1115105 1.5166796
2.0459416 3.1070142 1.5286546
2.0454993 3.1186578 1.5195966
2.0356994 3.1066551 1.5182961
2.0405731 3.111897 1.5136391
2.0258877 3.1285715 1.5233338
2.0327375 3.1346085 1.519549
2.0270162 3.1205399 1.5213267
2.0247176 3.1283739 1.5182098
2.0163581 3.1241584 1.5183065
2.0139651 3.1366756 1.5122025
2.0161631 3.1440027 1.518749
2.0103323 3.1352122 1.514092
1.9954396 3.1409507 1.5145911
1.9992427 3.1558957 1.5174967
1.9983847 3.1404917 1.514248
1.9872177 3.1562786 1.5142133
1.9722619 3.1506886 1.517293
1.9790801 3.1671484 1.5253958
1.9827775 3.1596012 1.5264782
1.9665678 3.1540172 1.5172791
1.9642503 3.1749916 1.5126147
1.9684755 3.1744993 1.5163734
1.9480398 3.1634822 1.52309
1.9480995 3.1806402 1.5219774
1.951061 3.1813157 1.5226928
1.95077 3.1752038 1.5164329
1.9304404 3.1785197 1.521827
1.9331869 3.1930408 1.5209311
1.9240323 3.1956508 1.5297445
1.9159566 3.1864457 1.5102364
1.918678 3.1993217 1.5289713
1.9167314 3.2008257 1.5244888
1.9185395 3.2063003 1.5262702
1.9070607 3.1962445 1.5224965
1.8944656 3.2135644 1.5166917
1.902582 3.2150106 1.5220745
1.8844351 3.2005491 1.5280787
1.8916783 3.213259 1.5259161
1.8780222 3.2212434 1.5236812
1.8731759 3.2255845 1.5295656
1.8688177 3.2170837 1.5256565
1.8631908 3.231076 1.5205878
1.8730776 3.2313204 1.5183365
1.8647424 3.2245336 1.5233786
1.8526298 3.2296028 1.5230958
1.8547087 3.2272434 1.5216208
1.8421669 3.2311954 1.5230519
1.8356258 3.2468531 1.5145669
1.8469185 3.2333205 1.5114465
1.8359727 3.2394111 1.5300536
1.8309077 3.2456167 1.5175525
1.8219301 3.2506721 1.5164428
1.8278803 3.2500949 1.5129827
1.8115757 3.2456663 1.5201473
1.8203096 3.2536128 1.5297987
1.8087572 3.2481296 1.5145149
1.7957263 3.2545993 1.5206134
1.804123 3.2590265 1.5198061
1.8732269 3.4220202 1.448415
1.8697838 3.435926 1.4550579
1.8649442 3.4292755 1.4453617
1.8676 3.4381599 1.4381828
1.8691423 3.4375103 1.4478948
1.8672211 3.4450753 1.4506527
1.8524607 3.4458973 1.438838
1.8473483 3.4396932 1.4390271
1.8469484 3.4449883 1.4431792
1.8326434 3.4432132 1.4492583
1.8375275 3.4458833 1.4530652
1.8255113 3.449878 1.4481659
1.8201343 3.4538045 1.4540108
1.9112843 3.6295259 1.3716474
1.9087956 3.6273243 1.3805364
1.8960153 3.6279833 1.3744054
1.8859892 3.6386673 1.3665178
1.8841447 3.6290281 1.3698542
1.8824855 3.6437817 1.3759205
1.884975 3.6490264 1.3776534
1.8735398 3.643955 1.3795046
1.8659079 3.6516707 1.3628055
1.8533731 3.6588163 1.3674946
1.8466797 3.6556957 1.3810092
1.8521134 3.6551297 1.3696773
1.8464326 3.6668308 1.3763663
1.9178464 3.8194585 1.2966143
1.9179082 3.8295105 1.2990932
1.9213026 3.8229609 1.2937089
1.9107596 3.8239625 1.2909595
1.9019457 3.8385937 1.3005359
1.8949792 3.830662 1.2952325
1.8913101 3.8352678 1.2944863
1.8923264 3.8382561 1.2880378
1.8868537 3.8517578 1.2984493
1.8700454 3.844662 1.2979945
1.8799225 3.8508372 1.3017055
1.8645382 3.8623962 1.2927991
1.8516293 3.8626757 1.2946817
1.8533323 3.8577411 1.2949116
1.8522824 3.8693261 1.2871263
1.8408053 3.8592813 1.2887701
1.8440212 3.870908 1.2923878
1.8264873 3.8688951 1.2963697
1.8225014 3.8667572 1.2912363
1.8289235 3.8731625 1.2963977
1.8148872 3.8748 1.3051325
1.8045584 3.8864117 1.3028321
1.8053197 3.8904769 1.2982241
1.80796 3.8816111 1.3061023
1.7908269 3.8970649 1.3029934
1.785905 3.8864145 1.2872756
1.7826233 3.884357 1.3006274
1.7829559 3.8901458 1.289417
1.7672669 3.8973322 1.2935269
1.7664411 3.8963282 1.3015079
1.7707732 3.9066787 1.2885996
1.7638367 3.9120946 1.3047841
1.7545965 3.9036696 1.3025219
1.7407448 3.9032865 1.28889
1.7347679 3.911175 1.2882153
1.7256788 3.9195499 1.2944013
1.7208685 3.9100552 1.2960483
1.7294066 3.9263079 1.3010101
1.7267309 3.9122906 1.2906922
1.708162 3.9228694 1.2969116
1.7175707 3.9232059 1.2910303
1.6940678 3.922035 1.2881215
1.706746 3.9370561 1.2943518
1.6971588 3.9436612 1.2977707
1.6939365 3.9297287 1.2866575
1.6900359 3.9321494 1.3015059
1.6723183 3.9352057 1.304454
1.6762444 3.9522493 1.301257
1.6651291 3.9520698 1.3016523
1.6636927 3.9387772 1.2902439
1.6484724 3.9403527 1.2967969
1.6473676 3.9438877 1.2998116
1.6433508 3.9455667 1.2954876
1.6455612 3.9631274 1.2954168
1.6311872 3.9629381 1.299069
1.6256969 3.964324 1.3028051
1.6150519 3.9734712 1.2872684
1.6073518 3.9720266 1.3064538
1.6164516 3.9649518 1.303146
1.6059436 3.9619293 1.3042395
1.6040241 3.9691782 1.3046099
1.5886544 3.9808173 1.3062245
1.5962964 3.973938 1.2872348
1.5796114 3.9747701 1.3035307
1.5828525 3.986733 1.2973696
1.5697428 3.978713 1.2903345
1.560366 3.985559 1.2901942
1.5554496 3.9902186 1.3063645
1.5497154 3.9894953 1.2932233
1.5406705 3.983784 1.2948304
1.5527161 4.0016766 1.301465
1.5451291 3.9897256 1.2975252
1.5391536 3.9909463 1.3044997
1.5341856 4.0010142 1.2901083
1.5255105 3.9998593 1.3054891
1.5106714 4.0111332 1.2906672
1.5087942 3.9985719 1.300516
1.5067737 4.0066385 1.2928574
1.5009208 4.0145192 1.3023158
1.5019237 4.0189056 1.3039112
1.4845308 4.0208912 1.3012551
1.4737697 4.0208464 1.304512
1.4790658 4.0203857 1.2868611
1.4713336 4.0205202 1.2971575
1.4692072 4.0175447 1.304186
1.4624587 4.0252986 1.300383
1.4608854 4.036747 1.3019215
1.4491583 4.0317492 1.2894373
1.4497697 4.0264754 1.3027518
1.4398367 4.0277853 1.2983787
1.4314965 4.0372849 1.293925
1.4204973 4.0416093 1.2873684
1.4127522 4.036819 1.2983006
1.4073534 4.0498881 1.2873243
1.4122483 4.0464249 1.2913377
1.4041688 4.041811 1.3010781
1.3922839 4.041224 1.3002474
1.3819346 4.0545125 1.2924076
1.3790984 4.0540185 1.2972907
1.3895741 4.0491996 1.3014874
1.375674 4.0616522 1.2931962
1.3773177 4.0487199 1.2872494
1.372402 4.053659 1.29454
1.3584158 4.0588188 1.2929353
1.3534508 4.0544958 1.3059112
1.3524965 4.0677185 1.2923244
1.34128 4.0746841 1.2962097
1.3292302 4.076931 1.2914507
1.3293381 4.0619745 1.3042728
1.3143264 4.0631299 1.290359
1.323509 4.0760236 1.2869885
1.3043977 4.0762019 1.288784
1.2993371 4.0771084 1.2936252
1.3015646 4.0696754 1.3017406
1.3021849 4.0829258 1.3036555
1.2957785 4.0808744 1.2969235
1.2757829 4.0932603 1.2952951
1.2796701 4.0792532 1.2940595
1.2787958 4.0910139 1.2960216
1.2707412 4.0934243 1.2973007
1.2687703 4.0906825 1.2896433
1.2634265 4.0944963 1.300342
1.2398758 4.0989189 1.2901328
1.2411637 4.0912414 1.290684
1.2305648 4.089859 1.3026875
1.2418784 4.1077471 1.2908486
1.2264575 4.1113195 1.2896131
1.2294059 4.1044612 1.292596
1.2111163 4.1024137 1.3055726
1.2147865 4.0979981 1.2992011
1.1997334 4.1173015 1.2883368
1.1970205 4.1169524 1.2995431
1.1850041 4.1187477 1.2934375
1.1827762 4.1075273 1.2979274
1.1810971 4.1114078 1.2993158
1.1714194 4.1123028 1.2968814
1.1699004 4.1234813 1.2963164
1.1671437 4.1233144 1.2871979
1.1673676 4.1305666 1.2943447
1.1605659 4.1272001 1.2953967
1.1473905 4.1344938 1.2940809
1.1433485 4.1247907 1.2907532
1.1305106 4.1287889 1.2875655
1.131565 4.1362796 1.2915105
1.117107 4.1278138 1.2976964
1.1240352 4.1353955 1.3031464
1.1085269 4.1271849 1.2981517
1.1124516 4.1419473 1.291375
1.1072556 4.1426654 1.2902435
1.0892041 4.1423154 1.3041464
1.0922025 4.1345263 1.3037521
1.0738831 4.1484332 1.2920713
1.0722339 4.1352434 1.3028139
1.0673949 4.1488504 1.2994801
1.0664988 4.1537442 1.3061216
1.0517864 4.1513133 1.2987936
1.0625222 4.1591239 1.3017123
1.0482612 4.15661 1.2978584
1.0472214 4.154654 1.2931956
1.0450482 4.1604018 1.2866642
1.0367759 4.1549058 1.290833
1.0281073 4.1568503 1.2874062
1.0277559 4.1629081 1.2892946
1.0181451 4.1498904 1.3033035
1.0051986 4.1617427 1.3007278
0.99889165 4.1646509 1.294251
1.0052547 4.1640649 1.2941221
0.99453449 4.1549902 1.2900251
0.97995847 4.17065 1.3025256
0.98071778 4.1699128 1.299336
0.97494388 4.1666818 1.2892205
0.97333682 4.1605625 1.2996275
0.96830112 4.1798739 1.2946781
0.96515197 4.1753588 1.2953051
0.95600992 4.1836829 1.3063867
0.94429034 4.1714888 1.2989868
0.94609207 4.1714473 1.2896194
0.92776304 4.1864777 1.289804
0.92533529 4.1727257 1.3042829
0.91540629 4.1855292 1.2966677
0.92228585 4.1783562 1.3044721
0.91904819 4.1753759 1.304816
0.90621585 4.193161 1.3031384
0.92702973 4.3751516 1.2211266
0.92961788 4.3723073 1.2206166
0.92328584 4.3635507 1.2266037
0.94738889 4.5441151 1.1567547
0.94403231 4.5505018 1.155138
0.97818756 4.7420888 1.0639911
0.96923691 4.7477961 1.0788656
0.97266912 4.7461977 1.0652994
1.0004712 4.9291492 0.99299848
0.99179393 4.9231663 0.99172533
1.0174961 5.1072922 0.91515368
1.0193655 5.1180587 0.92894316
-4.4617753 3.6213262 0.69626564
-4.4683709 3.6247921 0.7058332
-4.4807634 3.6166265 0.70248866
-4.4933906 3.5997052 0.70223361
-4.4800444 3.6041043 0.70130706
-4.5010672 3.5977812 0.70728314
-4.3457966 3.476505 0.77568692
-4.3496575 3.4708128 0.77349406
-4.3555312 3.4592984 0.78064013
-4.3779469 3.4482059 0.77593499
-4.3713956 3.439224 0.76528054
-4.3705997 3.4286788 0.78434908
-4.3802276 3.430764 0.78151602
-4.3931913 3.4252367 0.76803285
-4.3864017 3.4180617 0.76522696
-4.4005299 3.4148607 0.78238308
-4.4086738 3.406467 0.7798562
-4.4028993 3.3990307 0.77773285
-4.4193087 3.3905308 0.77019787
-4.4085641 3.3844173 0.77767962
-4.2748375 3.2772119 0.85678977
-4.2792783 3.2682295 0.85698313
-4.2846417 3.2543957 0.84539104
-4.29283 3.2523658 0.85440773
-4.2944932 3.2418847 0.84239233
-4.298954 3.2420259 0.85332537
-4.3062501 3.2387657 0.84202045
-4.2960644 3.2260134 0.84944201
-4.3079939 3.2215762 0.85453302
-4.3074503 3.2126002 0.83968616
-4.319416 3.2143803 0.85625255
-4.3267574 3.1962619 0.84981924
-4.3338976 3.1973138 0.85554117
-4.3326206 3.1947029 0.84522855
-4.342319 3.1949458 0.85043657
-4.3440242 3.1752369 0.84179389
-4.1846352 3.0636232 0.93039954
-4.2065434 3.0560057 0.91777921
-4.2010212 3.0609424 0.92674857
-4.2104006 3.0508986 0.93277508
-4.2146177 3.0333555 0.92662102
-4.222261 3.0329294 0.92839432
-4.2163286 3.0298138 0.91727144
-4.2246666 3.0324163 0.92959565
-4.223309 3.0097539 0.92822719
-4.2367349 3.0098112 0.93322027
-4.2387948 3.0035207 0.92178547
-4.2467356 2.9995782 0.92860621
-4.2472882 2.985405 0.92624271
-4.2588634 2.9860919 0.91972011
-4.2444038 2.9867923 0.92154551
-4.2560897 2.9840724 0.92884171
-4.2659941 2.9714994 0.91892487
-4.2670131 2.9547946 0.91751921
-4.1228523 2.8583443 0.99385983
-4.112752 2.8381729 1.0016836
-4.1176505 2.8401232 0.98914313
-4.1339755 2.838306 0.9985922
-4.1234717 2.8201015 0.99980575
-4.1353235 2.8144789 1.0076499
-4.1336899 2.8274648 1.0021439
-4.1502228 2.8129051 0.99987334
-4.1394515 2.812573 0.9909907
-4.1585889 2.7953458 0.99137014
-4.1591234 2.7935476 1.0065733
-4.157804 2.78581 1.00737
-4.1686521 2.7771263 0.99588704
-4.1720328 2.7760613 1.0083629
-4.1659565 2.7694359 1.0084157
-4.1786585 2.7748868 1.0086328
-4.1835079 2.7658913 1.007628
-4.1738553 2.7642748 0.99786121
-4.1864653 2.7573335 0.99356568
-4.0323629 2.6339405 1.072346
-4.0333185 2.6353276 1.0806479
-4.039063 2.6219141 1.0670321
-4.0440025 2.6215236 1.0705572
-4.0404172 2.6216159 1.0788479
-4.0443482 2.61164 1.0663491
-4.0482187 2.6128092 1.0651424
-4.0518641 2.5929677 1.0807867
-4.0565062 2.5866098 1.0806665
-4.0709071 2.5914648 1.0794623
-4.0695958 2.5786498 1.0819378
-4.0839906 2.5885448 1.0714511
-4.070075 2.5763526 1.0732067
-4.0897675 2.56287 1.0802326
-4.085927 2.5566142 1.0730168
-4.0937877 2.5500607 1.081496
-4.0941391 2.543263 1.0768205
-4.0956893 2.5364373 1.0779847
-4.1015873 2.5485795 1.0784773
-4.1075974 2.5299222 1.0695159
-4.1148038 2.5361707 1.0734361
-3.96104 2.4350049 1.1474469
-3.9561067 2.4281595 1.1404774
-3.9494102 2.4051919 1.1457368
-3.9556799 2.4096272 1.1504565
-3.9691577 2.4097559 1.1543443
-3.9741485 2.3930798 1.1571603
-3.9638071 2.3983915 1.1388819
-3.9722939 2.381336 1.1384817
-3.9802802 2.3817925 1.1451656
-3.9772201 2.3785572 1.1438438
-3.9902318 2.3741055 1.1437125
-3.9837196 2.3579504 1.1422703
-3.9841688 2.3518479 1.1433996
-3.9993508 2.362824 1.1545079
-3.9898055 2.3436625 1.1512936
-3.9963644 2.3428428 1.1569561
-4.0000997 2.3356895 1.1534883
-4.0021052 2.3233666 1.1385273
-4.0045033 2.3263669 1.1495898
-4.0202098 2.3157291 1.1429888
-4.01723 2.3153732 1.1575122
-4.0143738 2.304816 1.1414616
-4.0329518 2.2970877 1.144894
-3.868886 2.2059808 1.2193867
-3.875083 2.1993747 1.2258184
-3.8644869 2.1894648 1.2170296
-3.8682208 2.1790671 1.2266911
-3.8754151 2.189903 1.2296382
-3.8775625 2.1815729 1.2211983
-3.8886399 2.1807599 1.2277379
-3.8863108 2.1661427 1.2195435
-3.8894508 2.1575902 1.2264179
-3.8886335 2.1536596 1.2311949
-3.9043763 2.1554809 1.2219673
-3.9001129 2.1541617 1.2315478
-3.9094105 2.1464884 1.2166368
-3.9074891 2.138123 1.2167506
-3.9158983 2.1255977 1.2131275
-3.9013531 2.1139519 1.2266051
-3.91524 2.1142478 1.2247052
-3.9225798 2.1198845 1.2136277
-3.9181063 2.1053855 1.2194413
-3.9267507 2.0947001 1.2267724
-3.9306107 2.0912607 1.2213769
-3.9236903 2.0950661 1.2201186
-3.9271817 2.0925474 1.2166475
-3.9255764 2.0749164 1.2302755
-3.9438498 2.0718343 1.2168472
-3.9457386 2.0662482 1.2172459
-3.7694221 1.9841734 1.2979119
-3.7795985 1.9634695 1.2952013
-3.7808449 1.970167 1.303477
-3.7962704 1.9711405 1.3065566
-3.7843573 1.951167 1.2916903
-3.7978323 1.9610189 1.3061268
-3.7925582 1.9502766 1.3035463
-3.7907479 1.9440293 1.2888403
-3.7953019 1.9423909 1.2965617
-3.793277 1.9217379 1.3042109
-3.8108459 1.9155482 1.3008478
-3.8022358 1.9219218 1.3020724
-3.8163285 1.9097813 1.29529
-3.8221383 1.9049402 1.2947803
-3.824861 1.8947299 1.2996001
-3.8224425 1.8937546 1.2995785
-3.8255801 1.9007561 1.2941254
-3.8312907 1.8922633 1.2877394
-3.8316998 1.8819044 1.3050331
-3.8243802 1.8762507 1.2869956
-3.8294036 1.8757013 1.2880942
-3.8377829 1.8664278 1.3008957
-3.8449299 1.8657196 1.2868897
-3.8388519 1.8618523 1.2933795
-3.833276 1.8579057 1.2949995
-3.8428729 1.8390137 1.3009883
-3.8524837 1.8396125 1.2993265
-3.8475401 1.8371216 1.2945236
-3.8489752 1.836835 1.3047167
-3.8531089 1.8264743 1.2946153
-3.8552725 1.8136885 1.2893268
-3.8563302 1.8151147 1.300131
-3.864579 1.8119775 1.2955966
-3.8668258 1.7974943 1.2925683
-3.8625755 1.7911556 1.2909706
-3.8766975 1.7977812 1.2958611
-3.8648233 1.7773495 1.2867346
-3.8746033 1.7844074 1.3005048
-3.8691788 1.7725691 1.2993798
-3.8735533 1.7591279 1.2932888
-3.8880217 1.7660466 1.2998103
-3.8877711 1.7544237 1.2931598
-3.8967087 1.7570608 1.2887775
-3.890173 1.7399517 1.2953207
-3.886658 1.7495863 1.3009377
-3.8847332 1.7275848 1.2985959
-3.8979104 1.7399358 1.3012418
-3.9002061 1.7249776 1.2963684
-3.9087243 1.7179072 1.3050827
-3.8983598 1.7089179 1.3057854
-3.9140785 1.707908 1.29884
-3.9032683 1.7095894 1.3057083
-3.9191008 1.704766 1.3006533
-4.0899019 1.7620363 1.2294384
-4.0836601 1.7518684 1.2277991
-4.0917935 1.7460351 1.2296082
-4.0822606 1.7494272 1.2292217
-4.0900741 1.732918 1.2193338
-4.1027527 1.7302781 1.2278355
-4.106709 1.7403821 1.2128115
-4.1099544 1.7171392 1.2222443
-4.1001372 1.7270709 1.2188284
-4.1034441 1.7235267 1.2160627
-4.1117978 1.7021244 1.222911
-4.1168642 1.709407 1.2253095
-4.1035619 1.6909915 1.2275963
-4.1084423 1.6845363 1.2190002
-4.1137009 1.6926873 1.2196234
-4.1288395 1.6705709 1.2233385
-4.1154685 1.6669015 1.2228926
-4.1171136 1.662382 1.2249424
-4.1293178 1.670067 1.2226657
-4.1249294 1.6568246 1.22259
-4.1232991 1.6576 1.2268604
-4.1348124 1.6356726 1.2241651
-4.143919 1.6294028 1.2288095
-4.1307306 1.6406 1.2127571
-4.1461301 1.6288775 1.2306173
-4.1408987 1.6243476 1.2321259
-4.1519437 1.6155119 1.2157334
-4.1434269 1.6073464 1.2205927
-4.3261733 1.6756933 1.1444175
-4.3179598 1.664076 1.1552721
-4.3298135 1.6563798 1.1526831
-4.337388 1.6594535 1.153951
-4.3276496 1.6556952 1.1547365
-4.3332582 1.6473919 1.1525098
-4.3349104 1.6259477 1.1443545
-4.3386946 1.6319857 1.1574662
-4.3409615 1.6292208 1.1475422
-4.339612 1.6172074 1.155256
-4.353395 1.6179951 1.1507136
-4.3488507 1.6093073 1.1406053
-4.3534427 1.5910683 1.1488558
-4.3606157 1.5875484 1.1462377
-4.3465123 1.5760524 1.1459227
-4.3516145 1.5812247 1.1433686
-4.3589354 1.5670129 1.1454377
-4.3544025 1.5712773 1.1396155
-4.35675 1.5555263 1.1571023
-4.3690128 1.5633676 1.1486527
-4.3735533 1.5396606 1.1470709
-4.3626275 1.5427243 1.1428844
-4.3818016 1.5434132 1.1465453
-4.3727164 1.5391384 1.1527758
-4.366241 1.5311679 1.1536026
-4.3800721 1.520287 1.1456975
-4.5520663 1.5643444 1.0751849
-4.5664487 1.574789 1.0695326
-4.5666447 1.5650529 1.074234
-4.5693445 1.5452119 1.0728846
-4.5604854 1.5429801 1.0739388
-4.5731993 1.533815 1.0641705
-4.5700903 1.5276084 1.0812078
-4.5633121 1.5326107 1.08009
-4.5702939 1.5262039 1.0771245
-4.5764403 1.508073 1.0694038
-4.5704827 1.5156637 1.0717937
-4.5805345 1.5110455 1.071005
-4.57623 1.4883959 1.0668598
-4.5872145 1.4852021 1.0692567
-4.5795403 1.4730141 1.0758076
-4.5908022 1.4702501 1.0795821
-4.5918236 1.472724 1.0635418
-4.595799 1.4640963 1.0788985
-4.600883 1.4505978 1.0742463
-4.5889235 1.453055 1.0778637
-4.6046762 1.4435632 1.0754755
-4.5980296 1.4461038 1.0748756
-4.7695427 1.4896778 1.0035412
-4.7878881 1.4694326 0.98991966
-4.7838273 1.4789194 0.99052531
-4.7932062 1.4591925 0.99478507
-4.7788014 1.4604836 1.0079396
-4.7804275 1.4598299 0.99889028
-4.7866874 1.4361138 1.0027689
-4.7975903 1.4463699 0.99553436
-4.8048663 1.4228772 1.0052402
-4.7945213 1.4280257 1.0039216
-4.8047671 1.4210268 0.9979617
-4.7918434 1.4177355 0.9984448
-4.8125315 1.4005485 0.99510586
-4.8126049 1.3960167 0.99873406
-4.8084092 1.3879147 0.99035013
-4.8110495 1.3802019 1.0080123
-4.8027296 1.3882356 0.98866087
-4.8105221 1.3673632 1.0062708
-4.8055391 1.3612024 1.0070959
-4.8108416 1.3673646 0.99978065
-4.8174529 1.3452501 0.99218005
-5.0089207 1.3874487 0.93351024
-5.0010586 1.3812294 0.91886669
-4.9965258 1.3768773 0.92641318
-5.0083551 1.3786522 0.93258214
-5.0085588 1.3597088 0.91776562
-5.0110903 1.3509976 0.91771263
-5.0129633 1.3563973 0.92351985
-5.0172167 1.3486732 0.92990136
-5.0206351 1.3375314 0.92918301
-5.0113592 1.3216534 0.93309069
-5.0096741 1.3150789 0.91651028
-5.0121546 1.3182913 0.92070615
-5.0292692 1.3079516 0.92754817
-5.018827 1.307688 0.92316604
-5.0222063 1.2891166 0.926844
-5.0203924 1.2898997 0.92881691
-5.0386214 1.2906857 0.92319834
-5.0310335 1.2690846 0.9168672
-5.0370541 1.2659217 0.92640835
-5.2239375 1.2985482 0.85259372
-5.2068114 1.2897787 0.8537181
-5.2262559 1.3003558 0.84507656
-5.2214937 1.275636 0.85311967
-5.2298799 1.2831657 0.84792608
-5.2226377 1.2691139 0.85119045
-5.2317071 1.2586641 0.84226972
-5.2187939 1.2517635 0.84116942
-5.2314887 1.2542191 0.84550488
-5.2305045 1.2324125 0.85371667
-5.2399688 1.2256253 0.85693014
-5.2287436 1.2177653 0.85866982
-5.2363834 1.212252 0.85828489
-5.232655 1.2132814 0.84048086
-5.2408729 1.2076955 0.85750979
-5.2342744 1.191112 0.84779274
-5.244401 1.1872092 0.8549341
-5.4246016 1.2183384 0.76799113
-5.4247851 1.2178708 0.76531106
-5.4206228 1.2001071 0.7681399
-5.4282379 1.1945882 0.77149951
-5.4326286 1.1819938 0.77431929
-5.4352694 1.1834483 0.77894849
-5.4382844 1.1703101 0.77193201
-5.4390926 1.1706226 0.76665688
-5.4428616 1.1591918 0.77212805
-5.436337 1.1592824 0.78102827
-5.4426603 1.1419737 0.76801342
-5.4414215 1.1461651 0.78212059
-5.4428525 1.1361924 0.76605582
-5.4414439 1.1202673 0.77206641
-5.456665 1.1216031 0.7730791
-5.4490557 1.1019398 0.78314507
-5.6388268 1.1372139 0.69317979
-5.6336341 1.136724 0.70562452
-5.6337056 1.1140749 0.69424415
-5.6282949 1.1195495 0.71056229
-5.6339726 1.100289 0.6971817
-5.6326547 1.103845 0.69560492
-5.637218 1.0875372 0.69166988
-5.6378355 1.0741946 0.69942641
-5.652431 1.0671767 0.69613767
-5.6460032 1.0693034 0.70080662
-5.6494985 1.0652039 0.69205117
-5.6484532 1.0478617 0.69068533
-5.6549525 1.0320017 0.69455206
-5.6528211 1.043095 0.69177705
-5.8370562 1.062799 0.62313336
-5.8320107 1.0523297 0.62042791
-5.8485303 1.0388062 0.62930489
-5.8489742 1.0261639 0.63273162
-5.8416495 1.0204135 0.61703479
-5.8376026 1.0225675 0.63136119
-5.8488755 1.002692 0.62948656
-5.8488917 1.0053159 0.61817032
-5.8502631 0.98288405 0.6188966
-5.8477559 0.984016 0.61862087
-5.8480124 0.98502994 0.63319874
-5.8424072 0.97254527 0.62547094
-5.8594956 0.96498531 0.63238549
-5.8476958 0.95841491 0.63482547
-6.0357585 0.96977049 0.54519045
-6.0362463 0.95714778 0.56037545
-6.0423961 0.95465136 0.54385859
-6.0504088 0.9535259 0.55814123
-6.0497255 0.93240559 0.55816954
-6.0483046 0.93515706 0.54750925
-6.0471473 0.91900539 0.54604429
-6.0514007 0.90980113 0.56027788
-6.0433698 0.90483892 0.55513662
-6.0484128 0.89299566 0.5516119
-6.0510039 0.8976981 0.55845189
-6.0487237 0.88324946 0.56111568
-6.2350106 0.89008081 0.47523731
-6.2340751 0.88385165 0.47117803
-6.2388449 0.8796069 0.4744505
-6.2435741 0.87807286 0.46892834
-6.2389512 0.85897386 0.47571024
-6.2357812 0.85688776 0.48174539
-6.2383657 0.84408683 0.47127756
-6.246079 0.82748556 0.47742748
-6.2573047 0.82952392 0.4767426
-6.2416782 0.81506127 0.47007349
-6.2433763 0.81928259 0.47259724
-6.2564454 0.80567092 0.47761625
-6.4377375 0.81153125 0.41262239
-6.4316015 0.81059033 0.40931663
-6.430975 0.79546714 0.39564136
-6.4435544 0.78469676 0.40861118
-6.4500856 0.77251279 0.39751282
-6.447072 0.77377409 0.39854768
-6.4378963 0.76495582 0.41035694
-6.4493928 0.7528981 0.39644122
-6.4475455 0.74026465 0.39548603
-6.443162 0.7356714 0.40965995
-6.4537473 0.73505914 0.39541432
-6.6393266 0.74189115 0.33473453
-6.6237197 0.73000592 0.32242838
-6.6417751 0.72663391 0.328356
-6.6268477 0.71781021 0.33110529
-6.6430058 0.69306701 0.32412297
-6.6381164 0.69855434 0.33733103
-6.6414046 0.6735872 0.3274914
-6.6385956 0.67149657 0.33402991
-6.6367283 0.65480626 0.32498813
-6.6406746 0.64853519 0.32434839
-6.8236246 0.65979677 0.24487133
-6.8280005 0.64980137 0.25727805
-6.8246694 0.64274466 0.25558889
-6.8353972 0.63159645 0.25435358
-6.8233624 0.62525839 0.25765404
-6.8382964 0.60476542 0.25572208
-6.8400092 0.6019268 0.25810456
-6.8315482 0.60282677 0.24767935
-6.8365355 0.58651024 0.24984798
-6.8305507 0.56715107 0.25503102
-7.0101919 0.58553517 0.18865517
-7.0298243 0.5651558 0.17632411
-7.017036 0.56899649 0.18648356
-7.0259233 0.5429849 0.17504324
-7.0160322 0.54987031 0.18681455
-7.0228271 0.52267057 0.18764371
-7.0315399 0.51459354 0.17518626
-7.0178566 0.51579982 0.17318201
-7.034585 0.4928278 0.18441552
-7.2143044 0.50934142 0.11135107
-7.203671 0.49903107 0.10569005
-7.2049055 0.48987818 0.10946556
-7.2184567 0.47428948 0.1068988
-7.2218342 0.47057584 0.10813857
-7.2166381 0.45750195 0.10608298
-7.2196569 0.43836829 0.10664779
-7.2218323 0.43124294 0.10895686
4.6756439 2.744566 0.88685
4.6633611 2.7395265 0.88527948
4.653441 2.7549794 0.89287752
4.6593513 2.7648203 0.88087755
4.6430268 2.7643592 0.89093852
4.6456451 2.7759066 0.8795445
4.63379 2.7726381 0.89638335
4.6421962 2.7958333 0.89564246
4.635726 2.7925394 0.89748925
4.6409969 2.7971048 0.88445395
4.6179323 2.8030496 0.89737165
4.6218109 2.8205245 0.89875138
4.6241097 2.8119016 0.88909101
4.6139979 2.8330204 0.88278407
4.611877 2.8416548 0.88953358
4.5998082 2.8367567 0.88135362
4.5963364 2.8438618 0.88343346
4.6096945 2.8432405 0.88224244
4.6023026 2.8600254 0.89129674
4.4387469 2.7675462 0.97159696
4.4202862 2.7740965 0.95825636
4.4347348 2.7684286 0.95594633
4.4305544 2.7889724 0.95857441
4.4167051 2.7833257 0.95588785
4.4165401 2.7994883 0.95540756
4.4031162 2.8075218 0.96360672
4.4015036 2.8160317 0.95249408
4.4019623 2.8218567 0.95434868
4.4012218 2.8242564 0.96658242
4.3895264 2.8250773 0.95835704
4.3849874 2.831284 0.97050756
4.3870988 2.8357942 0.97082132
4.3868923 2.839988 0.96551532
4.3893046 2.8542044 0.96840447
4.3690224 2.8521371 0.96130383
4.3682513 2.8605351 0.95608938
4.3756704 2.8712187 0.95324296
4.3719687 2.8662674 0.97008538
4.3501134 2.8844905 0.96319658
4.3604832 2.8949423 0.97100323
4.3426189 2.8847871 0.95889676
4.201992 2.7974577 1.038322
4.1967196 2.796881 1.0426961
4.1861329 2.8026748 1.0351835
4.1784272 2.8121529 1.0395056
4.1836128 2.8248346 1.0261335
4.1635761 2.8289192 1.0373582
4.1606846 2.8332942 1.0375507
4.1746273 2.8398139 1.0298908
4.1616731 2.8407123 1.0266128
4.1565175 2.8477638 1.027115
4.1592474 2.8531191 1.0374558
4.1482587 2.8570917 1.0413829
4.1416359 2.8743758 1.0452726
4.1474924 2.8678603 1.0328143
4.1376634 2.870445 1.0272173
4.1344538 2.876915 1.0398898
4.1224608 2.884424 1.0311278
4.1306524 2.8898146 1.0430815
4.1111765 2.9061975 1.0301352
4.1084142 2.9013801 1.0384473
4.1061459 2.9032552 1.026327
4.1142106 2.9181125 1.0323975
4.1061945 2.9303265 1.0299758
3.9505496 2.8242369 1.1084036
3.9541001 2.8202486 1.110515
3.9320459 2.8370543 1.1133369
3.9426565 2.8458786 1.1179138
3.9244974 2.8469138 1.1021328
3.9382844 2.8525002 1.1169921
3.9191175 2.8593597 1.1012967
3.9282548 2.8679948 1.101745
3.9252644 2.8687456 1.1113248
3.9083369 2.86554 1.1073982
3.9089799 2.882267 1.0998145
3.9149075 2.8864689 1.1027453
3.9029391 2.8925481 1.1169899
3.8937848 2.8931775 1.1145723
3.8891997 2.8995953 1.1077092
3.8888261 2.9037545 1.1009572
3.8833044 2.9127092 1.115595
3.8820796 2.9147716 1.1134033
3.8812957 2.9178209 1.1065041
3.870084 2.9279282 1.1109459
3.874938 2.9226711 1.1066675
3.872201 2.9273422 1.1011487
3.8523872 2.9440527 1.116273
3.8668103 2.9556246 1.106596
3.8588083 2.9466348 1.1179113
3.843936 2.961302 1.1079667
3.842304 2.9544857 1.1015629
3.6879756 2.8567102 1.1849488
3.6989338 2.8557787 1.172846
3.6829858 2.8676965 1.1854533
3.6714723 2.8685374 1.1874125
3.6756732 2.870717 1.1886574
3.6743484 2.8771665 1.1812329
3.6681406 2.8821304 1.1800063
3.6722486 2.8831911 1.1844214
3.667665 2.8934853 1.1781411
3.6531296 2.9062614 1.1796877
3.6521831 2.8961568 1.171888
3.6414797 2.90098 1.1780171
3.6386664 2.9138317 1.19093
3.6484532 2.9191539 1.1795551
3.6401923 2.9326682 1.1852367
3.6331692 2.9288554 1.1722504
3.6187146 2.9428403 1.1791161
3.6230261 2.9449456 1.1819363
3.6117458 2.9464865 1.18995
3.6141782 2.9575186 1.1856446
3.6181502 2.951638 1.1861453
3.6143155 2.9590948 1.1863854
3.5966029 2.9677858 1.1743994
3.5917962 2.970319 1.182663
3.5956073 2.9686532 1.1793741
3.5850933 2.9840333 1.1872114
3.5815859 2.9890349 1.1839781
3.5849371 2.9824312 1.1778003
3.5711017 2.9886377 1.1881196
3.565273 3.0013735 1.1844329
3.432699 2.8823359 1.2629685
3.4232192 2.8832259 1.2507986
3.4139729 2.8905218 1.2622988
3.4127338 2.8971362 1.2513169
3.4197516 2.9116945 1.2536596
3.4034741 2.9198782 1.2463789
3.3950272 2.9087009 1.2591017
3.4033403 2.9250286 1.260229
3.4054692 2.9316809 1.2625762
3.3979108 2.936672 1.252679
3.3866589 2.9356964 1.2586192
3.3808002 2.9292545 1.2606794
3.3827653 2.937587 1.2452711
3.3762238 2.9487071 1.2517185
3.3786941 2.9508791 1.2479711
3.3635004 2.9608135 1.2476598
3.3610194 2.9663479 1.2514294
3.3512547 2.9642491 1.2467905
3.3626106 2.968339 1.2640735
3.3563075 2.9689374 1.2616227
3.3401003 2.9823568 1.253477
3.3498271 2.9939978 1.254176
3.3416076 2.9916902 1.2584997
3.3379731 2.9869339 1.2492416
3.3207798 3.0087473 1.257459
3.3198323 2.9994731 1.2509205
3.3185673 3.0118306 1.2452315
3.3210654 3.0185425 1.2527646
3.3189182 3.020736 1.2597144
3.3140473 3.0207584 1.2625949
3.3067193 3.0287125 1.2542332
3.2912393 3.0305386 1.2528566
3.2964518 3.0282967 1.2645221
3.14922 2.9202955 1.3199227
3.1496618 2.9253576 1.3193625
3.1383147 2.9136436 1.3248955
3.1404233 2.9248424 1.3181591
3.1368365 2.9227235 1.3335135
3.1407769 2.9426479 1.3264464
3.1316609 2.9418986 1.3347924
3.1254191 2.9380248 1.3264891
3.13081 2.9428809 1.3354142
3.1148179 2.9571657 1.3375057
3.1104853 2.9652033 1.3332933
3.1084116 2.9577351 1.3297541
3.1057715 2.9629788 1.3301175
3.1086586 2.9743958 1.3373021
3.1048028 2.9662971 1.3179957
3.0962958 2.9862158 1.3342475
3.0807157 2.9811018 1.3253894
3.0934753 2.9938354 1.3283026
3.0779257 2.9960549 1.3317227
3.0712953 3.0063837 1.3250843
3.0667505 2.9964874 1.3221457
3.0779872 3.0086308 1.327407
3.0656788 3.0022535 1.333586
3.0537279 3.0228887 1.3268615
3.0489554 3.0238001 1.3277239
3.0448706 3.0203419 1.324196
3.0570319 3.0254469 1.331251
3.040329 3.0274613 1.3267423
3.0465336 3.0380816 1.3201616
3.0361521 3.0462329 1.3196242
3.0391266 3.0340071 1.3249105
3.0191565 3.0571911 1.3180661
3.024442 3.0522463 1.3205764
3.0159001 3.059536 1.3194597
3.0206282 3.0662446 1.3349979
3.0062129 3.0730655 1.3228272
3.0082636 3.0762508 1.331517
2.9973636 3.0669422 1.3179822
3.0019491 3.0680532 1.3308349
2.999948 3.0830038 1.3276118
2.8679044 2.9514353 1.4010774
2.8508275 2.957669 1.4003763
2.8469005 2.9534266 1.4105211
2.8454785 2.9648874 1.4037521
2.8429341 2.9653265 1.3994943
2.8359225 2.9756067 1.3978659
2.8367345 2.9721997 1.3952373
2.826231 2.9821608 1.3991206
2.8221869 2.9809813 1.3999413
2.8309903 2.9820802 1.3915449
2.816565 2.9849205 1.4011385
2.822464 2.9947879 1.3929908
2.8076565 3.0048387 1.3966315
2.8029885 2.9975829 1.4077694
2.7915459 3.0119038 1.395389
2.79584 3.0033395 1.4093366
2.7985003 3.0197194 1.3959311
2.7785268 3.0097332 1.4085466
2.7824309 3.019846 1.3960477
2.7871504 3.0229106 1.4007189
2.783468 3.0357039 1.4043075
2.7693741 3.0385559 1.3938464
2.7671268 3.0307653 1.4095247
2.7685151 3.0424767 1.3940417
2.7610357 3.0469215 1.4089799
2.7611706 3.0398417 1.3914598
2.7552476 3.0596089 1.4064317
2.7559142 3.0635943 1.4075351
2.7491906 3.0556817 1.3948752
2.7299628 3.0566912 1.4014095
2.7354009 3.0782268 1.3968726
2.7244225 3.0698819 1.3913291
2.7229774 3.083509 1.394142
2.7172055 3.0827484 1.4048196
2.7159452 3.0787387 1.3961011
2.7096179 3.0790987 1.3964678
2.7057652 3.0977762 1.3927726
2.6968791 3.101366 1.4092396
2.6890912 3.1024833 1.3939767
2.6886382 3.1086292 1.3959122
2.6947143 3.1044753 1.3955778
2.6762481 3.1136098 1.4030993
2.6722333 3.1055715 1.4004544
2.6710262 3.116039 1.3932617
2.6804914 3.129529 1.3982776
2.6612332 3.12098 1.3998781
2.5416863 2.9911158 1.4695226
2.5392869 2.9982517 1.4658577
2.5333498 3.001904 1.4795527
2.5321448 2.9894128 1.4756424
2.5328703 3.0073123 1.4838327
2.5132565 3.0110655 1.4774179
2.5211594 3.0151291 1.4792318
2.5064125 3.0023155 1.4677858
2.504468 3.023303 1.4661088
2.5075345 3.0093727 1.4721676
2.4921968 3.0208914 1.4664092
2.4933629 3.0341637 1.464252
2.4908593 3.0256569 1.4822184
2.4820459 3.040108 1.4641705
2.4893172 3.0394521 1.4805049
2.4847741 3.0433552 1.4770812
2.4738114 3.0393388 1.4742154
2.4646575 3.0447578 1.4750365
2.4640532 3.0524194 1.4733512
2.4617667 3.0473399 1.4742478
2.4655347 3.0511196 1.4831809
2.4635391 3.0602672 1.4819102
2.4593816 3.0711179 1.4686621
2.4531858 3.0573666 1.4664006
2.4489374 3.075103 1.4800248
2.4410186 3.0725176 1.4740994
2.4296713 3.0831952 1.4807107
2.4354534 3.0889499 1.4693003
2.4220521 3.0783358 1.4821166
2.4269607 3.0896757 1.4664243
2.4127614 3.0890286 1.4710886
2.4074903 3.0906358 1.4814835
2.4009438 3.0923402 1.4793178
2.4011447 3.0921085 1.4799956
2.3990793 3.1118922 1.4750105
2.3906336 3.108026 1.4840467
2.3962576 3.1170862 1.4803731
2.3884885 3.1162071 1.479073
2.3893044 3.1262095 1.4837832
2.3829317 3.1254084 1.4764642
2.3808622 3.1147006 1.4651344
2.3634524 3.1230185 1.4720546
2.3564329 3.129092 1.4773279
2.3672431 3.1396728 1.4790239
2.3587263 3.1324992 1.4771644
2.3452201 3.1411958 1.4681054
2.3407454 3.1398368 1.4647794
2.3525927 3.1550341 1.4772528
2.3431354 3.1553764 1.4764137
2.3383837 3.1536806 1.4714644
2.3263083 3.1542544 1.472504
2.3228986 3.1617618 1.4785646
2.3264048 3.1665976 1.4674078
2.3151796 3.1665964 1.483547
2.3056459 3.162436 1.4692339
