# .PCD v0.7 - Point Cloud Data file format
VERSION 0.7
FIELDS x y z
SIZE 4 4 4
TYPE F F F
COUNT 1 1 1
WIDTH 1557
HEIGHT 1
VIEWPOINT 0 0 0 1 0 0 0
POINTS 1557
DATA ascii
1.88331 -3.24299 1.6261317
1.8769398 -3.2335894 1.6288562
1.9008887 -3.236331 1.6382389
1.8988583 -3.2332747 1.6361984
1.8990123 -3.2396526 1.6197726
1.8964106 -3.2369032 1.6214477
1.8047365 -3.0665438 1.6891941
1.819685 -3.0720842 1.7023981
1.8131549 -3.068104 1.6954267
1.8296009 -3.0517211 1.6884621
1.8261921 -3.0578959 1.6995568
1.8373475 -3.0549765 1.6974353
1.8312237 -3.0526402 1.6899489
1.8344792 -3.0568626 1.7028892
1.8556906 -3.0454557 1.7068156
1.8604724 -3.0411713 1.6908493
1.866926 -3.0381172 1.7006794
1.852085 -3.0444024 1.7024469
1.8704445 -3.0415018 1.7056665
1.8618289 -3.0264354 1.7027348
1.8662452 -3.0390551 1.6910882
1.8817524 -3.0247929 1.6998149
1.8751345 -3.0209243 1.6883258
1.8810266 -3.0180664 1.6900563
1.8998554 -3.0182602 1.7006299
1.9026068 -3.0179312 1.6929179
1.9093883 -3.0154042 1.7056841
1.9059962 -3.0119703 1.6895832
1.904368 -3.0144253 1.6937952
1.9059557 -3.0097406 1.6904798
1.9246079 -3.0048809 1.691945
1.9116096 -3.0087514 1.7050669
1.9273345 -3.003474 1.699446
1.9315666 -2.9965346 1.6940653
1.9375254 -2.994993 1.7058676
1.934054 -2.9949229 1.6953698
2.0445247 -3.1500864 1.6357265
2.0463202 -3.1349196 1.6259133
2.0520108 -3.1455929 1.6309983
2.0619094 -3.1388862 1.6381149
2.0684886 -3.1377316 1.6274327
2.056529 -3.1337757 1.6302153
2.0776875 -3.1382916 1.635605
2.073221 -3.1227686 1.6252577
2.0833697 -3.1254761 1.63377
2.0853167 -3.1158407 1.6196643
2.0967619 -3.1215739 1.6254971
2.0975969 -3.1099102 1.6236547
2.0886147 -3.11695 1.6282912
2.1047134 -3.1184816 1.6367804
2.1079247 -3.0978203 1.6235639
2.1004498 -3.0935009 1.6314369
2.1157532 -3.0924015 1.6319214
2.1164422 -3.100143 1.6250503
2.12678 -3.1021061 1.632587
2.1256258 -3.0864885 1.6268684
2.1303618 -3.0837879 1.6325195
2.1409264 -3.0846107 1.6269314
2.1296446 -3.0787697 1.6313944
2.1429951 -3.0811803 1.6314106
2.1448307 -3.0847256 1.6291668
2.1534455 -3.0800879 1.6283151
2.1499293 -3.0644846 1.6256294
2.1668932 -3.072526 1.6322626
2.1569819 -3.0545595 1.6339871
2.1746032 -3.0620728 1.6283777
2.1665018 -3.0491712 1.6225111
2.184047 -3.0500226 1.6328583
2.1760001 -3.046469 1.6260767
2.1924117 -3.0538738 1.6339087
2.1888354 -3.0437481 1.6352139
2.203011 -3.0493081 1.6381689
2.1963308 -3.0426812 1.6337334
2.2069604 -3.0433824 1.6382565
2.2042191 -3.0382833 1.6377405
2.203198 -3.0398469 1.6266996
2.2165632 -3.0337918 1.6255422
2.2240574 -3.014467 1.6205097
2.2218947 -3.0274606 1.6360011
2.2329459 -3.0083098 1.621052
2.2318249 -3.0169981 1.6331871
2.2320046 -3.0157692 1.6367145
2.2351351 -3.005475 1.6238152
2.2538257 -3.0088015 1.6271551
2.257035 -2.9991152 1.6325288
2.2597239 -2.9946916 1.6332675
2.2513676 -3.0011401 1.636984
2.2618494 -2.9843273 1.6369419
2.2672944 -2.9939063 1.6208171
2.3812723 -3.1465065 1.5517108
2.38746 -3.1344416 1.5598527
2.385778 -3.1264126 1.5661165
2.3876188 -3.1194642 1.5595616
2.3965557 -3.118032 1.5665617
2.4088278 -3.1175928 1.5601236
2.4064689 -3.1186626 1.5549787
2.404844 -3.1122828 1.5602491
2.4269309 -3.1196101 1.55919
2.4289711 -3.1056776 1.5654042
2.4348817 -3.0949936 1.5657125
2.4407187 -3.1025069 1.554768
2.4346929 -3.0960832 1.5685288
2.4349258 -3.0921943 1.5659082
2.4485993 -3.0837402 1.5613837
2.4492681 -3.0873806 1.5539564
2.4634941 -3.0777419 1.5621109
2.4525704 -3.0740855 1.5532911
2.4669123 -3.0726948 1.5537834
2.4601903 -3.0736117 1.5648419
2.4796777 -3.0729616 1.5632118
2.4794686 -3.0708132 1.5506897
2.4883103 -3.0590243 1.5612067
2.4909079 -3.0513315 1.5522217
2.49088 -3.0542898 1.568294
2.4863231 -3.0608988 1.5573231
2.4943337 -3.0575969 1.552582
2.5104942 -3.0495288 1.5680825
2.4978299 -3.051424 1.5615528
2.5056531 -3.044342 1.550679
2.50453 -3.0420685 1.5570225
2.5217719 -3.0242951 1.5620756
2.5264866 -3.0219665 1.5554725
2.5217135 -3.0213215 1.5531112
2.5279505 -3.024981 1.5643348
2.5302551 -3.0174694 1.5654863
2.5415838 -3.0062141 1.5664711
2.5481663 -3.0030603 1.552049
2.5502443 -2.9968283 1.5522509
2.5457878 -3.0070255 1.5560479
2.5504527 -3.0025933 1.5586258
2.561456 -3.005162 1.5554786
2.5575073 -2.9872537 1.5511554
2.6887839 -3.1411469 1.4949296
2.6960599 -3.1300654 1.5005649
2.6945546 -3.1209023 1.4901896
2.6941955 -3.1246283 1.4875414
2.7148161 -3.1259849 1.4845129
2.7210093 -3.1094716 1.4841766
2.7073989 -3.1016176 1.4900973
2.7175803 -3.1132972 1.4968983
2.7303345 -3.0981667 1.497573
2.7199359 -3.0911732 1.4925926
2.725209 -3.0989196 1.4929451
2.7432883 -3.0837674 1.5006337
2.7469974 -3.0944929 1.4937341
2.7403259 -3.0899444 1.4993507
2.7510009 -3.0691373 1.4998468
2.7586422 -3.066494 1.4930867
2.7659416 -3.0618122 1.4904045
2.7591565 -3.071295 1.4922608
2.759167 -3.0723643 1.4854594
2.7798469 -3.0681679 1.4818575
2.7755408 -3.0630283 1.4867091
2.7715819 -3.0441349 1.4829066
2.7953064 -3.0458517 1.4845663
2.7921257 -3.0385542 1.4869562
2.7945561 -3.0448906 1.4863286
2.7974772 -3.0278897 1.4845142
2.793633 -3.0278873 1.4835453
2.807101 -3.0189631 1.4892511
2.8024197 -3.0343158 1.4900392
2.8109319 -3.0132711 1.4911695
2.8158364 -3.0208092 1.4935787
2.8255873 -3.0165775 1.4910152
2.8315299 -3.0128875 1.4828626
2.8391268 -2.9966388 1.4981291
2.8291082 -3.0022149 1.483175
2.8384566 -2.9891198 1.4813318
2.8459849 -2.9841132 1.4955949
2.9815831 -3.1261914 1.4258429
2.9740276 -3.1206901 1.4258672
2.9872541 -3.1109047 1.4230225
2.9816053 -3.1204369 1.42872
2.9983599 -3.1044352 1.4147235
2.9925451 -3.1067021 1.4204854
2.9985721 -3.1055777 1.4185585
2.9998596 -3.0986726 1.4271121
3.0061872 -3.0866141 1.4248118
3.0106657 -3.0912166 1.423563
3.0294013 -3.0934489 1.412589
3.0274162 -3.0876055 1.422969
3.0254498 -3.0728979 1.4189813
3.0406325 -3.0681963 1.4213023
3.041507 -3.0710912 1.4154596
3.0483792 -3.0641463 1.4231787
3.0410073 -3.0555139 1.4278444
3.0517025 -3.0499277 1.4152316
3.0509455 -3.0423419 1.4304879
3.0678821 -3.0545998 1.4169459
3.0635641 -3.032438 1.41697
3.0682662 -3.0365715 1.4186299
3.0633421 -3.0269761 1.4307834
3.0744245 -3.0264962 1.4234189
3.0878217 -3.0294344 1.4289335
3.0953705 -3.0097873 1.4171613
3.0906324 -3.0217929 1.4297837
3.0905538 -3.0073783 1.4237485
3.0978565 -2.9979899 1.4210494
3.1004095 -2.9959278 1.4218369
3.1094143 -3.0024407 1.4205244
3.1184375 -2.988503 1.4308107
3.244118 -3.1141489 1.3573819
3.2471244 -3.1223485 1.3491908
3.2627597 -3.1013842 1.353776
3.2639034 -3.0970981 1.353717
3.2732687 -3.1017711 1.3573551
3.27525 -3.0907381 1.3511046
3.2711895 -3.0966113 1.3499337
3.2844236 -3.0841346 1.3465102
3.2784388 -3.0868502 1.3522527
3.2911351 -3.0847337 1.3476064
3.2941115 -3.0761254 1.3433961
3.2926898 -3.0688717 1.3464589
3.3030708 -3.0703373 1.3459531
3.2980304 -3.0550075 1.3451945
3.3129244 -3.0546541 1.3552173
3.3114502 -3.0566554 1.3517221
3.3237193 -3.0470464 1.3577964
3.3148108 -3.048526 1.3517839
3.3224723 -3.0403068 1.3584865
3.33587 -3.0237017 1.3627301
3.344615 -3.0284238 1.3510007
3.349143 -3.0188651 1.3619375
3.3367274 -3.0232165 1.3468152
3.3437994 -3.0168927 1.3624233
3.3501062 -2.999953 1.3537791
3.3664296 -3.0087593 1.3585223
3.3592513 -3.0095618 1.3482572
3.3581405 -3.0035315 1.351889
3.3710108 -2.994092 1.3591107
3.5107493 -3.1203434 1.2892652
3.5147269 -3.0970511 1.2790934
3.5269682 -3.0934634 1.2938335
3.5301392 -3.0865178 1.2795691
3.5381813 -3.09672 1.2869695
3.5418246 -3.0848284 1.2866448
3.5368168 -3.0808201 1.2928432
3.5365455 -3.0681906 1.2935627
3.5460019 -3.0808656 1.2756298
3.5590835 -3.0648575 1.2824479
3.5593796 -3.0534639 1.283163
3.5588605 -3.0624409 1.2822745
3.5681629 -3.0435181 1.2800716
3.5721984 -3.0457587 1.2799065
3.5819626 -3.0442851 1.2846253
3.5791202 -3.043489 1.2763157
3.5759461 -3.0320148 1.2870882
3.5789635 -3.0251191 1.2855579
3.5826933 -3.0130675 1.2864145
3.5884831 -3.0122275 1.278335
3.6010842 -3.0153782 1.2766991
3.5943935 -3.0033274 1.28113
3.6068072 -3.0062468 1.2795215
3.6170111 -2.9893966 1.2907044
3.6070426 -2.987041 1.2783868
3.7662299 -3.1116543 1.2128482
3.7728238 -3.1036103 1.2228349
3.7701828 -3.0967865 1.2147255
3.7860043 -3.0904639 1.2136699
3.7826753 -3.0825751 1.2084506
3.7912591 -3.086302 1.215071
3.7981997 -3.0809298 1.2087268
3.7895639 -3.0673466 1.2144418
3.7993124 -3.0677555 1.2119797
3.8002362 -3.0623214 1.2068402
3.808835 -3.0463257 1.2119228
3.820925 -3.0480781 1.2198029
3.8229945 -3.0368061 1.209254
3.816947 -3.03404 1.2197691
3.8298366 -3.038923 1.2129081
3.8374994 -3.0195348 1.2170495
3.831775 -3.0175114 1.2212863
3.839699 -3.0084217 1.2138234
3.8333306 -3.0138743 1.220663
3.8444927 -3.0026863 1.2076416
3.8505077 -3.0071752 1.205315
3.8615978 -3.0038426 1.2159293
4.0086179 -3.0980833 1.1434656
4.0171852 -3.1070364 1.1374867
4.0162597 -3.0873461 1.1413
4.0284653 -3.0842316 1.1391709
4.0248051 -3.0910723 1.1537287
4.025373 -3.074213 1.1520338
4.0384707 -3.0679381 1.1395379
4.0384002 -3.0747101 1.1528759
4.0453005 -3.0596683 1.1363648
4.0498657 -3.0577302 1.1378205
4.0450382 -3.0410156 1.1550455
4.0567756 -3.0400736 1.1377327
4.0625267 -3.044389 1.1545199
4.072083 -3.0408225 1.1488249
4.0595026 -3.0252335 1.1506865
4.0814719 -3.0133843 1.1437987
4.081738 -3.0127385 1.1375711
4.0895009 -3.0164561 1.1389509
4.0905933 -2.9975591 1.1497458
4.0951672 -2.9983733 1.1368462
4.1011887 -2.9882848 1.1550224
4.2558031 -3.101712 1.0794588
4.2618756 -3.0824385 1.0829666
4.2647271 -3.0778542 1.0843841
4.2618752 -3.0700884 1.0757283
4.2608767 -3.0645828 1.0732532
4.2729816 -3.0630329 1.0857496
4.2788515 -3.057934 1.0688483
4.2860923 -3.0559487 1.085158
4.2841196 -3.0535877 1.0749617
4.2892394 -3.0493956 1.0691558
4.2925267 -3.0461471 1.0752109
4.2892795 -3.0411553 1.0746186
4.3095317 -3.0176327 1.0726835
4.3111925 -3.0212746 1.0725812
4.3041897 -3.0102193 1.0720452
4.3147035 -3.0113547 1.0671144
4.3177047 -3.0109081 1.0813311
4.3237967 -2.9875002 1.0715762
4.32619 -2.9903357 1.0782192
4.4926453 -3.099252 1.0140482
4.4791684 -3.0819824 1.0161878
4.4917383 -3.0722058 1.0173384
4.5037069 -3.0664146 1.0160247
4.493732 -3.0631917 1.0050764
4.5036454 -3.0511923 0.99918467
4.5130148 -3.0528917 1.0061531
4.5174441 -3.0557938 1.0075576
4.5160813 -3.0367997 1.0063537
4.5249553 -3.0395997 1.0162921
4.520463 -3.03439 0.99822366
4.5408282 -3.0269768 1.0111755
4.5433245 -3.0113046 1.0076486
4.5469623 -3.007966 1.0036513
4.5492778 -2.9988964 1.0166097
4.5406356 -3.0041974 1.015294
4.5460935 -2.9844055 1.0059992
4.7152719 -3.0876973 0.93847996
4.709229 -3.0731454 0.93270069
4.7219725 -3.0739691 0.93782419
4.7246456 -3.0635259 0.94185406
4.7292409 -3.0569491 0.94698805
4.726779 -3.0520995 0.94147909
4.7407808 -3.0478261 0.93298775
4.7507763 -3.0454428 0.94723946
4.7537208 -3.0358982 0.92985725
4.7553401 -3.0250838 0.94592845
4.7476559 -3.026031 0.93560928
4.7614799 -3.0173354 0.9332729
4.7695155 -3.0002012 0.94353741
4.7626657 -3.0046897 0.93766397
4.7798362 -2.9888694 0.93178004
0.82074982 -4.8208575 1.248427
0.80862981 -4.8191524 1.2497692
0.81615704 -4.8216071 1.247473
0.83364624 -4.813765 1.2447762
0.84183508 -4.8105574 1.2451608
0.82002783 -4.6166015 1.3084943
0.82338703 -4.6168671 1.3235611
0.81837547 -4.6325078 1.3267574
0.8288821 -4.614573 1.317301
0.82950747 -4.6187239 1.3233857
0.84944189 -4.6187015 1.3097432
0.84358549 -4.6175289 1.3166813
0.85906965 -4.6155572 1.3200312
0.87225598 -4.6228237 1.3100798
0.86274385 -4.6086264 1.3221836
0.87361461 -4.6108227 1.3216389
0.8801536 -4.6161232 1.3197026
0.88175774 -4.6128964 1.3209904
0.90655637 -4.6056237 1.3190684
0.90189695 -4.6041837 1.3118421
0.90332043 -4.6092658 1.323476
0.91109961 -4.6066594 1.315111
0.92581517 -4.6150227 1.3275369
0.92387879 -4.5966516 1.3115071
0.93198925 -4.5942426 1.3084761
0.95220178 -4.6074114 1.3220412
0.95186782 -4.6004882 1.3090892
0.94959575 -4.5984058 1.3181382
0.96860963 -4.5979681 1.3132259
0.96569961 -4.5886316 1.3085099
0.97556138 -4.6043119 1.3174592
0.97705513 -4.5986509 1.3277531
0.99018204 -4.5847106 1.308413
0.99573296 -4.5991416 1.3261648
1.0052522 -4.5918951 1.3250369
1.0117384 -4.590867 1.3094426
1.0117878 -4.596602 1.3194652
1.0188832 -4.5910368 1.3102543
1.0350257 -4.5928831 1.3201567
1.0262539 -4.5840631 1.3180618
1.0327642 -4.5718031 1.3189445
1.0482216 -4.5844693 1.3241366
1.0539709 -4.5704269 1.3219084
1.0603782 -4.5772495 1.3238797
1.0645353 -4.5809674 1.3117194
1.0675623 -4.5646114 1.3191999
1.0749931 -4.5746164 1.3195488
1.0924442 -4.5639348 1.3240581
1.0806825 -4.5635166 1.3253067
1.0988209 -4.5582747 1.313952
1.0948625 -4.5729256 1.3134252
1.1117845 -4.5585189 1.3187908
1.1138965 -4.5647621 1.316749
1.1137781 -4.5709939 1.3264252
1.1356289 -4.5594635 1.3109158
1.1253173 -4.5512981 1.3102856
1.1424839 -4.5620923 1.3181645
1.1399974 -4.5618238 1.3152306
1.1620176 -4.5597029 1.3112111
1.1652843 -4.5458279 1.3109207
1.1571941 -4.5422931 1.3144581
1.1685749 -4.5482159 1.3108715
1.1853191 -4.5384049 1.3195026
1.180019 -4.5550871 1.3203535
1.1843929 -4.5362926 1.3111778
1.1932552 -4.5341802 1.3086014
1.2014848 -4.5412703 1.3136556
1.217591 -4.5372143 1.3173946
1.2107611 -4.5375018 1.3216615
1.2199093 -4.5408854 1.3182019
1.2287647 -4.5387192 1.3166664
1.241155 -4.5315299 1.3275884
1.2499565 -4.5339522 1.3266933
1.2473867 -4.528028 1.3274784
1.2456653 -4.5240808 1.3254123
1.2547659 -4.5176201 1.3238033
1.2612875 -4.5292759 1.3134402
1.2728609 -4.5311699 1.3254607
1.2881708 -4.5262356 1.3155116
1.2877451 -4.5184922 1.3204886
1.2838573 -4.5082307 1.3259323
1.2984316 -4.5119128 1.316857
1.3039254 -4.5131264 1.3236423
1.3085215 -4.5032396 1.3146259
1.3139002 -4.5014014 1.3278221
1.3172102 -4.516788 1.3257354
1.3389087 -4.5119753 1.3102403
1.3302414 -4.5019093 1.3110901
1.353592 -4.502851 1.3151041
1.3469911 -4.4905338 1.3250825
1.3653643 -4.4884171 1.3235347
1.3691788 -4.4980359 1.3165078
1.3639153 -4.4884691 1.3264619
1.3854345 -4.5006113 1.3244886
1.3779346 -4.4936771 1.3225305
1.3836282 -4.4897337 1.3233539
1.3872324 -4.4903889 1.3271493
1.3953389 -4.4860063 1.3191612
1.4042925 -4.4845653 1.3283728
1.4172573 -4.4760151 1.3280348
1.4201978 -4.475379 1.3279376
1.4215878 -4.4772129 1.3163368
1.4359481 -4.4705925 1.3124094
1.4402598 -4.4687319 1.3144376
1.4425954 -4.480648 1.3214889
1.4429699 -4.4731441 1.310564
1.4641652 -4.4683075 1.3170556
1.469153 -4.4616327 1.3259922
1.4661498 -4.4722705 1.3144236
1.4723555 -4.4562063 1.3094501
1.4782202 -4.4634624 1.3231493
1.4839849 -4.455586 1.3130422
1.4981459 -4.4596038 1.3275745
1.5083766 -4.4455628 1.3219776
1.5006328 -4.4554348 1.3224663
1.519937 -4.4511795 1.3084512
1.5283138 -4.4519725 1.3172568
1.5231788 -4.4540181 1.3107123
1.5269778 -4.4453058 1.3114966
1.539205 -4.4366226 1.3263025
1.5464559 -4.4283071 1.3118018
1.5474029 -4.4404569 1.3231179
1.5582397 -4.4246716 1.3283474
1.5636059 -4.42488 1.3255413
1.5633723 -4.4390531 1.3107769
1.5836241 -4.4201398 1.3181738
1.5898579 -4.419065 1.3226745
1.5848943 -4.429337 1.3230175
1.593383 -4.422019 1.3099526
1.6026529 -4.4086804 1.3234415
1.6067258 -4.4142942 1.323108
1.6162947 -4.4051609 1.3084785
1.6171767 -4.4113879 1.3274785
1.6232849 -4.4184432 1.3241065
1.6265839 -4.4119234 1.3243889
1.6351154 -4.4113398 1.3214033
1.6510407 -4.4107075 1.3173028
1.6514634 -4.4012213 1.3207319
1.652226 -4.3894248 1.3092715
1.6599203 -4.3945346 1.3089341
1.6611005 -4.4017439 1.3207587
1.6819439 -4.3855543 1.3194834
1.6881545 -4.3946495 1.3097392
1.6933619 -4.3837996 1.3106896
1.695194 -4.3758111 1.3159009
1.6973052 -4.3854485 1.3194284
1.6964275 -4.3853145 1.321312
1.711446 -4.3709083 1.3103975
1.7098904 -4.3818874 1.3089859
1.7168709 -4.3713164 1.3201628
1.7235107 -4.3657064 1.3218195
1.7419719 -4.3653913 1.3173469
1.7391542 -4.3650002 1.3214515
1.7465891 -4.3655329 1.3140696
1.7549709 -4.3503618 1.3123314
1.7685606 -4.3592048 1.3186028
1.7656745 -4.3550467 1.3226461
1.7646686 -4.361989 1.3187251
1.7727447 -4.3566012 1.3214459
1.7794057 -4.3503451 1.3123502
1.7972403 -4.3435578 1.3264681
1.796728 -4.3444138 1.3184968
1.8117397 -4.3341894 1.3085034
1.8108524 -4.3426285 1.3155553
1.8225799 -4.3287811 1.315348
1.8125656 -4.327435 1.3238592
1.828819 -4.335063 1.314081
1.8291124 -4.329782 1.314905
1.845481 -4.322506 1.3186522
1.8445671 -4.3146472 1.3261827
1.8545537 -4.3150277 1.3180197
1.8586547 -4.3219914 1.3265105
1.8547808 -4.3200111 1.3227274
1.8609098 -4.3049822 1.3279985
1.8740872 -4.304286 1.3246021
1.8870536 -4.2996612 1.3200281
1.8134463 -4.1322546 1.3929572
1.8248974 -4.1232915 1.3809632
1.8171692 -4.1240058 1.3936961
1.8331845 -4.1316776 1.3917304
1.8367269 -4.1154022 1.3868182
1.8321027 -4.1210613 1.3923675
1.8559656 -4.1166272 1.3773144
1.8560419 -4.112093 1.3946991
1.8613857 -4.1204062 1.3901801
1.8633294 -4.1017742 1.3876779
1.8606956 -4.1076865 1.3773839
1.8833237 -4.1079211 1.3935335
1.8739542 -4.1016536 1.3864405
1.8773137 -4.1051369 1.3891397
1.820264 -3.9197595 1.4532338
1.8164997 -3.9159563 1.4614526
1.8182812 -3.914046 1.4515455
1.825006 -3.9178121 1.4636045
1.8291119 -3.921983 1.4447739
1.8486954 -3.9099553 1.4619906
1.845773 -3.9063032 1.4507025
1.8525532 -3.9057608 1.4565798
1.8554794 -3.9003222 1.446116
1.8713088 -3.8972547 1.4495524
1.8698338 -3.8985238 1.4446605
1.8647858 -3.8890419 1.4610491
1.887953 -3.9032593 1.4568173
1.8812094 -3.8962297 1.4462814
1.8865212 -3.8905678 1.449029
1.8109928 -3.7213922 1.5289143
1.8144469 -3.7101212 1.5222273
1.8266094 -3.7175338 1.5135138
1.8246455 -3.7074802 1.5276625
1.8322144 -3.7070537 1.5222948
1.8432161 -3.7135546 1.5130663
1.8493223 -3.7105532 1.5307206
1.8518136 -3.6898298 1.5115504
1.8500694 -3.701292 1.5167956
1.8577858 -3.6928809 1.5250804
1.8682462 -3.6834266 1.5305105
1.8709247 -3.695713 1.5246888
1.8669125 -3.6810279 1.5289247
1.8741833 -3.6734941 1.5206771
1.8955991 -3.6835754 1.5303117
1.8916435 -3.6878352 1.5308936
1.8126864 -3.5036385 1.5795817
1.8169155 -3.5097709 1.5987636
1.8219709 -3.5028174 1.5839097
1.8322679 -3.4933138 1.5948868
1.8308463 -3.4985125 1.5927302
1.834851 -3.4861917 1.595692
1.8330306 -3.4830389 1.590737
1.8554425 -3.4977672 1.5907063
1.8496032 -3.4962277 1.597978
1.8533949 -3.4837885 1.598366
1.8577647 -3.4896781 1.5927926
1.8631557 -3.4762418 1.5985687
1.8677249 -3.4826503 1.5887733
1.8774368 -3.4836581 1.5859495
1.8781219 -3.4709804 1.5953882
1.8766468 -3.479187 1.5946019
1.8981298 -3.4741001 1.594416
1.8946543 -3.4714835 1.5969427
1.8911444 -3.4595847 1.5984426
1.8047197 -3.3035765 1.6574723
1.8086314 -3.2933886 1.6603693
1.8269664 -3.2826781 1.6541158
1.8310738 -3.292263 1.6588606
1.8253822 -3.2769969 1.6599975
1.8368634 -3.285903 1.6512052
1.8377798 -3.2811379 1.6515924
1.8379062 -3.2797399 1.654446
1.8578432 -3.2666636 1.6572891
1.8603033 -3.26194 1.6493968
1.8642596 -3.2782972 1.6496789
1.8595785 -3.2753475 1.6576275
1.8777907 -3.2586641 1.6537585
1.8697459 -3.262471 1.6577703
1.8864422 -3.2565634 1.6545073
1.8842717 -3.2637656 1.6597909
1.8933054 -3.2546384 1.6472858
1.8827225 -3.2499683 1.6536191
1.8949897 -3.2499411 1.6504619
1.9100963 -3.2520301 1.6494555
1.8025469 -3.0721252 1.7171763
1.8098089 -3.0842135 1.7175975
1.8250159 -3.0826557 1.7321101
1.8163505 -3.0737047 1.7202175
1.8316933 -3.0726161 1.7316273
1.8237695 -3.058253 1.733224
1.8411257 -3.0594075 1.7213304
1.8459735 -3.0556924 1.731483
1.8371508 -3.0642543 1.7190325
1.8451674 -3.0622501 1.7218562
1.8521742 -3.0575719 1.7193315
1.8592345 -3.0499377 1.7222016
1.8667123 -3.051399 1.7241067
1.8686992 -3.0458248 1.7324339
1.8787898 -3.0492034 1.7193149
1.8802867 -3.0447974 1.7180182
1.8833766 -3.0473237 1.7330201
1.8745693 -3.0292871 1.729184
1.8959109 -3.0243545 1.7342273
1.8847984 -3.0356829 1.7187099
1.896506 -3.0242786 1.7253001
1.9056851 -3.0300848 1.7169474
1.8977305 -3.0326798 1.7245508
1.9116774 -3.0175514 1.7151397
1.9139478 -3.016592 1.7197555
1.9230955 -3.0183921 1.7261765
1.9309428 -3.0213544 1.7274646
1.9337882 -3.0173731 1.7241768
1.9327937 -3.0162952 1.7232032
1.936839 -3.0105715 1.7282768
1.945363 -2.9973779 1.7221243
1.9404736 -2.9992394 1.7275295
1.9472276 -2.9932861 1.7276975
1.9415812 -2.9976127 1.7203457
1.9465201 -2.983892 1.7312994
2.058661 -3.1430304 1.6501298
2.0748491 -3.1406064 1.6509954
2.0723214 -3.1395488 1.6531708
2.0665019 -3.1436934 1.6537465
2.0797048 -3.1279972 1.6573626
2.0779772 -3.1279771 1.6514828
2.0900931 -3.1370435 1.6610464
2.08761 -3.1235487 1.6538622
2.1052909 -3.1198893 1.6596446
2.0956161 -3.1154766 1.6564349
2.0968907 -3.1256948 1.6491557
2.1046553 -3.1041226 1.6614326
2.1132812 -3.1094723 1.6518931
2.1240788 -3.1050317 1.655329
2.1154478 -3.1117742 1.6515749
2.1304286 -3.1046262 1.6649482
2.1395257 -3.08974 1.6663568
2.1381822 -3.101711 1.6583556
2.1496503 -3.1003709 1.6511029
2.1468966 -3.0930715 1.6653461
2.140929 -3.0888588 1.6664484
2.1476781 -3.0812395 1.6661935
2.1667001 -3.0893476 1.6576538
2.1561782 -3.0710077 1.6506135
2.1690881 -3.0656443 1.6538836
2.1782396 -3.0696411 1.6613482
2.1807604 -3.0688779 1.6607394
2.1846855 -3.0737913 1.6651942
2.1806049 -3.0715654 1.6480174
2.1892676 -3.0564177 1.6551626
2.1921694 -3.0515583 1.6635367
2.1961691 -3.044266 1.6565404
2.1999094 -3.042264 1.6584404
2.195106 -3.0550916 1.6556783
2.203258 -3.0393136 1.655272
2.2146759 -3.0386834 1.6478552
2.2135539 -3.0398281 1.6581815
2.2318189 -3.0413387 1.660569
2.2345343 -3.0312169 1.6621503
2.2400687 -3.036715 1.6558415
2.232744 -3.0235898 1.6513485
2.2337887 -3.0307395 1.651098
2.2478333 -3.0184186 1.6497937
2.243773 -3.0151668 1.6526002
2.2569466 -3.0080245 1.6481171
2.2497094 -3.0137215 1.6611905
2.2550511 -3.0047934 1.6500398
2.2707148 -3.0018489 1.6542928
2.2687612 -3.0004334 1.6655763
2.2683849 -2.9977236 1.6482643
2.2816951 -2.9865739 1.660974
2.2905083 -2.998611 1.663425
2.3928318 -3.1307604 1.5874183
2.4002905 -3.1411037 1.5792059
2.4105508 -3.1224914 1.5950087
2.4163234 -3.13533 1.5819818
2.4151647 -3.1270361 1.5947442
2.4228506 -3.1272836 1.5873065
2.4347849 -3.1136849 1.5981338
2.4379978 -3.1246586 1.5885147
2.4438941 -3.1065137 1.5868828
2.4424953 -3.1037431 1.590046
2.443543 -3.0965974 1.5878158
2.4562426 -3.1063807 1.5919034
2.4607251 -3.0902867 1.5912585
2.4610054 -3.0927985 1.5944241
2.4682543 -3.1008425 1.5825263
2.468261 -3.0855696 1.587018
2.460825 -3.0827267 1.5817391
2.4642115 -3.0810304 1.5821109
2.4779739 -3.0777926 1.5972461
2.4900999 -3.0803037 1.5917642
2.4853842 -3.0661125 1.5900344
2.4984334 -3.0635626 1.5951214
2.4955654 -3.0608661 1.5928967
2.4920478 -3.0622201 1.5847483
2.5116909 -3.0606518 1.5851378
2.4994311 -3.0433986 1.5973763
2.5116584 -3.0578985 1.5890276
2.5186017 -3.0533237 1.5989392
2.5259118 -3.0392938 1.5886464
2.5283525 -3.0374403 1.5923946
2.5253062 -3.0446 1.5868797
2.5405252 -3.0230036 1.5804546
2.5408263 -3.028563 1.5932599
2.538898 -3.0219233 1.581239
2.5488162 -3.0199189 1.5873083
2.559119 -3.0144477 1.5871466
2.5616553 -3.021018 1.5889952
2.5558379 -3.0049086 1.5919224
2.5599272 -3.005748 1.5853778
2.5737188 -3.0084007 1.5971787
2.5712535 -2.9983487 1.5983058
2.5832684 -2.9973221 1.5975097
2.5888531 -3.0002334 1.5876284
2.709795 -3.1321414 1.5131915
2.7163534 -3.1353555 1.5248849
2.7089758 -3.1324911 1.5185062
2.7214313 -3.1113095 1.5220077
2.71573 -3.1201596 1.5180632
2.7329507 -3.1091299 1.5297183
2.7236216 -3.1085131 1.5151535
2.746088 -3.1145608 1.5270678
2.7496762 -3.0927882 1.5164299
2.7524629 -3.0896201 1.5192962
2.745363 -3.0922515 1.5294977
2.7514844 -3.0927031 1.5127175
2.749294 -3.0849059 1.5150279
2.7607193 -3.0890212 1.51474
2.775641 -3.0832009 1.5218159
2.7666128 -3.0845175 1.5161295
2.7692342 -3.0795155 1.527262
2.7772853 -3.0763943 1.5285424
2.7772455 -3.0540266 1.5277852
2.7865624 -3.0532084 1.5263796
2.7987399 -3.0638213 1.5185202
2.8011138 -3.0526385 1.5263808
2.8067019 -3.0479667 1.5182041
2.814595 -3.0361845 1.5220714
2.8021946 -3.0337906 1.5279124
2.8168647 -3.0447292 1.5285844
2.8258431 -3.0373454 1.5303996
2.8259485 -3.0262039 1.5114715
2.8273287 -3.0193906 1.5310405
2.8279462 -3.0275431 1.5275509
2.8271527 -3.0077953 1.5295658
2.8384943 -3.0099456 1.5188749
2.8376911 -3.0107746 1.5289613
2.8487053 -3.0079715 1.5269294
2.8435814 -3.0018244 1.5233849
2.8642931 -3.0052574 1.5249894
2.8656712 -2.9839568 1.5300593
2.9986277 -3.1231048 1.4546829
3.003072 -3.1286106 1.4498534
3.0070794 -3.1177268 1.4529352
3.0075915 -3.1118591 1.4518228
3.0101128 -3.0988669 1.4446119
3.0219371 -3.1108894 1.4526182
3.0238419 -3.0961039 1.459468
3.0237091 -3.0906425 1.4484993
3.0200257 -3.0886645 1.4501262
3.037941 -3.089498 1.4490763
3.0409203 -3.0913277 1.4612099
3.036181 -3.0730817 1.4636675
3.0466063 -3.0751908 1.4528325
3.0601072 -3.0611448 1.4636827
3.05249 -3.0689287 1.4633363
3.0576558 -3.0692337 1.4467727
3.070822 -3.0519729 1.460794
3.0708323 -3.0591788 1.4560697
3.0798676 -3.0543954 1.4491105
3.070524 -3.0360186 1.4570988
3.0801244 -3.0389783 1.4590325
3.0818524 -3.0309873 1.4549814
3.0860322 -3.036875 1.444584
3.099371 -3.03356 1.4439895
3.1035538 -3.0221548 1.451362
3.1073842 -3.0098698 1.4541748
3.114645 -3.0086989 1.4499871
3.1159213 -3.0117924 1.4543265
3.1124668 -3.010119 1.4591764
3.1220474 -3.0020516 1.4581242
3.1196101 -2.9886405 1.4498273
3.1191006 -2.9977517 1.4452306
3.2702615 -3.1173103 1.3827857
3.2754731 -3.1171968 1.3870167
3.2800839 -3.1171327 1.3783444
3.2720606 -3.0974643 1.3776425
3.286844 -3.0947554 1.393791
3.2974331 -3.0949848 1.3825196
3.2923553 -3.0828767 1.3885894
3.2921212 -3.0853903 1.3783884
3.3108282 -3.0745373 1.3772547
3.3012319 -3.0683837 1.3826598
3.3070326 -3.0709813 1.3945333
3.3180456 -3.072727 1.3819691
3.313283 -3.0542154 1.3849118
3.3198416 -3.068074 1.3829594
3.3256919 -3.0514901 1.3791463
3.3276844 -3.0486517 1.3905286
3.3383987 -3.0552187 1.3894373
3.3351767 -3.0463419 1.3812449
3.341747 -3.0430729 1.3793119
3.347177 -3.0337093 1.3789327
3.3580058 -3.0228472 1.3913503
3.3607013 -3.0252683 1.3774104
3.3708262 -3.0167413 1.3773645
3.3638873 -3.0059388 1.3788363
3.3749895 -3.0135627 1.3922621
3.3822722 -3.0034645 1.3838909
3.3809304 -3.0069153 1.3843108
3.3784909 -2.9978459 1.3889601
3.5285723 -3.1114349 1.3245612
3.5361686 -3.1186633 1.31253
3.5433786 -3.0993004 1.3266956
3.5429995 -3.1014731 1.3137687
3.5486736 -3.0977452 1.3246917
3.5542951 -3.0851741 1.321734
3.5613811 -3.0857124 1.3264633
3.5618861 -3.083173 1.316596
3.554013 -3.0661738 1.3185769
3.5665531 -3.0758057 1.3249209
3.5637355 -3.0602615 1.3179414
3.5841753 -3.0614738 1.3188187
3.5725775 -3.0598223 1.3141377
3.5751379 -3.0428894 1.3223569
3.5847645 -3.0446146 1.309371
3.5853071 -3.0450439 1.3240168
3.602885 -3.042706 1.313179
3.6051853 -3.0241747 1.3199295
3.5976114 -3.0178211 1.3187219
3.6120114 -3.0232255 1.3229189
3.6127481 -3.0157387 1.3176908
3.6264987 -3.0120959 1.3262751
3.621119 -3.0043283 1.3115294
3.6310515 -2.9982703 1.3087295
3.6291964 -2.9868488 1.3192112
3.7793438 -3.119132 1.2566006
3.7793019 -3.097893 1.2589865
3.7884145 -3.0985956 1.2548926
3.7842703 -3.0911076 1.2521353
3.7989113 -3.0934474 1.2589504
3.7977417 -3.0792716 1.2482237
3.8113368 -3.0755591 1.2561049
3.8135087 -3.0814335 1.2467134
3.8209276 -3.0615752 1.2583332
3.8255391 -3.067765 1.2563223
3.8206248 -3.052989 1.2569609
3.8207562 -3.0426013 1.253572
3.823266 -3.0474398 1.2442076
3.8416743 -3.0407541 1.2570527
3.8373179 -3.0437517 1.242273
3.8397691 -3.0322356 1.2563783
3.8514862 -3.0314336 1.2488991
3.8510771 -3.0127621 1.2502427
3.8612688 -3.0109661 1.2461356
3.8630731 -3.0088458 1.2505238
3.8628588 -2.9959197 1.244367
3.8632755 -3.0071347 1.2432709
3.8802958 -3.0001047 1.2520036
4.0367179 -3.0941978 1.1744195
4.0373645 -3.1014156 1.1761568
4.0432239 -3.0904245 1.1840595
4.0431805 -3.0919514 1.1874075
4.0356503 -3.078115 1.1840645
4.0494556 -3.0783064 1.1771489
4.0591459 -3.0609064 1.1869793
4.0532165 -3.0679257 1.1843556
4.0611224 -3.0587258 1.185131
4.0679245 -3.0566955 1.1875442
4.0634513 -3.051199 1.1857406
4.0690498 -3.0493917 1.1911075
4.0763774 -3.0260532 1.1818478
4.0915999 -3.0270777 1.1854378
4.0901628 -3.0199449 1.1772345
4.0853744 -3.0233111 1.1832041
4.0936623 -3.0212834 1.1809319
4.091773 -3.0094736 1.1859928
4.1072521 -2.9940386 1.1746001
4.1034985 -2.9960744 1.1795781
4.2740841 -3.0979233 1.1167232
4.2710786 -3.0871437 1.1176677
4.2734323 -3.0932851 1.1162732
4.2865176 -3.0884452 1.1081706
4.2831845 -3.0692756 1.1215116
4.2916403 -3.0791197 1.1057909
4.286057 -3.064893 1.1063968
4.298193 -3.0567646 1.1131054
4.295382 -3.057359 1.1095362
4.3011694 -3.0459001 1.1182123
4.3119268 -3.0399752 1.1103898
4.3074841 -3.0413876 1.1074042
4.3239779 -3.0247707 1.1123283
4.3190689 -3.0193841 1.1161374
4.3260489 -3.0216379 1.1131551
4.3263612 -3.0197353 1.114362
4.3309441 -3.0077066 1.1238227
4.3361249 -3.0078242 1.1154327
4.3480058 -2.9950271 1.1204637
4.4911361 -3.087714 1.0432991
4.508256 -3.0866787 1.0537261
4.5175452 -3.0743349 1.0567378
4.5038395 -3.0697379 1.0503577
4.5150495 -3.0742819 1.0433495
4.5300593 -3.0560699 1.048067
4.5220785 -3.0617609 1.0486609
4.535296 -3.0470753 1.0552509
4.5379648 -3.0514076 1.0556853
4.5322351 -3.0280488 1.0428727
4.5515275 -3.0205686 1.0383291
4.5413098 -3.0202906 1.0485487
4.5415106 -3.0150373 1.0448341
4.564714 -3.0077944 1.0394325
4.5615287 -3.013638 1.0431968
4.5713263 -2.9887586 1.0388769
4.5658321 -2.9961386 1.042564
4.7382464 -3.0978725 0.98696512
4.7400627 -3.0776775 0.98838347
4.7423043 -3.0674641 0.98684049
4.7517238 -3.0622015 0.9864518
4.7565908 -3.0713909 0.98000932
4.751668 -3.064605 0.97248226
4.7630215 -3.0588322 0.98585445
4.7689643 -3.0404527 0.98703355
4.7586617 -3.0364749 0.9867366
4.76403 -3.022181 0.97269833
4.7730765 -3.0169773 0.97386009
4.774178 -3.0142734 0.98862422
4.7766886 -3.0136356 0.98700285
4.777647 -3.0078759 0.98403937
4.7982073 -3.0015383 0.9852758
0.81693947 -4.8338928 1.2858286
0.82399791 -4.8347821 1.2787148
0.83166993 -4.8256145 1.2881137
0.84275943 -4.8250318 1.293303
0.84890944 -4.8327456 1.2809986
0.84503174 -4.8326311 1.2851745
0.8562842 -4.8253903 1.2911252
0.86359417 -4.8202128 1.2821207
0.8608219 -4.8141222 1.2833844
0.87984014 -4.815022 1.2895784
0.88488132 -4.8208456 1.2954549
0.88089341 -4.8263578 1.2793149
0.88979 -4.8109436 1.2912058
0.9080838 -4.8111839 1.2825334
0.91156518 -4.812017 1.2849916
0.92274034 -4.8034682 1.2863995
0.91808963 -4.8104062 1.2938735
0.91938794 -4.816772 1.2853413
0.93167984 -4.8126454 1.2817066
0.9452337 -4.8162351 1.2959692
0.94497985 -4.8015161 1.2831962
0.9506005 -4.7975159 1.2836896
0.96007931 -4.8113484 1.2783661
0.96144718 -4.7936144 1.2915621
0.97414088 -4.7991242 1.2826755
0.98929083 -4.8001833 1.2810785
0.98584676 -4.7926149 1.291275
0.9898749 -4.7904687 1.2938281
1.0053688 -4.8027492 1.2792201
1.0172261 -4.7881927 1.2797258
1.023344 -4.8006048 1.2936443
1.016687 -4.7941098 1.2902477
1.0305214 -4.7848468 1.291694
1.0390304 -4.7809258 1.2895402
1.0407333 -4.7910185 1.2805326
1.0535476 -4.7926669 1.289113
1.0647629 -4.7844629 1.2838994
1.0661727 -4.778933 1.2794603
1.0701334 -4.7846093 1.2813596
1.0794842 -4.7851262 1.2964249
1.0893387 -4.7862215 1.2776783
1.0931095 -4.7806673 1.2840176
1.0934815 -4.7679715 1.2782012
1.0952978 -4.7734566 1.2948782
1.114958 -4.763927 1.2800252
1.1256086 -4.7682695 1.2820773
1.1248375 -4.7680807 1.2908771
1.1388506 -4.7731643 1.2837416
1.1284224 -4.7609673 1.2894553
1.1398911 -4.7660971 1.2931681
1.1464231 -4.7680488 1.2942924
1.1542062 -4.7529035 1.2794679
1.1683264 -4.7640581 1.2958276
1.1766279 -4.7600656 1.2851807
1.1816043 -4.7630806 1.2825326
1.1917253 -4.7621102 1.2940023
1.1838962 -4.7485747 1.2841115
1.2048645 -4.7476864 1.2875785
1.1986951 -4.743886 1.2816747
1.2182369 -4.7552729 1.2890638
1.2214893 -4.7467823 1.2929146
1.2258636 -4.7371612 1.290315
1.2354112 -4.7400699 1.294956
1.2413158 -4.7413244 1.2819748
1.2365713 -4.7442484 1.2843549
1.2491763 -4.7436948 1.2860723
1.2532485 -4.7376108 1.2796832
1.2674274 -4.7371974 1.2925307
1.265071 -4.7295899 1.287518
1.2768085 -4.7290745 1.2894483
1.2759324 -4.7319384 1.2781895
1.2989048 -4.7170572 1.2948635
1.2992749 -4.7192554 1.2869308
1.3042836 -4.7221737 1.2960364
1.3163085 -4.7164588 1.2805014
1.310711 -4.7247586 1.2837946
1.3268284 -4.7156038 1.2914366
1.3365542 -4.7188849 1.2777478
1.3391248 -4.7111349 1.2899132
1.3366802 -4.7182579 1.2808313
1.3561633 -4.7128644 1.2871137
1.364385 -4.7111034 1.2864959
1.369278 -4.7155752 1.2818894
1.3662357 -4.7016387 1.292565
1.3722963 -4.7022748 1.2871468
1.3828193 -4.6951036 1.2916105
1.3966329 -4.6984076 1.2834018
1.3980857 -4.6985755 1.2900755
1.4058471 -4.7027607 1.2826533
1.405771 -4.6959753 1.2862533
1.4166105 -4.6962891 1.2933828
1.4137295 -4.6949606 1.2803996
1.430228 -4.6953163 1.2810619
1.4421173 -4.6852889 1.2937692
1.4446794 -4.6757722 1.2839395
1.4418205 -4.682302 1.279371
1.4634224 -4.6815848 1.2895793
1.456813 -4.6859784 1.2776909
1.4568744 -4.6691718 1.2796798
1.4695107 -4.6789999 1.2865074
1.4857442 -4.6645436 1.2910653
1.4891043 -4.6595216 1.2949864
1.4994782 -4.6645513 1.2765772
1.4905117 -4.6642389 1.2862123
1.5142496 -4.6679091 1.2833712
1.5081547 -4.6609802 1.2919985
1.5174886 -4.6589885 1.2793322
1.5170276 -4.6501427 1.2802521
1.5246755 -4.6477685 1.2959493
1.5343091 -4.6592889 1.2797805
1.5507675 -4.6411033 1.2960202
1.5517808 -4.6460829 1.2952253
1.556712 -4.6472101 1.2873353
1.5632312 -4.6438231 1.2776825
1.5793825 -4.6432147 1.2822757
1.5726897 -4.6352143 1.2917045
1.574621 -4.6443906 1.2810233
1.5838828 -4.6405349 1.2770766
1.5940615 -4.6355362 1.2933837
1.5999343 -4.6274052 1.296041
1.6096352 -4.6293144 1.2947452
1.6155727 -4.6167064 1.2863225
1.6207123 -4.6256595 1.2946156
1.6379585 -4.6145825 1.2841299
1.6455489 -4.6138411 1.2920778
1.6377293 -4.626276 1.2858422
1.6393355 -4.6232605 1.2882375
1.650257 -4.6174603 1.2922862
1.6572288 -4.6079555 1.2791226
1.6605045 -4.5990491 1.2918699
1.666434 -4.6069098 1.2804786
1.6710647 -4.5952983 1.2794574
1.6872693 -4.6050091 1.2872361
1.6917639 -4.6039324 1.2838352
1.7057693 -4.6017208 1.2789103
1.7077194 -4.5937815 1.279276
1.7034307 -4.5906849 1.2803743
1.7215338 -4.5831127 1.2849805
1.7236824 -4.5950122 1.27679
1.732664 -4.5900755 1.2951956
1.7343895 -4.5856452 1.2834208
1.7447205 -4.5830178 1.2809293
1.7540268 -4.5706158 1.2863896
1.7511085 -4.5801458 1.2905802
1.7647858 -4.5620937 1.294627
1.7735348 -4.5685115 1.2842491
1.7826461 -4.5656352 1.2945942
1.7928523 -4.5710692 1.2901288
1.7876611 -4.5607643 1.2913731
1.7942761 -4.5678849 1.295154
1.799293 -4.5596833 1.2809557
1.8125318 -4.5475512 1.2869666
1.8232756 -4.5525088 1.2829527
1.819476 -4.5467787 1.2869728
1.8198636 -4.553761 1.2866
1.8442943 -4.5383806 1.2773554
1.8383436 -4.5402722 1.2885245
1.8427345 -4.5383372 1.2917881
1.8626565 -4.5279698 1.2828758
1.8638191 -4.5373597 1.2843533
1.8687589 -4.5281019 1.2915339
1.8794969 -4.5319715 1.2883395
1.8762422 -4.5314593 1.2776709
1.8168461 -4.3467369 1.3564938
1.8133469 -4.342452 1.3595141
1.8294713 -4.3400879 1.3553717
1.8363476 -4.3500228 1.346786
1.8343896 -4.3419118 1.3575746
1.8356915 -4.3402205 1.3561614
1.8480774 -4.3437042 1.3627796
1.8619373 -4.3285818 1.3560684
1.8629743 -4.3290524 1.3428916
1.8608133 -4.3191042 1.347622
1.8679799 -4.322752 1.3600924
1.8876796 -4.3159752 1.3543264
1.815361 -4.1460109 1.4146805
1.8136897 -4.1484799 1.4162744
1.8234291 -4.1389732 1.423432
1.8239535 -4.1342268 1.4097253
1.8430612 -4.1431537 1.4099709
1.8487836 -4.1242757 1.422766
1.8477912 -4.1304121 1.4125094
1.8536184 -4.1247578 1.4096115
1.8641725 -4.117981 1.4204677
1.8671933 -4.1175456 1.4154944
1.8644446 -4.1204309 1.424735
1.8757601 -4.1107798 1.4289879
1.8886658 -4.117177 1.420221
1.8887254 -4.1088347 1.4136659
1.8166701 -3.9355304 1.4819279
1.8230218 -3.9340267 1.4802308
1.8221649 -3.93929 1.4898384
1.8310481 -3.9244971 1.4825332
1.8370297 -3.9249172 1.4794298
1.833864 -3.9280803 1.4941789
1.8457215 -3.9197524 1.4834515
1.8468158 -3.9258654 1.4797763
1.8521595 -3.9248254 1.4870965
1.8687327 -3.9094753 1.4801437
1.8587472 -3.9135213 1.4922361
1.8707339 -3.916718 1.4833106
1.8810197 -3.9062703 1.4865924
1.8809094 -3.9124348 1.4821303
1.8934906 -3.8981094 1.4947031
1.8209827 -3.722482 1.5478468
1.8249648 -3.7305522 1.5604721
1.8182158 -3.7230096 1.5444168
1.8277884 -3.7156012 1.5468259
1.8246775 -3.7170937 1.5420021
1.8346102 -3.7140422 1.5505418
1.8366318 -3.7044713 1.5532862
1.8497243 -3.7100778 1.5438724
1.846095 -3.7012544 1.5456804
1.858 -3.7053058 1.5591924
1.8624742 -3.7053359 1.5557472
1.8738022 -3.7065952 1.5417094
1.8777521 -3.6998115 1.5526853
1.8856428 -3.6886597 1.5485331
1.895939 -3.6858199 1.5603447
1.9014077 -3.6982446 1.5526568
1.8096547 -3.525759 1.6182678
1.8061656 -3.5135736 1.6094205
1.8132591 -3.5102046 1.6268241
1.8221573 -3.5201137 1.6175961
1.8245639 -3.5107286 1.625751
1.8435216 -3.5151918 1.610052
1.848438 -3.5008776 1.6185349
1.8443267 -3.5038416 1.6155607
1.8560598 -3.5016747 1.6128101
1.8596008 -3.4992006 1.6150116
1.8554502 -3.4878798 1.6189854
1.8706208 -3.4849677 1.6126267
1.8769406 -3.4798784 1.6271123
1.8806603 -3.4908035 1.6091568
1.8751484 -3.4842312 1.6180481
1.8777877 -3.4836068 1.6199309
1.8847243 -3.4829681 1.6135756
1.9001402 -3.471339 1.6216972
1.8925781 -3.4728718 1.6094197
1.8120759 -3.3100061 1.6833298
1.8237261 -3.3020537 1.6796948
1.8193464 -3.3038149 1.6763854
1.8286047 -3.3041372 1.6755722
1.8323449 -3.2856171 1.6812335
1.8381262 -3.2974825 1.6908603
1.832795 -3.2915785 1.6784978
1.8493432 -3.2836041 1.6841534
1.8595325 -3.2850766 1.6788111
1.8578397 -3.27897 1.6893016
1.863866 -3.2880349 1.6942682
1.8575125 -3.2700701 1.6846657
1.8675203 -3.2811015 1.6907737
1.8742151 -3.2674878 1.6940249
1.8800931 -3.2747438 1.6932553
1.8916287 -3.2608244 1.6780728
1.8927876 -3.2568388 1.6862406
1.9015801 -3.2609041 1.6798223
1.8960248 -3.2593753 1.689365
1.9051232 -3.2641315 1.682441
1.8099301 -3.0842836 1.7501588
1.8142507 -3.0786722 1.7469692
1.8289652 -3.0876343 1.7501559
1.8297843 -3.0744796 1.7443575
1.8338511 -3.0800209 1.748698
1.8371446 -3.0785971 1.7443461
1.8452522 -3.0805812 1.7413621
1.8415239 -3.078336 1.7516884
1.8513739 -3.0662055 1.7409124
1.8507628 -3.0695326 1.7427435
1.8632243 -3.0578263 1.7586131
1.8571135 -3.0661199 1.7575766
1.8678097 -3.0640166 1.7450546
1.861689 -3.0654078 1.743158
1.8697662 -3.0470421 1.7531847
1.8821802 -3.0496898 1.7420938
1.8702389 -3.048533 1.7464713
1.8753097 -3.0554039 1.7505405
1.8907032 -3.036721 1.7441807
1.8953171 -3.0429416 1.7519282
1.9017583 -3.0409894 1.7488106
1.9040655 -3.0294333 1.7548217
1.9053326 -3.0314624 1.7603528
1.9140739 -3.0238905 1.7419033
1.920915 -3.0325158 1.7592238
1.917779 -3.0329978 1.7512953
1.9235485 -3.0296884 1.7419162
1.9336917 -3.0255716 1.7430527
1.9279004 -3.0103211 1.7602528
1.9357454 -3.014713 1.7486074
1.9313343 -3.0169163 1.7562827
1.9438018 -3.0010612 1.7528771
1.9422766 -3.0081842 1.7447991
1.9462788 -3.0108075 1.7416441
1.9518276 -3.0108275 1.7472088
1.9546933 -2.9982176 1.7496307
1.9696265 -3.0040686 1.7526953
1.9751769 -2.9840031 1.7572039
1.9818599 -2.9939518 1.7542844
2.089258 -3.1380403 1.678002
2.0817082 -3.1328452 1.6831124
2.0818295 -3.1393938 1.6813816
2.0985415 -3.1316752 1.6898254
2.1071713 -3.1241584 1.6929381
2.0926421 -3.1352928 1.6933167
2.1036735 -3.1277578 1.6835854
2.1171227 -3.129482 1.6852776
2.1136322 -3.1298447 1.6843036
2.1146464 -3.1277092 1.6906435
2.1327369 -3.1258752 1.6879175
2.1208272 -3.1159887 1.6874927
2.1340239 -3.110374 1.6776195
2.1454854 -3.1124365 1.6925585
2.1453867 -3.1102548 1.6921024
2.1483965 -3.1069832 1.6775935
2.1517808 -3.0970576 1.6876951
2.1454296 -3.0980558 1.6931421
2.1607664 -3.0869136 1.6752896
2.1551249 -3.0991216 1.6766299
2.1758194 -3.0776002 1.6768551
2.1737833 -3.092345 1.6840121
2.1713185 -3.0782456 1.6938226
2.1789761 -3.077033 1.6786034
2.1815686 -3.0802634 1.6825929
2.1837008 -3.0648241 1.6868744
2.1913197 -3.0703366 1.6780962
2.1890361 -3.0665319 1.6853282
2.1921949 -3.071718 1.6807054
2.1974974 -3.066869 1.6808708
2.2041357 -3.0656447 1.6795481
2.2109947 -3.0507715 1.6804651
2.2250066 -3.0426738 1.6924598
2.2288246 -3.0512252 1.6826394
2.2374191 -3.0414863 1.6865548
2.2299988 -3.0339136 1.6828699
2.2268558 -3.0430157 1.6906269
2.23493 -3.0386913 1.6791369
2.2502322 -3.0354931 1.6794031
2.240907 -3.0312738 1.6814545
2.2517428 -3.024693 1.6816608
2.2612517 -3.0155256 1.6936646
2.2716732 -3.0166147 1.6906844
2.274085 -3.0181496 1.6760653
2.2666719 -3.0153494 1.6880915
2.28317 -3.004225 1.6845909
2.2759786 -3.000495 1.6888828
2.2765398 -2.9929371 1.6743879
2.2856066 -2.9943194 1.6799738
2.2949352 -2.9892647 1.6866559
2.2863107 -2.9976079 1.6767894
2.297888 -2.9806716 1.6929554
2.4161549 -3.1273794 1.618605
2.4169559 -3.1258948 1.6258593
2.4231334 -3.136039 1.6127607
2.4413321 -3.1338966 1.6276277
2.4360259 -3.1231527 1.6230606
2.4350064 -3.11605 1.6228807
2.4394875 -3.1240788 1.6181424
2.4495497 -3.1069727 1.6152763
2.4462891 -3.1026804 1.6208791
2.4531574 -3.1109958 1.6202244
2.4561868 -3.0999148 1.6195029
2.4711473 -3.0924177 1.6169003
2.4733574 -3.1031237 1.6207814
2.4824641 -3.1000063 1.6234268
2.486433 -3.0865662 1.6134319
2.4858298 -3.0785117 1.6271493
2.4850421 -3.0903375 1.6094416
2.4995112 -3.076458 1.6254374
2.4911094 -3.0701909 1.6223167
2.5083055 -3.0814028 1.6274662
2.504842 -3.0739276 1.6202757
2.5006521 -3.0558295 1.6171557
2.513855 -3.0598543 1.6198968
2.5109339 -3.0591004 1.6223162
2.5306535 -3.058701 1.6147308
2.5203731 -3.0432231 1.6117488
2.5238054 -3.0528467 1.6134838
2.5295248 -3.05231 1.6256354
2.5312352 -3.0444794 1.6205848
2.5498202 -3.0437515 1.6208473
2.5535493 -3.0307817 1.6251038
2.5500834 -3.0262911 1.6239712
2.5634923 -3.0328825 1.6153208
2.5596373 -3.0266743 1.6239249
2.558197 -3.0250216 1.6094234
2.5691662 -3.0179193 1.6268885
2.5771482 -3.0116496 1.6112132
2.5868604 -3.0039206 1.6125515
2.5887191 -2.9987364 1.6181916
2.5855222 -2.9992177 1.6210246
2.582583 -3.0002151 1.6132865
2.6038949 -2.9889188 1.6264924
2.6040695 -2.9884491 1.6095542
2.7190626 -3.1387541 1.5489792
2.7393796 -3.1318634 1.5527785
2.7251899 -3.1182237 1.5601099
2.7484603 -3.1208172 1.5501344
2.7360497 -3.117909 1.5443059
2.7449722 -3.1173472 1.5600735
2.7595294 -3.1041827 1.5517657
2.7569144 -3.0981531 1.5588608
2.7665558 -3.0950015 1.5536463
2.7693977 -3.0958607 1.54529
2.775296 -3.0893812 1.5457004
2.7669003 -3.0869589 1.5492059
2.7822983 -3.0830953 1.5425491
2.7850225 -3.0803251 1.5494908
2.777766 -3.0743239 1.5555266
2.7846754 -3.0637531 1.5583038
2.7873468 -3.062973 1.5504192
2.8017051 -3.0691502 1.5447321
2.8031533 -3.0500228 1.5583581
2.7993813 -3.0523853 1.5472803
2.8072476 -3.0531759 1.5588315
2.8155189 -3.0466831 1.5489483
2.8272903 -3.0491078 1.5590663
2.8323991 -3.0331182 1.5480856
2.8244443 -3.0286903 1.5592315
2.8425198 -3.0416522 1.5570675
2.8433671 -3.0362365 1.551797
2.8363242 -3.0207512 1.5564567
2.8435886 -3.0281007 1.5563449
2.8444734 -3.0235 1.5499659
2.854275 -3.015305 1.5588857
2.8556223 -3.0031056 1.5503817
2.8670807 -3.003396 1.5555304
2.8686516 -3.0028334 1.5527401
2.8792362 -2.9944758 1.5504433
2.8809612 -2.9922876 1.5512441
3.011004 -3.129797 1.4872279
3.0254736 -3.1220953 1.4810312
3.0245969 -3.1113572 1.4835267
3.0236025 -3.1039569 1.4866588
3.0362232 -3.1109719 1.4940158
3.0377579 -3.1008513 1.4895965
3.0307825 -3.103478 1.4809049
3.0489502 -3.0887341 1.4887884
3.0443215 -3.0876005 1.4810358
3.0573902 -3.0889311 1.4914721
3.0512538 -3.0748899 1.4766992
3.0673814 -3.0707474 1.4854345
3.0573063 -3.0718439 1.4807084
3.069721 -3.0782912 1.479177
3.0652616 -3.0564687 1.4864188
3.0681534 -3.0574563 1.4795637
3.0866199 -3.0497582 1.4858578
3.0763888 -3.0482254 1.482666
3.0940351 -3.0556481 1.4763719
3.0839229 -3.0343237 1.4845051
3.1042411 -3.0434508 1.4824315
3.1097803 -3.0407596 1.4802464
3.1040487 -3.0324469 1.4927046
3.113585 -3.0360169 1.4944493
3.1215837 -3.028338 1.4937444
3.1168184 -3.0220525 1.4877738
3.1251919 -3.0215805 1.4852172
3.1198535 -3.0156131 1.4799035
3.1313169 -2.9962668 1.4828708
3.1364803 -2.9912946 1.4828607
3.1497707 -2.9902596 1.4894154
3.1409817 -2.9879353 1.4943473
3.2864463 -3.1259272 1.4169861
3.2881 -3.1080885 1.4180151
3.2914917 -3.1064823 1.4223914
3.2941723 -3.1138668 1.4287155
3.3108759 -3.0970969 1.4111682
3.3050163 -3.0898788 1.415239
3.3138368 -3.0954039 1.4143006
3.305618 -3.0799668 1.4139733
3.3173826 -3.0754342 1.410314
3.3156955 -3.0838795 1.4246061
3.318934 -3.0674877 1.4268688
3.3310909 -3.073801 1.4223949
3.3442705 -3.0610745 1.4149458
3.34182 -3.0500133 1.415525
3.3456869 -3.0465877 1.4282804
3.352 -3.0533545 1.4236544
3.3623774 -3.0356274 1.4288977
3.35181 -3.0304389 1.4249666
3.3609085 -3.0377994 1.4209504
3.3663414 -3.0311542 1.4238652
3.3660598 -3.0255711 1.418542
3.3680344 -3.0121253 1.4222697
3.3855283 -3.0097876 1.4140823
3.3755667 -3.0141821 1.4123083
3.3861778 -2.9989841 1.4093063
3.3895376 -3.0017414 1.4148779
3.3882649 -2.9983833 1.4135109
3.3922291 -2.9898479 1.4126608
3.5536904 -3.1213713 1.3534865
3.5498681 -3.1065979 1.3625603
3.5489538 -3.0963416 1.3525276
3.5627093 -3.0883396 1.3512455
3.5601857 -3.0870659 1.3475999
3.5694675 -3.0799696 1.3548526
3.5769684 -3.0864718 1.3525902
3.5814607 -3.0738168 1.3428515
3.5715172 -3.0666304 1.3517463
3.5802002 -3.0596697 1.3444459
3.5880258 -3.0568655 1.3457943
3.6029565 -3.0622344 1.3569764
3.6069541 -3.0528612 1.3534687
3.6009119 -3.0540693 1.3530109
3.6135807 -3.0421309 1.3488687
3.6025968 -3.0452335 1.3468586
3.6188586 -3.0251513 1.3533762
3.6128509 -3.0248859 1.3475726
3.6170974 -3.0188661 1.3439729
3.6302319 -3.0084586 1.3623458
3.6360588 -3.0145137 1.3585286
3.6432271 -3.0099194 1.3443422
3.6415703 -3.0056019 1.3545229
3.636399 -2.9915938 1.3584833
3.6507626 -2.9891772 1.3493638
3.8066852 -3.1018946 1.2858312
3.7950497 -3.1024964 1.2836372
3.8099241 -3.0933449 1.2766725
3.8189876 -3.0841787 1.2906857
3.8244441 -3.0861032 1.2900584
3.8282661 -3.0864184 1.2783225
3.8282635 -3.0837765 1.2861211
3.8340671 -3.0669951 1.2931719
3.8300438 -3.059582 1.2891593
3.8299735 -3.0619948 1.2824861
3.8407764 -3.0583761 1.277909
3.8543253 -3.0507355 1.2874378
3.8456728 -3.052556 1.2808195
3.8500481 -3.0296409 1.2780627
3.8684292 -3.0255899 1.2880709
3.8661754 -3.0220304 1.292447
3.8721781 -3.022779 1.2941424
3.865972 -3.0220225 1.2872903
3.8668091 -3.0095801 1.2825167
3.8836262 -3.0014918 1.2899895
3.8937624 -3.0068765 1.2957344
3.8793139 -3.0029809 1.283767
4.0437083 -3.1073642 1.2183342
4.0523167 -3.0960519 1.2167381
4.0581598 -3.0906045 1.2138225
4.0540032 -3.0916495 1.2290901
4.0542154 -3.0909226 1.2182264
4.0561147 -3.0806253 1.222731
4.0711541 -3.0737066 1.2142837
4.0814118 -3.0741796 1.2285247
4.0791345 -3.068717 1.211975
4.0825939 -3.0618961 1.2139089
4.0940785 -3.0441883 1.2214073
4.0864081 -3.0422115 1.2145857
4.0971341 -3.0387228 1.2275732
4.1049361 -3.0237141 1.2138715
4.1079979 -3.0328088 1.2152463
4.1001883 -3.024312 1.2212621
4.1168752 -3.0050757 1.2285342
4.1051068 -2.9998732 1.229665
4.1275711 -3.0012321 1.210584
4.1134777 -3.0034075 1.2126436
4.1213107 -2.9983668 1.2267247
4.2892733 -3.0961945 1.1508039
4.2979217 -3.0963972 1.15896
4.2995486 -3.0930419 1.1564207
4.287466 -3.0708606 1.1590765
4.2967496 -3.0807176 1.144513
4.3120408 -3.0581076 1.1634641
4.3145957 -3.0514786 1.1618897
4.3182731 -3.0465894 1.1532227
4.3228612 -3.0399895 1.1566406
4.3295002 -3.0497451 1.1593541
4.3302121 -3.028358 1.1494266
4.321281 -3.0226495 1.1533259
4.3404975 -3.0196323 1.1546043
4.3371663 -3.0130084 1.1520813
4.336482 -3.0214026 1.153713
4.3412266 -2.9987991 1.1519601
4.3449135 -2.997926 1.1508359
4.3470173 -2.9976525 1.1485945
4.5158253 -3.1041267 1.0806543
4.5128126 -3.0809376 1.0832263
4.5325046 -3.0812881 1.0811613
4.5222602 -3.0748129 1.0787742
4.5359063 -3.0733557 1.0933682
4.5308223 -3.0594559 1.0885439
4.5432057 -3.0504577 1.0892775
4.5372128 -3.040925 1.0865607
4.549458 -3.0519061 1.0786572
4.5605698 -3.0449758 1.0849617
4.5494318 -3.0288007 1.0857875
4.5566306 -3.0199635 1.0835083
4.5663929 -3.0157502 1.094578
4.5740809 -3.0060885 1.0858166
4.5793734 -3.0070794 1.0921999
4.5792503 -2.9974439 1.0861645
4.5742946 -2.9997056 1.0828025
4.7479401 -3.095582 1.0163568
4.741127 -3.0799067 1.0188799
4.7464018 -3.0773735 1.0219909
4.7579713 -3.0702238 1.0149285
4.7703576 -3.0601118 1.0303491
4.7604551 -3.064465 1.0236229
4.7816133 -3.0453491 1.0201921
4.7740011 -3.0451508 1.0293988
4.7727628 -3.0292761 1.0218629
4.7854795 -3.0225496 1.0256815
