# .PCD v0.7 - Point Cloud Data file format
VERSION 0.7
FIELDS x y z
SIZE 4 4 4
TYPE F F F
COUNT 1 1 1
WIDTH 1505
HEIGHT 1
VIEWPOINT 0 0 0 1 0 0 0
POINTS 1505
DATA ascii
-0.1658597 -3.0826874 1.6261487
-0.15066037 -3.0884502 1.6266811
-0.15173712 -3.0926764 1.6277829
-0.15347531 -3.0911772 1.6296016
-0.14244686 -3.0961092 1.6331277
-0.13498801 -3.0922694 1.6233851
-0.14707808 -3.0966167 1.6327459
-0.1430811 -3.0900509 1.6219219
-0.12742932 -3.0975871 1.6278892
-0.11901774 -3.0983305 1.6253287
-0.11333869 -3.0905135 1.6247488
-0.12202261 -3.0918224 1.6386461
-0.11017384 -3.0985336 1.6285509
-0.11722302 -3.0913093 1.6201823
-0.10245337 -3.0973825 1.6271033
-0.10415731 -3.1003237 1.6380798
-0.095603734 -3.0996819 1.6249182
-0.097689085 -3.0993702 1.6385261
-0.090598278 -3.0877342 1.6247952
-0.077540018 -3.0920146 1.630512
-0.087042063 -3.0949438 1.6242312
-0.077123746 -3.0908852 1.6368208
-0.073308013 -3.0993061 1.6228722
-0.059587367 -3.0991054 1.6363153
-0.054235149 -3.0884638 1.6238461
-0.061961759 -3.1038551 1.6285906
-0.058711793 -3.0950227 1.6341261
-0.048623249 -3.0926049 1.6201161
-0.044926692 -3.0874262 1.6378789
-0.034961008 -3.0935194 1.6314924
-0.039278381 -3.0934446 1.6223012
-0.029876422 -3.0877821 1.6372875
-0.027884806 -3.1026342 1.6239653
-0.019841697 -3.0880964 1.6309506
-0.018355498 -3.0925369 1.6286781
-0.0093385158 -3.0890353 1.6311084
-0.015576882 -3.1066148 1.6224599
0.0037202325 -3.0984368 1.6363113
0.0090073859 -3.0908935 1.6354177
0.012057378 -3.0977161 1.6285012
0.0087207826 -3.0931873 1.6217237
0.016193146 -3.1035883 1.6206669
0.018651767 -3.0963295 1.6248101
0.027788142 -3.1053591 1.6235372
0.023909783 -3.0972342 1.6378635
0.037758827 -3.1044245 1.6357254
0.034038201 -3.1021848 1.6360358
0.041668948 -3.10498 1.6245461
0.043151073 -3.0868199 1.6206152
0.043739531 -3.0899417 1.6298716
0.057411473 -3.1007321 1.6236602
0.064305767 -3.0883822 1.6270454
0.0701432 -3.0979056 1.637681
0.060123727 -3.1026247 1.6192726
0.06883122 -3.0955539 1.6289682
0.07186491 -3.0989661 1.6314471
0.072760433 -3.0904307 1.636133
0.073966242 -3.0985963 1.6379849
0.083682097 -3.0896115 1.6379521
0.089466959 -3.1043701 1.6347466
0.10450801 -3.0897882 1.6206934
0.093337514 -3.0926437 1.6389275
0.10555203 -3.0939929 1.6275688
0.10840206 -3.0896931 1.6314162
0.11284338 -3.101017 1.6222531
0.12698017 -3.0936384 1.6295906
0.12359565 -3.0896952 1.6253704
0.12489678 -3.088877 1.632885
0.12804963 -3.1026735 1.629279
0.13116941 -3.0950158 1.6308032
0.13108335 -3.0966475 1.6267917
0.13694403 -3.0937798 1.6198013
0.14103836 -3.1030276 1.6313318
0.15377386 -3.0937552 1.6270266
0.15035643 -3.0843713 1.6312559
0.15777561 -3.08518 1.622716
0.17253205 -3.0937026 1.6379656
0.16306786 -3.085253 1.6338735
0.18111807 -3.0979793 1.6358188
0.17556199 -3.0919144 1.6252501
0.19152972 -3.0902638 1.6328715
0.18348558 -3.0870807 1.6231766
0.18845065 -3.0841312 1.6240437
0.20494597 -3.0927737 1.6339869
0.19713572 -3.0891607 1.6331118
0.21355428 -3.0824556 1.6312199
0.2014326 -3.0853209 1.620591
0.20456013 -3.0819767 1.6381913
0.2235952 -3.0849082 1.622839
0.22457528 -3.0977216 1.633319
0.2349861 -3.0988927 1.625211
0.233018 -3.0924332 1.6200415
0.24135454 -3.0853331 1.6375711
0.23055774 -3.0860622 1.6262014
0.24970369 -3.0789256 1.638182
0.24797414 -3.0796943 1.6365989
0.2443521 -3.0969076 1.6318758
0.25010073 -3.0953164 1.6302161
0.25344929 -3.0790126 1.625338
0.26144499 -3.0860507 1.6273533
0.25992021 -3.0869999 1.6278987
0.27028689 -3.0942383 1.6345986
0.27548358 -3.077461 1.6280875
0.27820927 -3.0758009 1.6205301
0.28956482 -3.0793149 1.6197863
0.29290038 -3.0888779 1.6379447
0.29465231 -3.0863819 1.6385546
0.29168057 -3.0824559 1.6204144
0.30704859 -3.0794992 1.6382307
0.31753781 -3.0728645 1.6286553
0.31004193 -3.0920718 1.6377716
0.32309076 -3.0852289 1.619284
0.32283896 -3.0775054 1.6372023
0.31607538 -3.0713718 1.6364032
0.32175386 -3.0781975 1.6317066
0.32668784 -3.0860023 1.6370575
0.32977968 -3.076369 1.624509
0.33348069 -3.0740209 1.6354848
0.33904085 -3.0806174 1.6290096
0.34241661 -3.081037 1.6287553
0.3562164 -3.0732644 1.6288742
0.35913181 -3.0767539 1.6354103
0.36355895 -3.0848055 1.6292381
0.36590365 -3.0839307 1.6287618
0.36744851 -3.0816865 1.6210159
0.38429609 -3.0788171 1.6250154
0.38649395 -3.0771639 1.6381924
0.37614247 -3.076117 1.6332556
0.3967661 -3.0738165 1.6212543
0.39091378 -3.0724466 1.6283594
0.40480646 -3.0815821 1.6227574
0.39881727 -3.0721068 1.63318
0.39936337 -3.0625086 1.6350589
0.41373649 -3.0748689 1.6373147
0.40763256 -3.0699871 1.6213106
0.41378191 -3.0725596 1.6276659
0.42392999 -3.0772355 1.6351583
0.4272542 -3.0765634 1.6231757
0.42564085 -3.0595675 1.6329654
0.43202537 -3.0727227 1.6235911
0.44551417 -3.0762837 1.6245412
0.45340011 -3.0701313 1.6344204
0.45170778 -3.0677295 1.6333457
0.45189351 -3.0552506 1.6193526
0.45433417 -3.0731711 1.6296772
0.4607698 -3.0692363 1.6368592
0.47355986 -3.0594473 1.6387892
0.47384152 -3.0706267 1.6208092
0.48213965 -3.0677116 1.6192371
0.48022658 -3.0627029 1.6239154
0.48893827 -3.068496 1.6244328
0.49859914 -3.0506926 1.6304965
0.49813825 -3.0588701 1.6383497
0.49660173 -3.0511496 1.6380635
0.50107116 -3.0652754 1.6192331
0.51586419 -3.0572517 1.6237072
0.5178383 -3.0607231 1.6373342
0.52174133 -3.048197 1.6391397
0.52766347 -3.051656 1.6232123
0.53201246 -3.0613108 1.6316395
0.52103883 -3.0465355 1.6336135
0.53058165 -3.0463798 1.632725
0.54618704 -3.0509646 1.622987
0.54964459 -3.0413649 1.6202914
0.55281502 -3.0515733 1.622786
0.55715388 -3.0512657 1.6326145
0.54596579 -3.0532598 1.6382756
0.54840368 -3.0556257 1.6357609
0.55264604 -3.0563436 1.6290791
0.56095994 -3.0369854 1.6320287
0.57769984 -3.0528724 1.6290338
0.5764128 -3.0434878 1.6254689
0.57423609 -3.0427678 1.6365871
0.58232021 -3.0428591 1.6365676
0.5877077 -3.0440476 1.6255957
0.59558862 -3.0451643 1.6341819
0.59329683 -3.0417347 1.6200182
0.59666508 -3.0401318 1.6227269
0.59751743 -3.0385504 1.6239504
0.61168683 -3.0329175 1.6237584
0.6088047 -3.0348063 1.6268998
0.62292653 -3.0422425 1.6386404
0.61348218 -3.0361147 1.6303097
0.63515496 -3.0261607 1.6210903
0.63680696 -3.0350766 1.6298789
0.62748593 -3.0403674 1.6367418
0.64674979 -3.0322049 1.6262189
0.65184879 -3.0249276 1.6364777
0.63965529 -3.0210505 1.627491
0.64868397 -3.0272555 1.6233039
0.65751952 -3.0205927 1.6363891
0.66949517 -3.0240571 1.6211933
0.67321008 -3.0212138 1.6312743
0.66859299 -3.0209444 1.6304524
0.67475522 -3.0232682 1.6198518
0.66970485 -3.0191574 1.6230917
0.671516 -3.020026 1.6336197
0.68280303 -3.0200369 1.6305443
0.68434757 -3.0164824 1.6304594
0.69690394 -3.0281382 1.6232772
0.7052719 -3.0151966 1.6218593
0.70672381 -3.0145164 1.6360728
0.71297848 -3.0143566 1.6322193
0.70931286 -3.0230482 1.6277193
0.70482385 -3.0098107 1.6199733
0.70973295 -3.0058551 1.6354101
0.71788061 -3.004319 1.6290447
0.73655486 -3.0157249 1.6217283
0.73215228 -3.009814 1.6370211
0.7276634 -3.0155733 1.6197062
0.73599094 -3.0171897 1.6343753
0.74289918 -3.0015779 1.6287615
0.74401945 -3.0039341 1.6223381
0.76128477 -3.0141768 1.6262476
0.75404865 -3.0131285 1.6224138
0.75906503 -3.0113895 1.6215483
0.75951678 -3.0057197 1.6212262
0.77360165 -3.0055912 1.6284993
0.78036869 -2.9940794 1.6206785
0.78242689 -2.9912694 1.626088
0.7871688 -3.0043433 1.6288645
0.78657836 -2.9947188 1.6262302
0.80037254 -2.9881825 1.6202117
0.78774172 -2.9885883 1.6229161
0.79901904 -3.0004356 1.6256288
0.80646092 -2.9914708 1.6290349
0.81303579 -2.9862571 1.637059
0.81928694 -2.9911597 1.6241539
0.81280971 -2.993495 1.6216968
1.0090955 -3.7037437 1.2960786
1.0211891 -3.687407 1.301213
1.0160571 -3.6958549 1.2948909
1.028289 -3.6947012 1.3140178
1.0345002 -3.6903689 1.3116462
1.043414 -3.6789489 1.2963287
1.0350385 -3.6842747 1.3088712
1.0500669 -3.687212 1.3055171
1.0531175 -3.6880829 1.2961441
1.0632608 -3.6796141 1.3033137
1.0709451 -3.6896265 1.30488
1.057911 -3.6727107 1.3013821
1.0700094 -3.6860902 1.3080283
1.0757835 -3.672399 1.2944134
1.0806824 -3.6776562 1.3037084
1.0832077 -3.6791568 1.302994
1.0904133 -3.6741884 1.2955171
1.0901593 -3.6793447 1.303659
1.1065491 -3.6666019 1.3094789
1.1135639 -3.6688652 1.3023092
1.1077461 -3.6685913 1.3036615
1.1234924 -3.666497 1.300457
1.1157385 -3.6574473 1.3023931
1.1346289 -3.6677647 1.296533
1.1399021 -3.6583221 1.3039218
1.1344682 -3.6514912 1.3083084
1.1483177 -3.6625896 1.2961549
1.154688 -3.6590745 1.2973291
1.1491978 -3.6443005 1.309723
1.1695254 -3.64764 1.2983235
1.162681 -3.6419239 1.3056606
1.1771867 -3.6455855 1.3135476
1.1684856 -3.642123 1.3089327
1.1817183 -3.6448901 1.3124415
1.1890888 -3.6475017 1.3038268
1.1838458 -3.6406627 1.30047
1.202987 -3.6450872 1.3044345
1.2099723 -3.648253 1.3103266
1.1981295 -3.6420176 1.3093981
1.2186784 -3.6405613 1.3035283
1.2078254 -3.6310537 1.3017658
1.2243072 -3.6321428 1.2947257
1.2286736 -3.6270328 1.3095249
1.2284226 -3.6337876 1.2999266
1.2316781 -3.6182673 1.3060796
1.2463167 -3.6330831 1.2974272
1.2375958 -3.6138487 1.3026984
1.2528372 -3.6127174 1.3031452
1.2539681 -3.6285148 1.3081615
1.2541683 -3.6088474 1.3129611
1.268496 -3.6251144 1.3055881
1.2810589 -3.6099787 1.295439
1.2865793 -3.6155536 1.3087057
1.2868963 -3.6064537 1.3135163
1.2776127 -3.6191702 1.3121386
1.2944796 -3.602318 1.3142292
1.3026916 -3.5992539 1.3138319
1.2961721 -3.6060133 1.3128363
1.310097 -3.5967042 1.2943062
1.3090355 -3.5922549 1.3136997
1.3127712 -3.5985355 1.2950752
1.3291314 -3.5973082 1.3098284
1.3353399 -3.5956132 1.2972418
1.3348126 -3.5986514 1.3119829
1.3390932 -3.5960212 1.3122282
1.3419936 -3.581569 1.3075393
1.346982 -3.5839477 1.3041214
1.3515706 -3.5778861 1.3121436
1.3551608 -3.5829375 1.3076676
1.3602183 -3.5740855 1.3058263
1.3646667 -3.5865302 1.2958831
1.370488 -3.5876451 1.3053386
1.3710598 -3.567579 1.2946534
1.3790423 -3.573065 1.2990874
1.3817632 -3.5792933 1.3043022
1.3847268 -3.5676408 1.3021126
1.4029988 -3.5760169 1.2956804
1.3978502 -3.5648193 1.3134391
1.400721 -3.5550437 1.304269
1.419113 -3.5652196 1.3020662
1.4156612 -3.5559542 1.3055267
1.4222634 -3.5658715 1.3059739
1.4183183 -3.5602186 1.3045814
1.4236853 -3.5515819 1.2957902
1.4334835 -3.5452206 1.2988513
1.4484937 -3.540889 1.3116382
1.4413115 -3.5432763 1.3141152
1.4476943 -3.5558004 1.3058492
1.451833 -3.5504389 1.3054115
1.4667987 -3.5516682 1.312843
1.4595588 -3.5413289 1.3075786
1.4757767 -3.5293648 1.3104284
1.4724388 -3.5463204 1.2969558
1.4877057 -3.5428805 1.3101374
1.4941784 -3.5346112 1.3076911
1.4837093 -3.536298 1.30758
1.5060242 -3.5301301 1.3030784
1.5108132 -3.5225403 1.3040427
1.5073334 -3.5157692 1.3083513
1.5034128 -3.5189877 1.3094068
1.5069211 -3.5143979 1.2987704
1.5251617 -3.5185394 1.2980604
1.5262494 -3.5109653 1.2983501
1.5338614 -3.513068 1.300028
1.5346521 -3.5136385 1.3079164
1.5329936 -3.5096159 1.3120526
1.5512209 -3.5082133 1.3002843
1.5449437 -3.5069537 1.3140265
1.5596278 -3.4941032 1.3124535
1.5586174 -3.5100994 1.3055692
1.5586594 -3.5075107 1.3011746
1.5680622 -3.4916017 1.3105316
1.5767517 -3.4995222 1.305349
1.5857279 -3.4847455 1.2959433
1.5763791 -3.4940894 1.3038394
1.5949154 -3.4900005 1.3136238
1.5975851 -3.4925897 1.3026695
1.6084832 -3.4863586 1.3108268
1.6131204 -3.4903433 1.3096797
1.6161815 -3.4802346 1.3103747
1.6123552 -3.4749777 1.3114899
1.6241312 -3.4652083 1.3063387
1.6252612 -3.471637 1.3110844
1.6212053 -3.4739738 1.3084179
1.6277405 -3.4705408 1.3142116
1.6421688 -3.4734499 1.3018916
1.6463782 -3.4585645 1.3047726
1.6396301 -3.457653 1.3116683
1.6610361 -3.4569736 1.3123561
1.6612918 -3.4580989 1.3009226
1.6622394 -3.4479134 1.3125093
1.664299 -3.4508114 1.3116217
1.681204 -3.4574361 1.3020551
1.6828516 -3.45297 1.3078946
1.6818295 -3.4468191 1.2949029
1.6865977 -3.451087 1.2967315
1.6990426 -3.4359896 1.311168
1.6943653 -3.4324808 1.3042314
1.6965803 -3.4324038 1.2956834
1.6994799 -3.4369051 1.3037122
1.7109426 -3.4252901 1.2996222
1.7139888 -3.4364436 1.3103226
1.7161441 -3.4355168 1.3120804
1.7287295 -3.4177639 1.2959791
1.7271509 -3.4258513 1.3036975
1.7325773 -3.4139855 1.3048095
1.7398289 -3.4144866 1.298674
1.7415137 -3.4044733 1.3136954
1.7562586 -3.4170504 1.3064356
1.762452 -3.4115295 1.3123091
1.7566708 -3.3993444 1.3074257
1.7667962 -3.4089084 1.3090103
1.7676187 -3.4011092 1.3091364
1.7701954 -3.4055133 1.3046234
1.7766675 -3.396281 1.3096242
1.7908543 -3.3864043 1.3040855
1.7861497 -3.3940544 1.2956337
1.7953063 -3.384795 1.2947763
1.7994808 -3.3855627 1.2989167
1.796392 -3.3849051 1.3061458
1.7991732 -3.3747938 1.3031211
1.8170675 -3.3793187 1.308087
1.8165429 -3.3677795 1.2984
1.8161407 -3.3784184 1.3018504
1.8312221 -3.3673365 1.3120677
1.8313007 -3.3668156 1.3096898
1.8258371 -3.3757436 1.2971829
1.8319182 -3.3602564 1.3114502
1.8371383 -3.3653321 1.302458
1.8464953 -3.3582306 1.3116248
1.8630776 -3.3530784 1.3083977
1.8566318 -3.3547592 1.2981339
-2.1423368 -3.1893933 1.3326206
-2.1434283 -3.18132 1.3396883
-2.135103 -3.19208 1.3365966
-2.1344957 -3.188309 1.3250161
-2.1275992 -3.1996269 1.3237936
-2.1082177 -3.2086899 1.340814
-2.1034012 -3.2094388 1.3315814
-2.1058259 -3.2025523 1.3398414
-2.1024652 -3.215991 1.3272563
-2.0903461 -3.2093999 1.3348076
-2.0924275 -3.2056365 1.3402766
-2.0976627 -3.227421 1.3368162
-2.0758259 -3.2253411 1.325587
-2.0770769 -3.2271187 1.3411139
-2.0699043 -3.2264688 1.3283015
-2.0639503 -3.2309108 1.3293988
-2.0609717 -3.2350132 1.332713
-2.0672216 -3.2260222 1.3258739
-2.0652075 -3.2381558 1.3285496
-2.0557745 -3.2426603 1.3407639
-2.0587862 -3.2337396 1.3396829
-2.036325 -3.2545524 1.339752
-2.0373199 -3.2580302 1.3248296
-2.0295401 -3.2472651 1.3310518
-2.0262294 -3.2538376 1.3408397
-2.035727 -3.25897 1.3290955
-2.0241237 -3.2656422 1.3361518
-2.0092018 -3.2630868 1.3350964
-2.0211153 -3.2630434 1.3247979
-2.0103493 -3.2780976 1.3328793
-2.0073647 -3.2806976 1.3327594
-2.0054574 -3.2653749 1.3346984
-2.0034771 -3.2755892 1.336025
-1.9964154 -3.2825704 1.3309755
-1.9831275 -3.290791 1.3422061
-1.9800477 -3.2930639 1.3311505
-1.9687083 -3.2882915 1.3362627
-1.9703085 -3.2931595 1.3267637
-1.9729606 -3.2945073 1.3401352
-1.9659072 -3.289659 1.3412732
-1.9507685 -3.3064003 1.3226255
-1.9557459 -3.3058124 1.3421085
-1.9387804 -3.307826 1.3341784
-1.9404846 -3.3073637 1.3420626
-1.9472345 -3.3182032 1.3245146
-1.9427499 -3.3105564 1.3274761
-1.9293171 -3.3161678 1.337986
-1.9307685 -3.3279808 1.3263972
-1.9217149 -3.3270507 1.3362235
-1.9192863 -3.3236763 1.3336546
-1.9157157 -3.3297763 1.3370944
-1.9107893 -3.3254702 1.3238659
-1.906376 -3.3288193 1.3313609
-1.889889 -3.3384967 1.3420489
-1.8855141 -3.3395522 1.3246218
-1.8786837 -3.340755 1.3375591
-1.8888879 -3.3331606 1.3275964
-1.8685786 -3.3516572 1.3285258
-1.8798544 -3.3457434 1.3330833
-1.8613002 -3.3420482 1.3237069
-1.8653113 -3.3594329 1.330916
-1.8658788 -3.3565457 1.32511
-1.8596714 -3.3539033 1.3386272
-1.8459651 -3.359436 1.3251328
-1.8415674 -3.3652596 1.3332422
-1.8345932 -3.368922 1.3228015
-1.8346779 -3.3674617 1.3226013
-1.8247217 -3.3703687 1.3265443
-1.8338327 -3.3692322 1.3390341
-1.8183826 -3.3742254 1.337846
-1.8123052 -3.3879173 1.3418931
-1.8190151 -3.3868682 1.3314409
-1.8115276 -3.3843067 1.3262379
-1.8105192 -3.3927376 1.3381027
-1.8030018 -3.3814731 1.3267376
-1.7873715 -3.3879402 1.3342974
-1.7821783 -3.3992014 1.3258981
-1.7771819 -3.4052196 1.3371657
-1.7882389 -3.4050655 1.3321375
-1.7668027 -3.3941815 1.3246769
-1.766551 -3.4019439 1.3260785
-1.7622488 -3.4011438 1.3310769
-1.7683953 -3.4175868 1.3411778
-1.7597413 -3.4177561 1.3253822
-1.7592192 -3.4151459 1.3233789
-1.7500587 -3.4216466 1.3374299
-1.7333349 -3.4276993 1.3227339
-1.7450072 -3.4135044 1.3245276
-1.7254082 -3.4151182 1.3289768
-1.7308342 -3.4200511 1.3268045
-1.7237175 -3.4294915 1.3393577
-1.7151957 -3.4393923 1.3351926
-1.7216722 -3.4402051 1.3370588
-1.6980443 -3.4371336 1.3412237
-1.7102088 -3.4383125 1.3304603
-1.7043731 -3.435107 1.3356506
-1.6844833 -3.4399576 1.337236
-1.679286 -3.4412634 1.3354579
-1.6922916 -3.4477565 1.3345006
-1.6808449 -3.4444656 1.3310379
-1.6715672 -3.4588511 1.340556
-1.6697329 -3.4495115 1.3225881
-1.6720606 -3.451448 1.3262148
-1.6525187 -3.4545603 1.3353143
-1.6488086 -3.4546432 1.3256292
-1.6558588 -3.4737008 1.341537
-1.6377152 -3.4576817 1.3349752
-1.6379832 -3.4612818 1.3294818
-1.640026 -3.4627075 1.3398626
-1.6230229 -3.4775097 1.3358949
-1.6294794 -3.4678607 1.3398956
-1.6264145 -3.4812071 1.3355833
-1.6213144 -3.4817142 1.3316748
-1.6125844 -3.4875157 1.3269877
-1.6147517 -3.4944468 1.3245445
-1.6066011 -3.4932706 1.3253639
-1.6025394 -3.4987969 1.3245157
-1.5850364 -3.4894404 1.322374
-1.5930237 -3.4869792 1.3411063
-1.5906271 -3.4923706 1.3273294
-1.5721951 -3.4890771 1.3254877
-1.5697592 -3.507581 1.332579
-1.5716327 -3.5058498 1.3414359
-1.5574116 -3.500257 1.3267571
-1.5478743 -3.501703 1.3274062
-1.5607774 -3.4998729 1.3314837
-1.552858 -3.5188591 1.3322802
-1.5457838 -3.505223 1.3246717
-1.5408481 -3.5244584 1.3417562
-1.5371773 -3.5261843 1.3356743
-1.5272803 -3.5143683 1.3351038
-1.519222 -3.5250099 1.3382406
-1.5240694 -3.5224214 1.3253132
-1.520057 -3.5305111 1.340176
-1.5107205 -3.5339661 1.3357835
-1.5007318 -3.5352299 1.3354048
-1.5066626 -3.5334828 1.3382169
-1.4917941 -3.529573 1.3368351
-1.4845312 -3.5456424 1.3383813
-1.4801806 -3.5429585 1.3403579
-1.4819093 -3.5352983 1.3362999
-1.4642056 -3.5445037 1.3237429
-1.463362 -3.543483 1.3359101
-1.455443 -3.5433795 1.3421164
-1.4526584 -3.558872 1.3269895
-1.4542633 -3.5493114 1.332714
-1.4562442 -3.5506203 1.3422936
-1.4354101 -3.5620019 1.3378842
-1.4359549 -3.551065 1.3394997
-1.4349507 -3.5607247 1.3258865
-1.4319671 -3.5570633 1.3420138
-1.4130388 -3.5606513 1.3310094
-1.4266647 -3.5683517 1.3230922
-1.4081206 -3.573092 1.3373383
-1.4033674 -3.5600092 1.3381445
-1.3937383 -3.5734959 1.3305571
-1.3983819 -3.573931 1.3236998
-1.3934432 -3.5785022 1.3274927
-1.3929112 -3.5685911 1.3242475
-1.390761 -3.5826519 1.3333606
-1.3822212 -3.5787079 1.328146
-1.3775516 -3.580817 1.3413475
-1.3638835 -3.5815361 1.3288459
-1.3581299 -3.5886984 1.3335941
-1.3581276 -3.5960972 1.3334082
-1.3573164 -3.5988593 1.3417119
-1.3440899 -3.5912607 1.3315495
-1.3377181 -3.6037214 1.3387784
-1.3475507 -3.6006508 1.3378733
-1.340626 -3.6004336 1.3248558
-1.1335051 -3.0808825 1.5773865
-1.123397 -3.0772047 1.5700796
-1.1200851 -3.0848715 1.5639806
-1.1292727 -3.0918 1.5726396
-1.1137098 -3.0837443 1.5758131
-1.1183306 -3.0998979 1.5781304
-1.1146456 -3.0878484 1.5699456
-1.1011206 -3.0944531 1.5711923
-1.1003647 -3.0959191 1.5773946
-1.1005117 -3.0954916 1.5656923
-1.0936739 -3.1040573 1.5796118
-1.0939661 -3.1068311 1.5788069
-1.0815634 -3.1106114 1.5719268
-1.0752573 -3.1078997 1.5797039
-1.0802902 -3.1139479 1.5771164
-1.0621474 -3.1089418 1.5799488
-1.0616852 -3.1045775 1.576398
-1.0694057 -3.1110179 1.5678041
-1.0558774 -3.1210339 1.5792997
-1.0561447 -3.1155303 1.572772
-1.0481123 -3.1075246 1.579222
-1.0461583 -3.1241493 1.5644354
-1.0450072 -3.1127112 1.5673996
-1.0307341 -3.1193094 1.5746007
-1.0286818 -3.1152847 1.5772725
-1.0292151 -3.1174638 1.5664635
-1.0269139 -3.123529 1.5815254
-1.0281614 -3.1216655 1.5716479
-1.0180008 -3.1306264 1.5732491
-1.0163428 -3.1242096 1.5818425
-1.0012103 -3.1341171 1.5799241
-0.99962592 -3.1264296 1.5628573
-0.99282628 -3.141952 1.5786989
-0.9830603 -3.1275644 1.5694066
-0.98609138 -3.1354895 1.5655973
-0.98644859 -3.128315 1.5810609
-0.97761291 -3.1432085 1.571905
-0.9737134 -3.1437206 1.5660526
-0.97968954 -3.1384454 1.5726727
-0.96406251 -3.1358871 1.5671374
-0.95984012 -3.1425736 1.5731159
-0.95753437 -3.1520548 1.5681974
-0.95229346 -3.1391175 1.5691657
-0.95120907 -3.1407971 1.5659248
-0.93941504 -3.1498928 1.5761558
-0.93142855 -3.1437328 1.574952
-0.92797661 -3.153126 1.5802394
-0.93367863 -3.1630104 1.5663934
-0.92523134 -3.1632636 1.5791949
-0.93016207 -3.1522844 1.5759209
-0.92062628 -3.1614795 1.5673206
-0.90511012 -3.1527669 1.5705931
-0.91451067 -3.1632142 1.5681508
-0.90294117 -3.1569788 1.5653703
-0.89461082 -3.1633537 1.5748297
-0.89604777 -3.1661479 1.5717784
-0.89868665 -3.169898 1.5806572
-0.89603627 -3.1637597 1.5809687
-0.8376537 -2.9970632 1.6422255
-0.8362909 -2.9961641 1.6558784
-0.81820047 -2.9901443 1.6616349
-0.82870871 -2.9930258 1.6573961
-0.81594294 -2.9897268 1.6439965
-0.80561787 -2.999279 1.6581119
-0.79807156 -3.0049236 1.6471263
-0.80106431 -2.9964294 1.6546142
-0.80710673 -2.9950001 1.6596134
-0.80426878 -2.9953485 1.6520061
-0.78111774 -3.0113204 1.6558222
-0.79659599 -3.0101144 1.6617113
-0.77841973 -2.9950047 1.654788
-0.77448547 -3.014591 1.6461453
-0.7747885 -3.0056014 1.641958
-0.76848972 -3.010478 1.6493688
-0.76807392 -3.012001 1.6522795
-0.7586422 -3.0007117 1.6448231
-0.76172113 -3.0196607 1.6599287
-0.75979936 -3.0199695 1.655813
-0.74548328 -3.0213263 1.6568463
-0.74734974 -3.0223622 1.6602007
-0.74332559 -3.0094244 1.6597744
-0.72622329 -3.0167561 1.6608652
-0.73776215 -3.0085964 1.6520431
-0.73348689 -3.0183446 1.6594361
-0.72179949 -3.0118856 1.6463917
-0.72719997 -3.020205 1.6457168
-0.72005534 -3.0158148 1.6471667
-0.71780372 -3.0137155 1.6493762
-0.6996665 -3.0215149 1.6512909
-0.70049453 -3.0153966 1.653226
-0.69796669 -3.0294716 1.6491495
-0.69586378 -3.030663 1.6587858
-0.69266874 -3.0276136 1.6576205
-0.67829442 -3.0245109 1.6477398
-0.67652571 -3.0339439 1.6453447
-0.66780001 -3.0330021 1.6556513
-0.679748 -3.0291417 1.6513634
-0.67024463 -3.027257 1.6501836
-0.65853053 -3.0314641 1.6422077
-0.66490036 -3.0407293 1.6613475
-0.64933383 -3.0316985 1.6474037
-0.65784252 -3.0447977 1.6532538
-0.65671366 -3.0389364 1.6431328
-0.63674873 -3.0429363 1.6570882
-0.64666337 -3.0294049 1.6425782
-0.63897169 -3.0313859 1.649972
-0.62097216 -3.0495551 1.6421819
-0.62725937 -3.0424616 1.6572264
-0.61472505 -3.0478966 1.6490079
-0.61016542 -3.0439453 1.6524622
-0.6064648 -3.0486724 1.6458795
-0.61670679 -3.0461547 1.6471237
-0.6010974 -3.0467556 1.6551496
-0.59560788 -3.0516405 1.6600897
-0.59616184 -3.0506904 1.6594697
-0.59122449 -3.0462999 1.6577711
-0.57889229 -3.0481627 1.6588
-0.57434893 -3.0405667 1.6478126
-0.5747599 -3.0446913 1.6522748
-0.58338821 -3.0485129 1.6615671
-0.56856108 -3.0528915 1.647005
-0.56031561 -3.0517709 1.6558272
-0.57082474 -3.0593011 1.6449094
-0.55330694 -3.0456028 1.6499614
-0.55084783 -3.056721 1.6568123
-0.54900759 -3.0471656 1.6488967
-0.54886496 -3.0495427 1.6599553
-0.54769242 -3.0516424 1.6594409
-0.53750604 -3.0584202 1.6556268
-0.52285635 -3.0580945 1.64881
-0.51891345 -3.0672112 1.658428
-0.52953166 -3.0523527 1.6499734
-0.51132649 -3.0522752 1.6547899
-0.52403826 -3.0589523 1.6540998
-0.51169699 -3.0674446 1.6430806
-0.51250368 -3.0583715 1.6424001
-0.50122499 -3.0734317 1.6601198
-0.49888673 -3.0715966 1.6565109
-0.49706185 -3.0638533 1.6468896
-0.47905013 -3.0657394 1.6583532
-0.48785412 -3.0679631 1.6614536
-0.48703933 -3.0650861 1.6601596
-0.47467804 -3.0682867 1.6596847
-0.47749931 -3.0684824 1.6532676
-0.46100977 -3.060621 1.6590878
-0.45553848 -3.077852 1.6547045
-0.4507468 -3.0680907 1.6559782
-0.44823456 -3.0802786 1.6597985
-0.44933024 -3.0749302 1.6520675
-0.44004637 -3.0758593 1.6431497
-0.43929794 -3.0698831 1.6527016
-0.43544832 -3.0673833 1.6458178
-0.43289176 -3.0768144 1.6564149
-0.43080935 -3.0733602 1.6474916
-0.4151431 -3.0777106 1.647099
-0.41365585 -3.0808849 1.6501389
-0.41655111 -3.0835636 1.6435974
-0.41817176 -3.0880268 1.6455193
-0.41597128 -3.0778837 1.653435
-0.40150097 -3.0827556 1.6610608
-0.39594766 -3.0711784 1.6552963
-0.40084165 -3.0800524 1.6526591
-0.39261869 -3.0906711 1.6612118
-0.3937979 -3.0835097 1.6538341
-0.38389954 -3.0849853 1.6427153
-0.37439299 -3.0892773 1.6490256
-0.38184589 -3.0807695 1.6532543
-0.37583953 -3.0781882 1.6536109
-0.36791053 -3.0777125 1.644696
-0.35206509 -3.087074 1.6514884
-0.34859309 -3.0951903 1.6504309
-0.3508848 -3.0925093 1.6610667
-0.35581312 -3.0859151 1.6616448
-0.35218799 -3.0848103 1.6499394
-0.33593985 -3.0781186 1.6573075
-0.33080986 -3.0862322 1.6609266
-0.31936902 -3.0861113 1.6535903
-0.32369873 -3.0842977 1.6493665
-0.32767108 -3.0988691 1.6461431
-0.32055777 -3.0819101 1.6540772
-0.30665147 -3.0857947 1.654408
-0.313802 -3.0962873 1.6579266
-0.31031618 -3.0960252 1.6485401
-0.30625162 -3.0964558 1.6607533
-0.29389185 -3.0849569 1.6601468
-0.29416332 -3.0926468 1.6519095
-0.29081523 -3.0932157 1.6442696
-0.27480277 -3.1024349 1.658914
-0.28301358 -3.0999475 1.6594515
-0.2744472 -3.0946684 1.6574066
-0.27794617 -3.0998054 1.6519296
-0.26111385 -3.096416 1.6564064
-0.26076239 -3.0938642 1.6615856
-0.24979678 -3.0915723 1.6467683
-0.24661762 -3.1012454 1.6438786
-0.24404435 -3.0955153 1.6537211
-0.24970794 -3.0907631 1.6434108
-0.24301089 -3.0943251 1.6442916
-0.24166894 -3.090425 1.6480639
-0.219789 -3.1022863 1.6575134
-0.21995352 -3.1019747 1.6422178
-0.2255946 -3.0891597 1.6506976
-0.20675844 -3.1003225 1.6421089
-0.20274268 -3.1048496 1.6561861
-0.21354364 -3.0905278 1.6609582
-0.20723391 -3.0979636 1.6518219
-0.1910813 -3.0953946 1.6477934
-0.18523857 -3.0904603 1.6605526
-0.19851467 -3.1085162 1.6575555
-0.18801804 -3.1090252 1.6430346
-0.18807161 -3.094032 1.6491567
-0.18342039 -3.1090138 1.6484191
-0.17028901 -3.1094935 1.6568382
-0.1657459 -3.110292 1.6610434
-0.16712521 -3.1062267 1.6598777
-0.16373223 -3.1001871 1.651577
-0.14947519 -3.1023307 1.6461407
-0.15924624 -3.102968 1.6459277
-0.15625776 -3.101218 1.6479415
-0.13626613 -3.0933087 1.6497233
-0.13079508 -3.1097903 1.646769
-0.13920169 -3.1059587 1.6490979
-0.12834549 -3.1133339 1.6512059
-0.12906998 -3.1005046 1.6527679
-0.12558898 -3.1133935 1.6586418
-0.12327356 -3.1072288 1.6507959
-0.10925847 -3.1111465 1.6610407
-0.10067948 -3.1091752 1.6508765
-0.11231329 -3.1085558 1.6426846
-0.10193304 -3.1122854 1.6426182
-0.089770831 -3.1148846 1.6462804
-0.080562636 -3.1102316 1.6539782
-0.089025326 -3.0990639 1.6544991
-0.075379901 -3.1129622 1.648041
-0.0801723 -3.1077216 1.64888
-0.079090588 -3.1045079 1.6560636
-0.065854646 -3.1116214 1.6595031
-0.062373765 -3.1144986 1.6450815
-0.069056876 -3.1133528 1.6514409
-0.063931815 -3.1061697 1.6542264
-0.058872968 -3.1111677 1.654562
-0.050151855 -3.1113009 1.6596941
-0.033732723 -3.1042409 1.656131
-0.036792744 -3.1078794 1.658801
-0.026310649 -3.1006544 1.6468365
-0.034989491 -3.1166918 1.658205
-0.016484702 -3.1038377 1.6425729
-0.014540342 -3.1118476 1.6441705
-0.0070175347 -3.1108851 1.647015
-0.013135244 -3.1091425 1.6571373
-0.016467428 -3.1066864 1.6423502
0.00053606782 -3.099854 1.6475124
0.0026715845 -3.1009476 1.6598114
0.0012441663 -3.1094468 1.6485423
0.0024865924 -3.1118095 1.6445627
0.011764608 -3.1071963 1.644604
0.012411094 -3.1084239 1.6575515
0.017425496 -3.1120532 1.6425353
0.024037465 -3.112505 1.6485218
0.033493847 -3.1034205 1.6562847
0.033072513 -3.1020141 1.6465319
0.037864111 -3.10795 1.6436334
0.047817841 -3.116096 1.6596569
0.050070379 -3.1100156 1.6471909
0.061053798 -3.1070387 1.652366
0.048057575 -3.0991299 1.642152
0.055102527 -3.1149201 1.6507015
0.075094864 -3.1100421 1.6556075
0.080070995 -3.1028981 1.6600409
0.071033388 -3.1106434 1.6535319
0.069758601 -3.1031559 1.6483967
0.078730941 -3.1152225 1.6572868
0.084804595 -3.101681 1.6579856
0.086901575 -3.1102326 1.6447138
0.096532427 -3.1121464 1.6543617
0.091338269 -3.1114018 1.6518556
0.095929764 -3.1079578 1.6534896
0.10907067 -3.1088667 1.6599264
0.10711735 -3.1091444 1.6534259
0.10959717 -3.1028051 1.6590927
0.1255679 -3.1020854 1.6521534
0.1364032 -3.0967381 1.6530479
0.13612834 -3.1096618 1.6473781
0.13655204 -3.1048329 1.6530448
0.14370368 -3.0947175 1.6566799
0.14050306 -3.0941405 1.6609355
0.15479594 -3.1133161 1.6485052
0.15072265 -3.1036947 1.65503
0.15308587 -3.1003699 1.6611347
0.16894834 -3.0989089 1.6534307
0.17047726 -3.1058202 1.6462921
0.16506658 -3.1062393 1.6443404
0.18055007 -3.1112759 1.6492985
0.17036341 -3.1002314 1.6589129
0.18584317 -3.1063776 1.6584641
0.18495765 -3.1000664 1.6584074
0.18832743 -3.1038041 1.6589847
0.19926657 -3.0959563 1.6489866
0.19673012 -3.1100869 1.6421103
0.20029803 -3.0926957 1.6564862
0.21616149 -3.0981162 1.6437356
0.20488596 -3.0932877 1.6503448
0.21165833 -3.0973158 1.6516904
0.22338843 -3.0958703 1.643847
0.22473253 -3.1032844 1.6496183
0.2256273 -3.0959227 1.6614555
0.22646509 -3.0895302 1.6493037
0.24787959 -3.0965369 1.6447419
0.23929562 -3.0904179 1.6457862
0.2438349 -3.1050687 1.6439519
0.26274955 -3.0881932 1.6564214
0.24891318 -3.1069298 1.6534377
0.26168561 -3.1032307 1.6461381
0.275803 -3.0921373 1.6599902
0.26207656 -3.1040356 1.6461283
0.27412096 -3.0993743 1.6593219
0.27800199 -3.0982099 1.658596
0.28973064 -3.0999653 1.6505454
0.29689693 -3.0946386 1.6482894
0.28510699 -3.0891061 1.6510527
0.2914823 -3.0889916 1.6503551
0.31032658 -3.0870461 1.6505784
0.30618656 -3.0966601 1.6541524
0.31474635 -3.0964882 1.6484653
0.31715766 -3.0943739 1.6505194
0.32570651 -3.0845456 1.6568681
0.32744837 -3.0951662 1.6440088
0.32846367 -3.0983877 1.6490152
0.32142773 -3.0987716 1.6589637
0.33213526 -3.095274 1.6540539
0.34560537 -3.0897288 1.6488618
0.33837724 -3.0896668 1.6452123
0.35137177 -3.0980713 1.6515397
0.34793967 -3.0822423 1.657624
0.35881975 -3.0883274 1.6454017
0.35175321 -3.0901887 1.6425805
0.37103477 -3.0946326 1.6487057
0.37745622 -3.0823848 1.6511703
0.36888346 -3.081496 1.6528054
0.37025845 -3.0942223 1.6574872
0.38672304 -3.0778005 1.6472565
0.37799475 -3.0929279 1.6566247
0.38561615 -3.0793812 1.6571189
0.39956424 -3.0735867 1.6529667
0.39959592 -3.0812314 1.6422479
0.40740448 -3.0802612 1.6491803
0.41239116 -3.0843275 1.6511753
0.40350223 -3.0862892 1.6449186
0.417077 -3.0811405 1.6590447
0.41228625 -3.0789323 1.6599331
0.43217632 -3.0845747 1.6567258
0.42183501 -3.0832598 1.6578672
0.44086105 -3.0786371 1.6520253
0.44038048 -3.0843792 1.6514424
0.43574688 -3.0744019 1.6426729
0.4403936 -3.0809271 1.6543257
0.45197186 -3.0667765 1.6613585
0.46554425 -3.0658245 1.6458696
0.45285901 -3.0756066 1.6549635
0.47429916 -3.0744879 1.6456937
0.47662678 -3.0777867 1.6502033
0.47574607 -3.0757332 1.6554439
0.47600591 -3.0789595 1.6447171
0.49042308 -3.0669713 1.6476523
0.4842563 -3.063921 1.6599629
0.48931906 -3.0605273 1.6451399
0.48603374 -3.0698578 1.6438538
0.48978031 -3.0699174 1.6428994
0.49803695 -3.066963 1.6515367
0.51538658 -3.0668683 1.6606605
0.50346535 -3.0687449 1.6458477
0.51605284 -3.0558004 1.652444
0.5138799 -3.0668931 1.655164
0.52097929 -3.0678649 1.6492157
0.53101277 -3.059299 1.6456558
0.53335577 -3.0699646 1.6448213
0.5408749 -3.0682089 1.6539822
0.54710674 -3.0669994 1.6424032
0.55238324 -3.0618248 1.6530926
0.54629594 -3.063591 1.6431844
0.54933149 -3.0615683 1.6507014
0.55755305 -3.0512464 1.6504587
0.57236999 -3.0673854 1.6584132
0.5699057 -3.0607119 1.6446795
0.58149213 -3.0482903 1.6587898
0.56951743 -3.0578105 1.6615062
0.57670712 -3.0640953 1.6452441
0.59305668 -3.0484307 1.6494515
0.59782618 -3.0517714 1.6580875
0.59328389 -3.0454798 1.644205
0.59883231 -3.0604322 1.6515872
0.61189651 -3.0514414 1.6485271
0.6047169 -3.0519111 1.648558
0.60549057 -3.0391214 1.6544865
0.61252946 -3.0390205 1.6520544
0.61367738 -3.0551684 1.6593142
0.61754054 -3.0483994 1.6594952
0.62514049 -3.0495529 1.6545409
0.63694656 -3.0502079 1.6454401
0.63738739 -3.0396745 1.6618189
0.6439445 -3.0478613 1.6424274
0.63788271 -3.0472512 1.6512029
0.6487596 -3.0380871 1.6586789
0.659666 -3.0324142 1.6581089
0.65649968 -3.0439665 1.6567981
0.67090005 -3.0386336 1.6584918
0.6725589 -3.0336988 1.6461008
0.67439753 -3.0454245 1.6516966
0.67128056 -3.0296032 1.655772
0.67906141 -3.0375991 1.6495093
0.68321973 -3.0432947 1.6541823
0.6879853 -3.0393074 1.658582
0.70152509 -3.0286973 1.6512564
0.7025395 -3.0314341 1.6487085
0.7029826 -3.0215886 1.653707
0.70211357 -3.0215933 1.6431314
0.70293689 -3.0241885 1.6565772
0.71136767 -3.0291929 1.6573783
0.72539294 -3.0215611 1.6530757
0.72349232 -3.0303936 1.6598462
0.73532766 -3.0193119 1.6599845
0.73183453 -3.0277073 1.6431671
0.73273969 -3.0268044 1.6560111
0.74631792 -3.0291271 1.6451638
0.73734671 -3.0152454 1.6432011
0.75337267 -3.0264704 1.6602671
0.75882149 -3.0211079 1.6537657
0.75771475 -3.0115495 1.6612813
0.75740767 -3.0121992 1.6554446
0.77279651 -3.0189812 1.6597852
0.77495438 -3.0181587 1.6542114
0.77724898 -3.0050583 1.65924
0.78272486 -3.0152805 1.6441636
0.78104317 -3.016151 1.6457506
0.78851259 -3.0102177 1.6601995
0.79401791 -3.0124819 1.642398
0.79658777 -3.0135193 1.6489271
0.79265451 -2.9998841 1.6439773
0.7962355 -3.0107753 1.6573346
0.8139782 -3.0104954 1.6428604
0.81605995 -3.0122738 1.6481537
0.81256622 -2.9959724 1.6454861
0.81409961 -2.9984086 1.6515294
0.82055509 -3.0067379 1.6556293
0.828596 -2.9918084 1.6445838
0.83108425 -2.9955826 1.6501896
0.83576924 -3.000994 1.6536673
0.84698182 -2.9945443 1.6496838
0.85324293 -2.988718 1.653707
0.85285974 -2.9893517 1.656902
0.8580007 -2.992105 1.6572045
1.0475293 -3.6884184 1.333138
1.0562781 -3.7012508 1.3250601
1.071068 -3.6918228 1.3275211
1.0699558 -3.6985474 1.323774
1.0777961 -3.6869755 1.3351096
1.0712401 -3.6949091 1.3398845
1.0881598 -3.6958189 1.329954
1.1010938 -3.6946545 1.3246888
1.0980489 -3.6780589 1.3376231
1.0981969 -3.680506 1.3266317
1.0986451 -3.6767027 1.3240153
1.1145753 -3.6693168 1.3271034
1.1224253 -3.6723046 1.3381494
1.1127342 -3.6815665 1.3409933
1.1192939 -3.6681478 1.3339244
1.137187 -3.6664429 1.3374299
1.1398529 -3.6729739 1.3385267
1.152586 -3.6717241 1.3392816
1.1400517 -3.6586709 1.3351185
1.1604495 -3.6706188 1.3269875
1.1498536 -3.6672657 1.3411319
1.156639 -3.6731274 1.3411272
1.1665103 -3.6562819 1.3365922
1.1674255 -3.6542683 1.3412459
1.1711823 -3.6508336 1.3377616
1.1878678 -3.6546421 1.3344185
1.1880566 -3.6609187 1.3229735
1.1893399 -3.6595943 1.3311998
1.1913757 -3.6559341 1.3308941
1.2092462 -3.6570036 1.3370478
1.2189833 -3.6537943 1.324955
1.2228625 -3.6489227 1.3253934
1.2267345 -3.6393006 1.3410634
1.2260693 -3.633882 1.3371258
1.2300555 -3.649823 1.3349947
1.2305549 -3.6341925 1.3274195
1.247709 -3.6434848 1.3319249
1.2534155 -3.6366036 1.3361049
1.2473459 -3.6327937 1.3422883
1.2609683 -3.6362181 1.325738
1.2607419 -3.6350079 1.3307258
1.2684202 -3.6350188 1.3389068
1.2765347 -3.6362555 1.3350244
1.2803165 -3.6232526 1.334868
1.2801583 -3.631357 1.3370708
1.2778664 -3.6240528 1.3331975
1.2879969 -3.6246827 1.3383176
1.3026303 -3.624692 1.3285981
1.3014413 -3.6158545 1.3409604
1.306433 -3.6184759 1.3281628
1.3148719 -3.6064024 1.334833
1.3082961 -3.611727 1.339743
1.3298987 -3.6140108 1.3416597
1.3276165 -3.6175845 1.3348153
1.3251752 -3.606385 1.3380958
1.3449342 -3.6025441 1.3269027
1.3408172 -3.5936365 1.333295
1.341818 -3.5951571 1.3378856
1.3530964 -3.6029258 1.3295147
1.3567345 -3.5907593 1.3367162
1.3675725 -3.5952077 1.334178
1.3650781 -3.5912833 1.3244951
1.367491 -3.5908051 1.3307008
1.3718178 -3.5976558 1.3314985
1.3892976 -3.5919912 1.3416542
1.3900553 -3.591609 1.3338022
1.3996173 -3.5803823 1.3330022
1.3955687 -3.5731909 1.328819
1.3961082 -3.5797544 1.3349975
1.4082739 -3.5877106 1.331466
1.4076385 -3.5698571 1.3416023
1.4244622 -3.5795233 1.3337722
1.4316002 -3.5717998 1.3245225
1.4249411 -3.5647697 1.3265173
1.439077 -3.5652773 1.3322649
1.4433657 -3.5700424 1.3364758
1.4397997 -3.5702574 1.3299876
1.455431 -3.5595307 1.328758
1.4468762 -3.5532713 1.339025
1.4644971 -3.5598505 1.3393891
1.4585837 -3.5520663 1.3356527
1.4628038 -3.5524571 1.3402892
1.4791909 -3.5507061 1.3306816
1.4863255 -3.5406075 1.3261292
1.4754521 -3.5413632 1.3390874
1.4903233 -3.5428178 1.3252919
1.4894027 -3.5528235 1.3292855
1.5019909 -3.5321801 1.3420032
1.4933466 -3.5450706 1.3389705
1.5149665 -3.5453169 1.3273423
1.5169474 -3.5364501 1.3414745
1.5151891 -3.5283344 1.3331853
1.5180644 -3.5287993 1.3246098
1.5313289 -3.5270951 1.3240886
1.5400382 -3.5212264 1.3407602
1.5417027 -3.5254459 1.3339187
1.5495689 -3.515543 1.3350065
1.5414256 -3.5180054 1.3346654
1.545997 -3.5140629 1.3393548
1.5475328 -3.5134485 1.3417118
1.5574372 -3.5157981 1.3308426
1.5614709 -3.5048482 1.3259896
1.5772123 -3.5159621 1.3385648
1.5843751 -3.4987478 1.3307307
1.5710137 -3.4977572 1.3266447
1.5943209 -3.5000324 1.3362117
1.5907835 -3.4993689 1.3335474
1.5883307 -3.4917731 1.3262794
1.6055338 -3.5045271 1.3408058
1.6074232 -3.5006638 1.3337916
1.6116666 -3.4918115 1.342266
1.6050376 -3.4838376 1.3395215
1.6135525 -3.4850318 1.3234875
1.6146393 -3.4839692 1.3224854
1.6278889 -3.4811714 1.3402847
1.6370494 -3.4799666 1.3336124
1.6357738 -3.4871962 1.3254008
1.6518306 -3.4817727 1.3225751
1.6406162 -3.4840367 1.3247787
1.6439251 -3.4692993 1.3286221
1.6602166 -3.4752035 1.3390876
1.6649792 -3.4726181 1.3352896
1.6669942 -3.4663963 1.3280535
1.6729718 -3.4639633 1.3396291
1.6779443 -3.4531524 1.3317448
1.6807127 -3.4580505 1.322801
1.6968057 -3.4490898 1.3243563
1.6846837 -3.4489353 1.3290571
1.6897327 -3.4448545 1.329209
1.696982 -3.4423213 1.3418065
1.7080715 -3.4483497 1.3262016
1.709623 -3.4344654 1.3308767
1.7073733 -3.443413 1.3394616
1.7178841 -3.4312263 1.3281609
1.7199671 -3.4389074 1.3253453
1.7341627 -3.4286571 1.3352996
1.739411 -3.4271476 1.3318753
1.7462113 -3.4225907 1.3262599
1.737709 -3.4178119 1.3223724
1.7493552 -3.4306078 1.338659
1.7535956 -3.4171348 1.3265511
1.7622275 -3.4269276 1.3259547
1.7555313 -3.4237843 1.3340311
1.7774165 -3.4149406 1.331908
1.7679975 -3.4088216 1.3397108
1.7757596 -3.4133108 1.3353642
1.7934724 -3.4173524 1.3301207
1.7877575 -3.3993909 1.3270209
1.7964238 -3.3947258 1.3262801
1.8011991 -3.4032052 1.3303169
1.8022575 -3.3922312 1.3253934
1.8112046 -3.397409 1.3282372
1.8195516 -3.3940635 1.3317778
1.8159715 -3.3936098 1.3417085
1.8302649 -3.3873487 1.3352987
1.8323575 -3.3780954 1.3419328
1.8301001 -3.375896 1.3420521
1.8425955 -3.3841748 1.3376527
1.8319875 -3.368547 1.3354319
1.8406352 -3.3729002 1.3422385
1.8533161 -3.3809478 1.3375193
1.8610699 -3.3647976 1.3251156
1.8516639 -3.3650463 1.333544
-2.1313696 -3.4213512 1.2784811
-2.1407602 -3.4180954 1.2900389
-2.1208377 -3.4314392 1.285164
-2.1155775 -3.4182754 1.2919495
-2.1167843 -3.4256613 1.2860186
-2.1075058 -3.4410553 1.2864845
-2.1028652 -3.4361591 1.2761066
-2.0998144 -3.4474316 1.2832545
-2.103986 -3.438009 1.2723482
-2.1002176 -3.4395211 1.2785152
-2.0835073 -3.4443104 1.2855145
-2.092195 -3.4432724 1.2787673
-2.0893209 -3.4470983 1.2816675
-2.0713174 -3.450454 1.2807161
-2.0665247 -3.4598117 1.2753565
-2.0676587 -3.4646893 1.2775739
-2.0683227 -3.4697292 1.2876519
-2.0593607 -3.4765253 1.2894152
-2.0432465 -3.4723043 1.2835518
-2.0380349 -3.4691298 1.2791207
-2.0466521 -3.4740646 1.2728375
-2.0282662 -3.4725103 1.2905231
-2.0366232 -3.4729097 1.2873068
-2.0220761 -3.4801371 1.2836518
-2.0284765 -3.4874072 1.2735499
-2.0202324 -3.5006511 1.281474
-2.0097671 -3.499403 1.2872549
-2.0092196 -3.4940403 1.28913
-2.0069051 -3.4974155 1.2781096
-1.9904501 -3.5004349 1.27314
-1.9984223 -3.4969311 1.2861054
-1.9926738 -3.4999051 1.283488
-1.9892358 -3.5161042 1.2833277
-1.9890101 -3.5226278 1.2787893
-1.9724355 -3.5204277 1.2898232
-1.965959 -3.514863 1.2904489
-1.9715545 -3.5237169 1.2751517
-1.9513652 -3.5169108 1.2880393
-1.9492971 -3.5326819 1.2803669
-1.9582456 -3.5368931 1.2724837
-1.9521599 -3.5339761 1.2909057
-1.9331048 -3.5302136 1.2891483
-1.9366633 -3.5479205 1.2739798
-1.9203784 -3.5503125 1.2750686
-1.9286282 -3.541045 1.2811317
-1.9258403 -3.5502195 1.2755266
-1.9224229 -3.5499125 1.2838281
-1.9142988 -3.5543425 1.281689
-1.9132835 -3.5616348 1.2865256
-1.8999367 -3.5628097 1.2898905
-1.8944695 -3.5628366 1.2789053
-1.8905766 -3.5687504 1.2744083
-1.8884374 -3.563168 1.2749237
-1.8814629 -3.5662503 1.275759
-1.873396 -3.5625353 1.2885669
-1.8792622 -3.5809894 1.2748984
-1.8707299 -3.5809867 1.2842282
-1.8538926 -3.5778244 1.2918123
-1.8591906 -3.5786145 1.2747816
-1.8596483 -3.5910301 1.2792464
-1.8367376 -3.5829539 1.2863477
-1.8448086 -3.595964 1.2901919
-1.8373728 -3.5918179 1.2822678
-1.8294182 -3.5856841 1.2739041
-1.8206246 -3.5964737 1.2918909
-1.8190196 -3.5981236 1.2740523
-1.8110795 -3.5962386 1.2788382
-1.8138059 -3.6025178 1.2894011
-1.8089448 -3.5990999 1.2817812
-1.8011109 -3.6011484 1.2843466
-1.7888085 -3.6052983 1.2775818
-1.7894012 -3.6225352 1.2803936
-1.7861464 -3.6173556 1.2899309
-1.7708122 -3.6292443 1.2881749
-1.7838382 -3.6173661 1.2781947
-1.7788739 -3.6289129 1.2891233
-1.7717447 -3.6175535 1.2844883
-1.7598263 -3.6339579 1.2761185
-1.7573415 -3.6305418 1.2737042
-1.742473 -3.6243362 1.2917718
-1.7450358 -3.6308763 1.2882127
-1.7343599 -3.6430602 1.289933
-1.7408688 -3.6370444 1.2793422
-1.737837 -3.6407528 1.2793647
-1.7165579 -3.642549 1.2737604
-1.7252556 -3.6444464 1.2790973
-1.7230213 -3.6442833 1.2782744
-1.7054186 -3.657274 1.2835211
-1.6961823 -3.6528559 1.2746503
-1.689357 -3.6586483 1.2744448
-1.6844609 -3.652086 1.290152
-1.6831206 -3.6599338 1.2761203
-1.6800566 -3.65938 1.2905427
-1.6675801 -3.660887 1.2836881
-1.6750779 -3.6662114 1.2774612
-1.6681765 -3.6653328 1.2917539
-1.6559352 -3.6673226 1.2886194
-1.6645133 -3.6768165 1.2748969
-1.6478416 -3.6821833 1.2879879
-1.6400374 -3.685838 1.2776752
-1.6324354 -3.6897128 1.2763057
-1.6291231 -3.677367 1.2894626
-1.6398393 -3.6870799 1.2855401
-1.6161298 -3.6894426 1.2824702
-1.6192718 -3.6844325 1.2764286
-1.6086375 -3.697654 1.2736109
-1.6037073 -3.7037699 1.2911415
-1.6019084 -3.7036033 1.2815094
-1.593829 -3.7119076 1.2888341
-1.5926553 -3.6975534 1.2748208
-1.5817913 -3.7007461 1.279242
-1.5922936 -3.7057788 1.2783115
-1.569636 -3.7066832 1.289963
-1.5708977 -3.7090366 1.2815397
-1.5752262 -3.7196937 1.2804068
-1.5655932 -3.7248814 1.2883261
-1.5587748 -3.7103071 1.2723956
-1.5544229 -3.7191052 1.2788905
-1.5396999 -3.7249982 1.2793329
-1.5376493 -3.7348952 1.276374
-1.5296088 -3.7191088 1.2724595
-1.5371442 -3.7390087 1.2857423
-1.525607 -3.7414377 1.2803435
-1.5224154 -3.7303183 1.2748069
-1.5076442 -3.7287207 1.2808213
-1.5140027 -3.7426863 1.2838489
-1.512439 -3.7350326 1.2836444
-1.5068029 -3.748229 1.2768284
-1.4946688 -3.7519081 1.2862983
-1.4820895 -3.7387445 1.288043
-1.4924662 -3.7427521 1.2877387
-1.4867544 -3.7595096 1.2896919
-1.467757 -3.7499471 1.2913661
-1.4741554 -3.7624133 1.2863023
-1.4660877 -3.7653317 1.2849715
-1.4520026 -3.7598348 1.2918034
-1.454887 -3.7580037 1.2884098
-1.457973 -3.7557688 1.2739331
-1.4478723 -3.7666349 1.2778835
-1.428299 -3.7701597 1.2770962
-1.426978 -3.7693024 1.2743927
-1.4259585 -3.7679772 1.277016
-1.4229829 -3.7729015 1.2912788
-1.4183304 -3.769474 1.2751447
-1.418739 -3.7832313 1.2781544
-1.4004755 -3.7881591 1.2887157
-1.3953774 -3.7812295 1.2831557
-1.3936701 -3.7826471 1.2818707
-1.131822 -3.0889668 1.6059343
-1.1215996 -3.0908864 1.5943164
-1.1321622 -3.0967562 1.6055738
-1.1254262 -3.1068802 1.6001669
-1.1160644 -3.0993054 1.5918391
-1.1124378 -3.1123576 1.5889347
-1.1049432 -3.1111004 1.5942615
-1.1144366 -3.1168647 1.5966417
-1.0933665 -3.1028187 1.5879252
-1.0978544 -3.1123559 1.5997573
-1.0836251 -3.1199532 1.5969673
-1.0795119 -3.1216598 1.5938544
-1.0870146 -3.1182632 1.5864624
-1.0832578 -3.1124673 1.590531
-1.0649056 -3.1216478 1.6037529
-1.0748792 -3.1115429 1.6054951
-1.0677551 -3.1182861 1.5900608
-1.0553021 -3.1188679 1.5904225
-1.0604668 -3.1227269 1.5863844
-1.054346 -3.1354232 1.5943574
-1.0563909 -3.1182418 1.5962752
-1.0412238 -3.1213009 1.5980223
-1.0491674 -3.136219 1.6046958
-1.0445011 -3.1317379 1.5986893
-1.0357641 -3.1332653 1.6050197
-1.0338032 -3.1291282 1.6029669
-1.0300982 -3.1422315 1.5956764
-1.0218253 -3.1272483 1.5893035
-1.0131888 -3.1417983 1.600565
-1.0085883 -3.134598 1.6006173
-0.99601299 -3.1338155 1.5993321
-1.0015179 -3.1422405 1.5964626
-1.0052736 -3.1429863 1.600144
-0.98235381 -3.1434443 1.5897691
-0.98543864 -3.1395466 1.5993237
-0.98219109 -3.1580708 1.5944657
-0.9809944 -3.1572747 1.5979488
-0.96708632 -3.1525929 1.5978533
-0.95954919 -3.1436634 1.6046399
-0.96074867 -3.1545246 1.6000527
-0.96189398 -3.1572032 1.5976678
-0.96432257 -3.1497817 1.5882715
-0.94961876 -3.1505127 1.599537
-0.95123166 -3.1527228 1.5917459
-0.94321758 -3.1624186 1.5892477
-0.94564706 -3.1532695 1.5896144
-0.93293267 -3.1673286 1.59216
-0.93673337 -3.171886 1.6007643
-0.92062771 -3.1733148 1.5996684
-0.86602569 -2.9838402 1.6676214
-0.86796349 -2.9963646 1.6757084
-0.85228455 -2.9957318 1.6725692
-0.86600018 -2.984812 1.6700447
-0.84844863 -2.9999232 1.6666498
-0.83868659 -2.9914403 1.6748928
-0.851421 -2.9898093 1.6736121
-0.84378701 -2.9998875 1.6795938
-0.83360577 -2.9981921 1.682333
-0.83481866 -3.0048187 1.6649523
-0.81712574 -2.9929802 1.6818354
-0.83002371 -3.0072646 1.6674188
-0.81483299 -3.0100563 1.6748533
-0.82277995 -3.0107517 1.6744206
-0.81324977 -2.9980853 1.6800834
-0.80711281 -2.9998484 1.6754299
-0.79273134 -3.0185387 1.6736028
-0.79962891 -3.0137899 1.6828868
-0.80054331 -3.0030563 1.6750494
-0.7987169 -3.0177338 1.6817632
-0.79426968 -3.0189178 1.6814867
-0.77293772 -3.0172012 1.6680917
-0.78602082 -3.024497 1.6730649
-0.7716679 -3.0239441 1.6784968
-0.7777462 -3.0180671 1.6777433
-0.75816017 -3.0102611 1.676369
-0.76322603 -3.0122831 1.6774406
-0.75011754 -3.0254133 1.6843915
-0.74772358 -3.0236704 1.6832006
-0.75316554 -3.0243154 1.668451
-0.75189227 -3.0247285 1.6736301
-0.73089403 -3.0280271 1.6816328
-0.74328935 -3.0286274 1.6834408
-0.73070991 -3.0190949 1.6668968
-0.73269719 -3.0198627 1.6773188
-0.71543658 -3.0252676 1.6766304
-0.71954876 -3.0399632 1.6749973
-0.72258794 -3.0257766 1.6813055
-0.69867486 -3.0334237 1.6704222
-0.69595128 -3.0307422 1.6799536
-0.70797592 -3.031018 1.6701255
-0.69482005 -3.0345278 1.6780468
-0.69366008 -3.0346665 1.6664099
-0.69069082 -3.0464609 1.6653413
-0.68426412 -3.0444791 1.684535
-0.68741405 -3.0494747 1.6793481
-0.67125112 -3.0428219 1.6804838
-0.67671984 -3.0434489 1.6768185
-0.675879 -3.0444052 1.6665124
-0.66592032 -3.0468817 1.6798884
-0.6664288 -3.0456276 1.673983
-0.65676415 -3.055464 1.6655563
-0.63917679 -3.0483882 1.6779736
-0.65322518 -3.0425925 1.6795733
-0.64834094 -3.0546205 1.6841254
-0.64426166 -3.0540502 1.6846468
-0.625368 -3.0415699 1.67278
-0.62533742 -3.0588133 1.6812389
-0.62897086 -3.0594714 1.6696885
-0.62290925 -3.0544281 1.6766026
-0.62347043 -3.0541518 1.665706
-0.60993582 -3.0484705 1.665902
-0.60482651 -3.0494628 1.6740968
-0.60729873 -3.0487659 1.6690048
-0.58817017 -3.0474484 1.672796
-0.58448821 -3.0663166 1.6780628
-0.58028364 -3.0505571 1.6767089
-0.58794481 -3.0590343 1.6790053
-0.58714592 -3.055414 1.6815307
-0.57789636 -3.0700016 1.669981
-0.58173138 -3.0694215 1.679583
-0.57646191 -3.0595791 1.6757358
-0.57099539 -3.0689011 1.6717597
-0.55733281 -3.0649698 1.6693381
-0.54876125 -3.0661857 1.6690854
-0.55639738 -3.067997 1.6708102
-0.53876561 -3.0698819 1.6691341
-0.54248661 -3.0637074 1.6798142
-0.54391021 -3.0610147 1.6749425
-0.54280728 -3.073354 1.6763047
-0.53325301 -3.0738111 1.6790625
-0.5340957 -3.073283 1.6724725
-0.51878446 -3.0715733 1.6773641
-0.50744832 -3.0804875 1.6669848
-0.51853281 -3.0651174 1.676181
-0.50986892 -3.0816717 1.6843517
-0.4994792 -3.0648839 1.6714171
-0.49076465 -3.076108 1.6654308
-0.49136898 -3.0730469 1.6829051
-0.49684405 -3.0731761 1.6688015
-0.48095599 -3.0680447 1.6749965
-0.4823091 -3.0680509 1.6824694
-0.47025132 -3.0770416 1.6723955
-0.47330084 -3.0789933 1.6741451
-0.46672884 -3.0763273 1.6719965
-0.47095969 -3.0892966 1.6740191
-0.4670189 -3.0761759 1.6735492
-0.45601177 -3.0786419 1.6825689
-0.45099002 -3.086014 1.6753571
-0.44849318 -3.0831645 1.668718
-0.44009891 -3.0887306 1.6679057
-0.44550881 -3.0799549 1.6677769
-0.44344503 -3.0834272 1.6793407
-0.43145427 -3.0942557 1.6696305
-0.41771302 -3.0828202 1.6832577
-0.42611948 -3.0799241 1.6845812
-0.4125025 -3.0973969 1.6796846
-0.41935465 -3.0881732 1.6729755
-0.4171862 -3.0982389 1.6795416
-0.40222871 -3.0901203 1.6695987
-0.39390963 -3.0979204 1.6747249
-0.38640195 -3.0954449 1.6692563
-0.39902231 -3.0952203 1.6809386
-0.38007802 -3.087321 1.6824095
-0.39084315 -3.0899971 1.6759272
-0.38798037 -3.0853972 1.6729461
-0.36379334 -3.0914986 1.6730914
-0.36450216 -3.0887713 1.6830536
-0.37191933 -3.0881958 1.683537
-0.35276973 -3.0969837 1.67272
-0.36356229 -3.1017742 1.6746777
-0.34922791 -3.1033792 1.67968
-0.34036145 -3.101928 1.6654696
