# .PCD v0.7 - Point Cloud Data file format
VERSION 0.7
FIELDS x y z
SIZE 4 4 4
TYPE F F F
COUNT 1 1 1
WIDTH 1554
HEIGHT 1
VIEWPOINT 0 0 0 1 0 0 0
POINTS 1554
DATA ascii
6.2886319 -3.0085311 1.235037
6.3006577 -3.014931 1.2251381
6.3018055 -2.9977131 1.222651
6.4791131 -3.0661175 1.1867554
6.4981732 -3.0607307 1.1836793
6.4927349 -3.0472138 1.1883366
6.4880714 -3.0396581 1.1800351
6.5039053 -3.0346565 1.180505
6.5150371 -3.0300941 1.1792407
6.5001245 -3.019402 1.1734889
6.508934 -3.0081007 1.1690316
6.510324 -2.9889841 1.1693945
6.6978083 -3.073982 1.128685
6.7069001 -3.0595202 1.1235533
6.7095876 -3.050288 1.1347663
6.7091856 -3.0507708 1.130448
6.7134285 -3.0401814 1.1246313
6.7293563 -3.0180099 1.134756
6.7257409 -3.0089457 1.1203772
6.7208486 -2.9990203 1.1276184
6.7301908 -3.004499 1.1370834
6.9120727 -3.071635 1.0870773
6.9174047 -3.052387 1.0735524
6.9315176 -3.0483353 1.0851479
6.920485 -3.0458717 1.0766286
6.9206524 -3.0280724 1.0782732
6.9364877 -3.0102799 1.0811481
6.9464927 -3.0007958 1.0768294
6.946609 -2.9991503 1.0722041
7.1302128 -3.0634723 1.0386233
7.1232719 -3.0455358 1.039685
7.1257815 -3.0469112 1.0230687
7.1477757 -3.0272357 1.0360588
7.1362309 -3.0177147 1.023453
7.1562681 -3.0234797 1.0236571
7.1477714 -3.0133178 1.032001
7.1609058 -2.9915476 1.0284721
7.3356285 -3.0588586 0.97525156
7.3473954 -3.0551305 0.98350346
7.3545227 -3.0298648 0.97461492
7.3575592 -3.03582 0.97372544
7.3616433 -3.0235312 0.98151708
7.3490963 -3.0135007 0.97903502
7.369525 -2.9992533 0.97611886
7.5567842 -3.0623162 0.92797244
7.5448847 -3.0447125 0.92952484
7.5613146 -3.0381711 0.92287451
7.5542006 -3.0198169 0.93380749
7.5633554 -3.0139687 0.93823421
7.5607476 -3.0052516 0.93768656
7.5692363 -2.9977429 0.92093748
7.7569776 -3.0617456 0.87672096
7.7524385 -3.0508945 0.8817811
7.7654023 -3.0438156 0.89082474
7.7754345 -3.0331151 0.87965858
7.7668099 -3.018589 0.87556982
7.7797222 -3.011893 0.88749027
7.7859688 -2.9965565 0.88722676
7.9639788 -3.0458968 0.83276337
7.965652 -3.0322073 0.82597107
7.9667621 -3.0342302 0.83613175
7.9711075 -3.0128548 0.8230933
7.9807248 -3.0002897 0.83008695
7.9953871 -2.9990168 0.83333427
8.1804991 -3.0600359 0.78694695
8.1731024 -3.0455689 0.77375293
8.1816006 -3.0224004 0.77641201
8.182004 -3.0171804 0.78355891
8.182128 -2.9989762 0.78011203
8.1972761 -3.0033607 0.77924162
8.3876019 -3.0574439 0.7357254
8.3861799 -3.0445969 0.73196369
8.3917027 -3.0263481 0.72963643
8.384203 -3.0176373 0.73744535
8.3999338 -3.0094209 0.74117625
8.3987656 -2.9928648 0.72797239
8.5869236 -3.0370932 0.67702538
8.5952787 -3.0398607 0.68938887
8.5907631 -3.0267205 0.68853712
8.6027842 -3.0026321 0.69187516
8.6139183 -2.9943876 0.67626059
8.7940092 -3.0555854 0.63229758
8.8074245 -3.0314908 0.6243903
8.7984962 -3.019124 0.63349068
8.7973585 -3.0152383 0.63909853
8.8199348 -2.9967165 0.6295473
8.9927177 -3.0592325 0.57957774
9.0007 -3.0349116 0.58436316
9.001029 -3.0193429 0.59030128
5.0255375 -4.8669662 1.273935
5.0316811 -4.8622832 1.2854708
5.0388064 -4.8477855 1.2722311
5.0367098 -4.8377328 1.2762631
5.0454402 -4.8459048 1.2711024
5.0497699 -4.8316622 1.2747067
5.062345 -4.816278 1.2799779
5.0637512 -4.8263578 1.2780778
5.063365 -4.8168449 1.2719977
5.0829124 -4.7993212 1.2833755
5.0897942 -4.7928491 1.2730626
5.0815516 -4.7870283 1.2804382
5.1048346 -4.7808666 1.2753074
5.0948682 -4.7835774 1.2732161
5.1089239 -4.7643223 1.27593
5.1178088 -4.7674932 1.2858541
5.1302881 -4.7448349 1.2841206
5.1280289 -4.7475066 1.2852564
5.1438594 -4.7372904 1.2888443
5.1535997 -4.7342424 1.282886
5.1547079 -4.7310195 1.2763202
5.022522 -4.5914083 1.3365734
5.0204897 -4.5867276 1.3278033
5.0333166 -4.5786901 1.329215
5.0240426 -4.5632644 1.322765
5.0374727 -4.5656104 1.3260179
5.0408173 -4.5421243 1.3247937
5.042418 -4.5475349 1.3337532
5.065145 -4.5437422 1.3257751
5.0714502 -4.5368261 1.3336816
5.0717874 -4.515409 1.3176385
5.0855484 -4.5098042 1.3226975
5.0914664 -4.5126357 1.3254461
5.0886045 -4.5090342 1.3292319
5.0871444 -4.5010915 1.3214346
5.0992246 -4.486093 1.3242732
5.1145473 -4.4741149 1.323571
5.1086359 -4.4668913 1.3304224
5.1116743 -4.4632859 1.334022
5.1267247 -4.4597106 1.3174841
5.1296711 -4.4421244 1.3353009
5.1365647 -4.4370923 1.3316513
5.1485076 -4.4324479 1.3180904
5.143189 -4.4369621 1.3210421
5.1616459 -4.4292221 1.324839
5.1722956 -4.4156785 1.3365279
5.1657734 -4.4130788 1.3330796
5.1785398 -4.4026465 1.329731
5.1781468 -4.395422 1.3228551
5.1813436 -4.379384 1.3324132
5.1879926 -4.3866258 1.3324076
5.1924481 -4.3731904 1.3302751
5.213244 -4.3740191 1.3256193
5.2204685 -4.366363 1.3292733
5.2106347 -4.3464365 1.3334825
5.2245879 -4.3420367 1.3240416
5.2302198 -4.3303256 1.3299987
5.2323933 -4.3320045 1.3191775
5.2512074 -4.3202229 1.3283612
5.2431359 -4.3113804 1.3263551
5.2646122 -4.3020158 1.3298708
5.2660728 -4.2943115 1.3195769
5.2653904 -4.2919173 1.3212008
5.2800422 -4.2883945 1.3232187
5.2783375 -4.2807908 1.3178924
5.2808318 -4.2653103 1.3296868
5.2938747 -4.2702627 1.3259048
5.2928648 -4.2590981 1.3331476
5.301023 -4.2551637 1.3248677
5.3183551 -4.2453356 1.3181171
5.3136706 -4.240056 1.3334101
5.3124914 -4.2193308 1.3290776
5.3210077 -4.2252922 1.3198009
5.3311377 -4.2025962 1.3267006
5.3432751 -4.2075882 1.3338486
5.3500762 -4.1960597 1.3291141
5.3486609 -4.1974511 1.3320551
5.3634534 -4.1858058 1.318781
5.365478 -4.1719446 1.3220532
5.3792124 -4.1666842 1.3277565
5.3661861 -4.15203 1.3313344
5.388442 -4.1444674 1.3282242
5.3863549 -4.1342893 1.3317312
5.3949809 -4.1398726 1.3305049
5.3904958 -4.1191988 1.3368485
5.4131484 -4.1175947 1.3272746
5.4110556 -4.1232657 1.3288548
5.4118938 -4.0999937 1.3346179
5.4194469 -4.1005359 1.3267715
5.4302621 -4.0931726 1.3367066
5.4267697 -4.0846539 1.3338088
5.4468446 -4.0796871 1.3309785
5.443799 -4.0626044 1.3308229
5.4442496 -4.0626831 1.317573
5.4634633 -4.0530233 1.3174771
5.4690099 -4.0464768 1.331458
5.464972 -4.0477781 1.3322324
5.4825039 -4.033987 1.3287351
5.4857883 -4.0183764 1.3171439
5.4812155 -4.0176749 1.3253565
5.486567 -4.0061793 1.3345202
5.4890099 -4.0003109 1.3210753
5.5086122 -3.983181 1.3171293
5.5080481 -3.9912817 1.3255131
5.5142231 -3.9858398 1.3359574
5.5202918 -3.9605114 1.3253407
5.5203304 -3.9648709 1.3258073
5.5211329 -3.9573379 1.3324422
5.5384274 -3.9521489 1.3270564
5.5441194 -3.937151 1.3347332
5.5380139 -3.9224086 1.3262593
5.5410609 -3.9308197 1.3359987
5.550652 -3.9252145 1.3352059
5.5562868 -3.9057486 1.318642
5.5702944 -3.9056723 1.3198422
5.5747352 -3.8850811 1.3186848
5.5685487 -3.8899941 1.3254745
5.582818 -3.8796372 1.332096
5.5837111 -3.8775074 1.3361974
5.5992079 -3.8551965 1.32758
5.6023707 -3.8444912 1.3259807
5.5970483 -3.8362281 1.3282382
5.6014543 -3.8438523 1.3283612
5.6250567 -3.8313096 1.3202025
5.6120844 -3.8302164 1.3243653
5.6203017 -3.8101282 1.3213567
5.6273499 -3.8016617 1.3256646
5.6411772 -3.8043506 1.3325517
5.6416149 -3.7915597 1.333783
5.6461434 -3.7886748 1.3295324
5.6620431 -3.7680192 1.3281864
5.6563325 -3.7580671 1.3272954
5.6728687 -3.7490788 1.3309648
5.6695166 -3.7418473 1.3193537
5.6779947 -3.7529361 1.3210052
5.6706247 -3.7411456 1.3349069
5.6802354 -3.727633 1.3294295
5.6941423 -3.7256083 1.3334104
5.6949258 -3.7084506 1.3223219
5.6969295 -3.7120583 1.3262504
5.7146711 -3.7050486 1.3229592
5.7110558 -3.6890209 1.3217378
5.7065387 -3.6817176 1.3216146
5.7256794 -3.6630163 1.3208258
5.7331982 -3.6610751 1.3210435
5.7223568 -3.6517317 1.3251398
5.7454066 -3.6379943 1.3348296
5.7429676 -3.635555 1.3186175
5.7444983 -3.637527 1.3316293
5.7549291 -3.6226788 1.3330926
5.7492776 -3.6152611 1.3336173
5.7603235 -3.6166196 1.3222142
5.7701368 -3.6076458 1.3301516
5.7798157 -3.5846701 1.3288205
5.7686944 -3.5793035 1.3214535
5.7777796 -3.5698948 1.3354456
5.7909503 -3.5625422 1.3351839
5.7937989 -3.5627229 1.3293629
5.8004246 -3.5464563 1.3335643
5.8000503 -3.5448308 1.3246013
5.8011284 -3.5339179 1.3350363
5.8027201 -3.537009 1.3360858
5.8128972 -3.5153253 1.3180753
5.8310003 -3.50899 1.3349994
5.8277612 -3.4987922 1.3292422
5.8371434 -3.5045137 1.3248386
5.8405066 -3.4820588 1.3197259
5.8435965 -3.4817374 1.3263633
5.8408542 -3.4797618 1.3211914
5.8423018 -3.46312 1.3295623
5.8547754 -3.4503486 1.3207562
5.8576722 -3.4409232 1.3207625
5.8616071 -3.4462469 1.3343489
5.8675203 -3.4383821 1.3261601
5.8703461 -3.4186602 1.3200518
5.8874035 -3.4144478 1.3200978
5.8800454 -3.4117534 1.3344678
5.8875632 -3.3908381 1.3210212
5.9017072 -3.3975234 1.3214058
5.8906679 -3.3876078 1.3302808
5.9079876 -3.370054 1.3237689
5.9164901 -3.3544276 1.3185173
5.9049873 -3.3596785 1.3197707
5.9270592 -3.3438175 1.3207104
5.9209309 -3.3299205 1.3331871
5.9286828 -3.3237448 1.3216841
5.9364696 -3.3296938 1.3246773
5.9386144 -3.3128805 1.3203806
5.9473009 -3.3066673 1.3211869
5.9363608 -3.2962263 1.3236905
5.9542837 -3.2931862 1.3355228
5.9456835 -3.2863536 1.3347501
5.9518199 -3.275722 1.3204883
5.9591985 -3.2677052 1.3338428
5.9675045 -3.2504919 1.3328428
5.968276 -3.2501903 1.3297609
5.9775329 -3.2467544 1.3324656
5.9897714 -3.2258146 1.3237131
5.9777017 -3.2208171 1.3328964
5.9864264 -3.2113774 1.324237
5.997643 -3.2086205 1.3303275
6.00068 -3.1990588 1.3349539
6.002933 -3.187943 1.321909
6.0109124 -3.1740205 1.3285713
6.0122347 -3.1763511 1.3241313
6.0125451 -3.1624587 1.3316706
6.0297623 -3.1638455 1.3343173
6.0296721 -3.1375191 1.329569
6.0408177 -3.1477757 1.3214769
6.0411348 -3.1338093 1.3344772
6.0327811 -3.1131163 1.3218805
6.0505056 -3.1138642 1.3304856
6.0528455 -3.0968261 1.3218402
6.0621281 -3.0962634 1.3187448
6.0580616 -3.0788219 1.32494
6.0695429 -3.0855017 1.3366427
6.068552 -3.0793843 1.3185674
6.0701962 -3.0577652 1.3184212
6.0670795 -3.0493972 1.319615
6.0758595 -3.0450966 1.3263656
6.0776281 -3.0335231 1.3253936
6.0867877 -3.0285859 1.3352517
6.0845408 -3.0256591 1.33372
6.0936365 -3.0177872 1.324317
6.0996251 -2.9983082 1.3239154
6.1117969 -2.991662 1.3283879
6.2898922 -3.0759282 1.2824391
6.2957873 -3.0569789 1.2777377
6.2815237 -3.0454245 1.2729405
6.2884417 -3.0493569 1.2839737
6.3020983 -3.0357764 1.2781045
6.2947702 -3.0372794 1.2886903
6.3172879 -3.0252609 1.2737151
6.3182621 -3.0083663 1.2781179
6.3098207 -3.009691 1.2735001
6.3209653 -3.0030398 1.2870229
6.4919815 -3.0598886 1.2253007
6.5098281 -3.0517106 1.2218537
6.5029602 -3.0420752 1.2211946
6.5112829 -3.049789 1.2278303
6.5106258 -3.028101 1.2392679
6.524087 -3.0179837 1.2404182
6.528121 -3.0095785 1.2247965
6.5371675 -3.0044177 1.2372731
6.5306039 -2.9919035 1.2396228
6.7158523 -3.073406 1.1917289
6.7182808 -3.0622706 1.1894375
6.7270608 -3.0575736 1.1862592
6.7323809 -3.0440164 1.1836454
6.7370291 -3.0263958 1.1842411
6.7282991 -3.013679 1.1774421
6.7309942 -3.0117352 1.191672
6.7348266 -3.0099785 1.1852124
6.7430239 -2.9833844 1.1748134
6.9211307 -3.066294 1.1397355
6.9442377 -3.0455892 1.1430972
6.9475236 -3.0467389 1.1282297
6.9485049 -3.0233788 1.1286891
6.9462948 -3.0189559 1.1333294
6.9614568 -3.0141292 1.1262079
6.957201 -3.0022633 1.142415
6.9661326 -2.9919202 1.1311718
7.1475954 -3.058707 1.0841986
7.1443772 -3.044482 1.0825002
7.1507463 -3.0337749 1.0872247
7.1501102 -3.0242357 1.0829885
7.1528215 -3.015672 1.0879313
7.1606522 -3.010375 1.0865569
7.1689277 -2.9915233 1.0799222
7.1818295 -2.9817305 1.0884249
7.3467569 -3.0551617 1.0310121
7.3688207 -3.0488446 1.042328
7.3596272 -3.0435596 1.0339074
7.3715324 -3.0257666 1.0297501
7.3817253 -3.0058644 1.0463324
7.3766279 -3.0108447 1.0424802
7.38728 -2.9973454 1.0372124
7.5627437 -3.0532405 0.99916947
7.5770373 -3.0518069 0.99807364
7.5646811 -3.0416617 0.9967733
7.5808134 -3.0299263 0.98679942
7.5876045 -3.0203934 0.99288374
7.5856967 -3.0043066 0.9939881
7.5953536 -3.0005522 0.98261446
7.781426 -3.0620732 0.93277955
7.7835779 -3.0414042 0.93576813
7.7818618 -3.0342779 0.94196725
7.7948632 -3.0157514 0.93498296
7.797893 -3.0071993 0.93888068
7.7998118 -2.9952562 0.94236624
7.9815936 -3.0611486 0.89893723
7.9923048 -3.0544915 0.90255827
7.9890852 -3.0339508 0.89169103
7.9869542 -3.0279474 0.89399701
7.993434 -3.0206385 0.89543939
7.9981499 -2.9954419 0.88670582
8.0058384 -2.9962099 0.89424759
8.2015619 -3.0561652 0.84137237
8.188529 -3.0291002 0.85427302
8.199378 -3.0243194 0.84824806
8.2136965 -3.0231235 0.85518533
8.212657 -2.9954863 0.83764637
8.2152224 -2.9953232 0.84950864
8.409318 -3.0479596 0.78814238
8.4033823 -3.0316556 0.79102033
8.4188728 -3.0148435 0.80793774
8.4056139 -3.0145345 0.79292417
8.4198799 -3.00453 0.79474145
8.6122141 -3.0569682 0.74410862
8.6146498 -3.0373876 0.75490844
8.6110439 -3.0277121 0.75546372
8.6143589 -3.0232844 0.75220984
8.6201181 -3.0004833 0.75766665
8.6177225 -2.990176 0.74545825
8.8054428 -3.0536768 0.70974869
8.8127012 -3.022047 0.70721316
8.8168592 -3.0278962 0.69325584
8.8259859 -3.0036826 0.69756675
8.8369131 -2.9941952 0.70285136
5.0076475 -4.8967586 1.3284835
5.0193348 -4.8865128 1.3223212
5.0199208 -4.8794827 1.3258804
5.028574 -4.8771701 1.3209898
5.0324411 -4.8570395 1.3267756
5.0427918 -4.8520746 1.3393291
5.0453439 -4.8513575 1.3386968
5.0644321 -4.8310857 1.3210967
5.071785 -4.8273845 1.3350301
5.0816236 -4.8305664 1.3319275
5.0850415 -4.8172574 1.3345053
5.0802565 -4.8190875 1.3203411
5.0892997 -4.8071485 1.3262095
5.101892 -4.7933626 1.3273835
5.1095839 -4.7825065 1.3216718
5.1030512 -4.7880874 1.333899
5.1290627 -4.7778935 1.339808
5.1344314 -4.7753787 1.338944
5.1421905 -4.7522693 1.3347266
5.1438727 -4.746069 1.3202637
5.1424422 -4.7431889 1.3320365
5.14358 -4.7318215 1.3348966
5.1505432 -4.7381296 1.3226038
5.1633649 -4.718554 1.3369955
5.1773505 -4.7179847 1.3351324
5.1856146 -4.7106366 1.3205684
5.1860952 -4.7039561 1.329069
5.1924753 -4.698575 1.3329455
5.1979809 -4.6920938 1.3327832
5.1992593 -4.6905789 1.3316638
5.2060642 -4.6771336 1.3262579
5.2246323 -4.669179 1.3250432
5.2260499 -4.6608801 1.330335
5.2351646 -4.646368 1.3280082
5.2386613 -4.6444693 1.3390467
5.240284 -4.6408954 1.3302203
5.247333 -4.6234193 1.3208526
5.2628722 -4.6261315 1.3296347
5.2622776 -4.6098967 1.3376575
5.2615108 -4.6189318 1.3399451
5.279614 -4.6076999 1.3284196
5.2923012 -4.6044283 1.3375806
5.2837634 -4.586257 1.3277633
5.3005075 -4.5854783 1.3251717
5.2949138 -4.5677013 1.3371837
5.3003488 -4.5747886 1.3254652
5.316947 -4.5613041 1.3239095
5.3241668 -4.5587473 1.3323191
5.3201585 -4.543242 1.3296322
5.3441625 -4.5349507 1.3305694
5.3504438 -4.5349922 1.335389
5.3451896 -4.5287724 1.3361218
5.3490858 -4.5175061 1.3276585
5.3631539 -4.515902 1.3325971
5.3746204 -4.5062861 1.3279276
5.378088 -4.4976211 1.3287765
5.3698273 -4.4787321 1.3357065
5.3800001 -4.4789877 1.3377808
5.398572 -4.4696054 1.3279394
5.3944464 -4.462563 1.3389595
5.4112477 -4.4555721 1.3224994
5.412858 -4.4401588 1.3248115
5.4151907 -4.4471622 1.3309331
5.429049 -4.4263988 1.3311938
5.4278359 -4.4204607 1.3335958
5.4419427 -4.4173365 1.3371803
5.4368877 -4.4087439 1.3321618
5.4387522 -4.3962388 1.3393874
5.4626803 -4.3914118 1.328486
5.4567561 -4.3769498 1.3371093
5.4618421 -4.3719158 1.3251969
5.4704571 -4.3714895 1.3211623
5.4813733 -4.3549385 1.3225808
5.4784002 -4.3507266 1.3372096
5.4956779 -4.3539143 1.330215
5.4953465 -4.3491716 1.3387749
5.4985886 -4.33565 1.3283486
5.5168018 -4.3264194 1.3228402
5.5222301 -4.3194046 1.3345629
5.516746 -4.3044481 1.3331432
5.5198746 -4.3105297 1.3291448
5.5310798 -4.2941089 1.3379511
5.53824 -4.2928739 1.3356781
5.5468078 -4.2807026 1.3299786
5.5499935 -4.2773356 1.3334442
5.5661736 -4.2603698 1.3339967
5.5709033 -4.2462215 1.3204068
5.5651956 -4.2399087 1.3283753
5.5739684 -4.2342057 1.3356774
5.5744534 -4.2400141 1.3302464
5.5935078 -4.2287107 1.3310364
5.588553 -4.2122083 1.320541
5.5923934 -4.2145405 1.323566
5.5939503 -4.1942897 1.3310386
5.6097965 -4.1968265 1.3341472
5.6090975 -4.189146 1.3264816
5.6289396 -4.1826882 1.3252165
5.6351814 -4.1678791 1.322508
5.6293807 -4.1702275 1.3377376
5.6308708 -4.1580105 1.3393857
5.6469193 -4.152648 1.3245561
5.6437469 -4.1381378 1.3384397
5.6500678 -4.1256747 1.3221931
5.6594028 -4.1175308 1.3383915
5.6761994 -4.1194062 1.3242389
5.6760936 -4.1078348 1.3299444
5.6883106 -4.1022644 1.3342773
5.6792521 -4.0962849 1.3255805
5.6874738 -4.0819278 1.3266885
5.6909142 -4.0718913 1.3321586
5.6959915 -4.0716057 1.3351283
5.7062278 -4.0602818 1.3247367
5.7103372 -4.0484142 1.3389292
5.7181883 -4.0329785 1.3333781
5.7222271 -4.0265021 1.3380564
5.7321019 -4.0258765 1.3264027
5.7276711 -4.0187669 1.3324077
5.7475624 -4.0064387 1.3364727
5.7387452 -4.011601 1.3269675
5.7510252 -3.999023 1.3395635
5.748764 -3.9870572 1.3245016
5.7694612 -3.9705334 1.3328127
5.7597556 -3.9755678 1.3250318
5.7842312 -3.9584072 1.3247192
5.7831445 -3.9628527 1.3229079
5.786725 -3.9430575 1.3337395
5.7986403 -3.933316 1.3236896
5.7965493 -3.9292951 1.3379692
5.7985125 -3.9196916 1.3390805
5.8109589 -3.9233978 1.3247552
5.81599 -3.9149435 1.3343734
5.8259478 -3.8913589 1.3324856
5.8242054 -3.8830357 1.3375255
5.8346705 -3.8757815 1.3316807
5.8448124 -3.8751473 1.3333368
5.8331313 -3.8564548 1.3267274
5.8522701 -3.8513579 1.3217909
5.8613477 -3.8538516 1.3327991
5.8646936 -3.8398705 1.3253264
5.8691397 -3.8389204 1.3260561
5.8592486 -3.8184047 1.3271407
5.8789649 -3.8133857 1.3237028
5.8767815 -3.8155522 1.3204736
5.8796263 -3.7926853 1.3363762
5.8966155 -3.7850974 1.3247832
5.8952489 -3.7745998 1.3237453
5.9072618 -3.7703612 1.3396593
5.9143267 -3.7624311 1.3249273
5.9123878 -3.7565303 1.3360163
5.922965 -3.7515476 1.3398881
5.9142604 -3.7418079 1.3361005
5.9266291 -3.7376933 1.3291494
5.9355483 -3.7210917 1.3318419
5.9412265 -3.726963 1.329204
5.9427958 -3.7011521 1.3259491
5.9527607 -3.7020028 1.3249795
5.9616761 -3.6961246 1.3200291
5.9664936 -3.6884539 1.3347816
5.9565678 -3.6679826 1.3272007
5.9577193 -3.6621835 1.3363607
5.9627309 -3.6503267 1.3270113
5.9839435 -3.6513278 1.3335203
5.9781933 -3.6486249 1.3283672
5.9951239 -3.6254468 1.329072
5.9894047 -3.6258912 1.3273095
6.0004196 -3.621551 1.3364108
6.0104527 -3.6134641 1.3230977
6.0155239 -3.6057165 1.3291554
6.015336 -3.5930402 1.3273772
6.027555 -3.5843465 1.323084
6.0289226 -3.5757635 1.3223258
6.0209293 -3.5710785 1.332238
6.039433 -3.5572431 1.3365175
6.0327721 -3.5515645 1.3356321
6.046804 -3.5366805 1.3259524
6.0390615 -3.5358462 1.332256
6.0604091 -3.5300314 1.3382822
6.0484314 -3.5241861 1.3236849
6.0624995 -3.5035582 1.3333856
6.0747781 -3.4957285 1.3233948
6.0627513 -3.4915369 1.3335948
6.0699544 -3.4803329 1.3200804
6.0870581 -3.4756074 1.3319954
6.0884295 -3.4625137 1.3211758
6.0889034 -3.4603472 1.3368199
6.0996861 -3.45087 1.3248712
6.0967603 -3.4449811 1.3303034
6.0998487 -3.4359934 1.33314
6.1083279 -3.4178493 1.3281569
6.1064963 -3.4123271 1.3225491
6.1146617 -3.4037199 1.3326714
6.1330152 -3.392786 1.3255295
6.1378427 -3.3896132 1.3346378
6.134573 -3.3899217 1.3283579
6.1404715 -3.3745975 1.3357562
6.1420026 -3.3733199 1.3241361
6.1515727 -3.3597856 1.3299029
6.1465635 -3.3479681 1.3361485
6.1643786 -3.3324649 1.3320225
6.1571984 -3.3235755 1.3248966
6.1643987 -3.3112903 1.3378488
6.1817093 -3.3054094 1.3331994
6.1718659 -3.2994475 1.3231807
6.0196753 -3.2096784 1.3709708
6.0125079 -3.1907833 1.3788632
6.0127277 -3.1950676 1.3794711
6.0213156 -3.1744802 1.3850447
6.0356584 -3.163589 1.3738605
6.0362349 -3.1595571 1.3695977
6.0326738 -3.147368 1.3856363
6.041975 -3.1526291 1.3853652
6.0442166 -3.1452184 1.3823737
6.0417972 -3.1322777 1.3767364
6.0493469 -3.1246991 1.3804429
6.0580091 -3.1087618 1.3746634
6.0545516 -3.0970681 1.376212
6.0716901 -3.101238 1.3699542
6.0743904 -3.0755045 1.3861879
6.0858946 -3.0736222 1.3780472
6.0731244 -3.0597172 1.3736836
6.0763807 -3.0609152 1.3756403
6.0993547 -3.0442643 1.3765831
6.0993247 -3.0344138 1.3820357
6.0936456 -3.0413826 1.3866304
6.1116614 -3.0240467 1.3787192
6.1038857 -3.0145137 1.3740526
6.1176467 -3.0121763 1.3767612
6.1051378 -2.9914603 1.376742
6.1288509 -2.9835503 1.3701379
6.2990746 -3.0782371 1.3222991
6.3103786 -3.0681818 1.3314495
6.3036275 -3.0594275 1.3287657
6.3178062 -3.0349658 1.3274412
6.3174262 -3.0404339 1.330651
6.3216281 -3.0321257 1.3226937
6.3179064 -3.0158203 1.3357601
6.3295059 -3.0099692 1.3226494
6.3238015 -3.0008302 1.3217338
6.5137897 -3.0754964 1.2735351
6.521554 -3.0552099 1.2743119
6.5281329 -3.0479059 1.2763618
6.5238495 -3.0516279 1.2783777
6.53687 -3.045433 1.2760609
6.528553 -3.0238688 1.2794758
6.5434332 -3.0223405 1.282393
6.550343 -3.0087593 1.2928035
6.5503068 -3.0077918 1.2802472
6.5571475 -2.9967296 1.2880059
6.7399297 -3.0564568 1.2289289
6.7444091 -3.0516005 1.2277242
6.7296529 -3.0444446 1.2447364
6.7369328 -3.0258391 1.2289338
6.7462158 -3.0184674 1.230227
6.7531691 -3.0236547 1.2439798
6.7635236 -2.9981904 1.2301502
6.7567825 -2.9900324 1.2407851
6.9382014 -3.0649989 1.1965984
6.949398 -3.0581827 1.1810123
6.9483399 -3.0496325 1.1974297
6.9548578 -3.0408804 1.1893164
6.9601574 -3.0311499 1.1989659
6.9624557 -3.0183907 1.197822
6.9689379 -3.000587 1.1946445
6.9766994 -3.000056 1.196869
7.1568327 -3.0702765 1.1484743
7.164598 -3.0542939 1.1454816
7.1629839 -3.038841 1.1369785
7.1638355 -3.036474 1.1456089
7.1690874 -3.0194345 1.1531008
7.1707425 -3.020133 1.1396503
7.1842704 -2.999774 1.14623
7.1874337 -3.0013452 1.1358624
7.3689194 -3.0555437 1.0869194
7.3678379 -3.0510373 1.0954558
7.3689666 -3.0492177 1.1009417
7.3883524 -3.0239148 1.0924308
7.3847313 -3.0244937 1.0893875
7.3925929 -3.0084743 1.0987197
7.3890705 -2.9914429 1.0950941
7.5732293 -3.0701184 1.0541004
7.5838213 -3.0460901 1.0501232
7.5809784 -3.0430958 1.0545596
7.5877528 -3.02228 1.0496707
7.592236 -3.0268202 1.059011
7.6052408 -3.0144913 1.0598874
7.6037169 -3.0070221 1.0557774
7.7945771 -3.0587769 0.99412704
7.801569 -3.0552626 1.0048614
7.7978773 -3.0394728 1.0023202
7.8105454 -3.0239162 1.0039268
7.8088713 -3.022043 0.99899137
7.8032041 -3.0072737 1.0064739
7.8219585 -2.9899757 1.00419
7.9974074 -3.0620258 0.96011126
8.00068 -3.035434 0.96443367
8.0048132 -3.0345676 0.96562535
8.0048208 -3.0279374 0.95582813
8.0098286 -2.9985874 0.95868087
8.0255556 -2.9971848 0.96645284
8.200901 -3.0554316 0.91223878
8.2157564 -3.0512483 0.9156822
8.2256613 -3.0369425 0.90300697
8.223032 -3.0280776 0.91673559
8.2181034 -3.0095429 0.91711438
8.2357464 -2.991998 0.91292584
8.420435 -3.0611143 0.87177205
8.4236517 -3.0476511 0.87274355
8.4170561 -3.0333951 0.87188822
8.4332962 -3.0076118 0.86125255
8.4372921 -3.0128427 0.86925751
8.4337244 -2.9874811 0.86999679
8.6168737 -3.0414772 0.80692047
8.6241312 -3.0370629 0.8079145
8.6251011 -3.0217931 0.81597632
8.6464329 -3.0130796 0.81011039
8.6435595 -3.0066004 0.81019735
8.8299208 -3.0448971 0.76534146
8.8335867 -3.0300431 0.76966262
8.83638 -3.0231762 0.7680155
8.8485203 -3.0165241 0.76938009
8.8486481 -2.9976344 0.76434296
5.2142005 -4.9802809 1.3314512
5.2120204 -4.9687357 1.3298033
5.2311454 -4.9703627 1.3435
5.233562 -4.9713583 1.3364739
5.22751 -4.9455299 1.3372345
5.2350821 -4.9453335 1.332404
5.2491164 -4.9348488 1.3335991
5.2519879 -4.9385471 1.3416226
5.2717423 -4.9351168 1.3359618
5.2718511 -4.9112897 1.33816
5.2697639 -4.9080091 1.3314377
5.2821059 -4.8938661 1.328998
5.2927904 -4.8875456 1.3376586
5.2971606 -4.8857455 1.3380417
5.3144951 -4.8769245 1.3369613
5.3125796 -4.8674479 1.3287753
5.3258233 -4.8708439 1.3437628
5.3202515 -4.8582644 1.3277314
5.3226929 -4.8528171 1.3277993
5.3394632 -4.834137 1.3443543
5.3384213 -4.8444104 1.3368403
5.3506465 -4.8291965 1.3361098
5.3604221 -4.8301439 1.3343309
5.3588476 -4.8135552 1.3269737
5.3776455 -4.8064575 1.3410496
5.3753529 -4.8080897 1.3372042
5.3848634 -4.7832823 1.3425558
5.3893514 -4.7908401 1.33307
5.3977971 -4.7827401 1.3416055
5.4063005 -4.7646427 1.3413856
5.4113483 -4.7543497 1.3434474
5.4288716 -4.7585835 1.3332685
5.4256539 -4.7397842 1.3346784
5.4406466 -4.7292905 1.3452033
5.4482718 -4.7267199 1.3353432
5.4499617 -4.7331529 1.3363589
5.4477963 -4.7167745 1.3346806
5.4509716 -4.7025986 1.3379333
5.4646506 -4.7066555 1.3417661
5.4668541 -4.6888781 1.3361667
5.4888272 -4.6927109 1.3333215
5.4928517 -4.6856685 1.338694
5.4866867 -4.6684804 1.3353086
5.5019207 -4.6629267 1.3348498
5.507669 -4.6563635 1.3293859
5.5035462 -4.654716 1.329904
5.5204287 -4.6418285 1.3392056
5.5156217 -4.6323504 1.3350798
5.5340571 -4.615767 1.3392838
5.5363145 -4.6235428 1.3336434
5.5529613 -4.6158977 1.3365388
5.5467525 -4.6107702 1.3388366
5.5659056 -4.5983386 1.3306725
5.5616617 -4.5771937 1.3404039
5.5769491 -4.5768104 1.3290304
5.566761 -4.567049 1.3316278
5.5770807 -4.5668931 1.3394265
5.5966907 -4.558022 1.3290085
5.5921645 -4.5371823 1.3274698
5.5918312 -4.5405416 1.3304424
5.6058464 -4.533699 1.3333379
5.6227465 -4.5195003 1.33363
5.621933 -4.5125723 1.3386134
5.6329446 -4.5163007 1.3369925
5.633677 -4.4911447 1.327997
5.6430244 -4.4825673 1.3409961
5.6549587 -4.4900513 1.326375
5.6546807 -4.4842949 1.3328403
5.6639733 -4.4694238 1.3323514
5.6717162 -4.4612341 1.3407009
5.6624212 -4.4453659 1.3280814
5.6760101 -4.4389238 1.3418405
5.6898804 -4.4396105 1.3346984
5.6887231 -4.4355898 1.3359898
5.6859336 -4.4171305 1.3345907
5.6941376 -4.415606 1.333913
5.7153296 -4.4084187 1.3378869
5.7218895 -4.3877702 1.3397443
5.7149034 -4.384079 1.328591
5.7274175 -4.3788824 1.337737
5.7282696 -4.3692093 1.3348517
5.7364912 -4.3721633 1.3305005
5.738461 -4.3474526 1.3375458
5.7532773 -4.3500938 1.3406864
5.7493739 -4.3417082 1.3343525
5.76406 -4.3312907 1.3416005
5.7780571 -4.3258424 1.3280845
5.7760172 -4.3199844 1.327257
5.7758231 -4.3072519 1.3421527
5.7844648 -4.3081326 1.3342675
5.8022408 -4.2942786 1.32807
5.7971206 -4.2783084 1.3309244
5.8076382 -4.2864633 1.3304867
5.8051891 -4.2658849 1.3393965
5.82587 -4.2552829 1.3286724
5.8202052 -4.2560554 1.3403378
5.8217773 -4.2488799 1.3294148
5.8298221 -4.2297835 1.3363047
5.8370275 -4.2369084 1.3278738
5.8391175 -4.2214079 1.3304998
5.8533115 -4.2141361 1.3389099
5.8612962 -4.197978 1.3352113
5.8721237 -4.1972852 1.3352709
5.8625021 -4.1850123 1.3278131
5.8817792 -4.1780186 1.342854
5.8903208 -4.1626377 1.3290102
5.8905158 -4.1716223 1.3342212
5.8997769 -4.1584878 1.3303999
5.895916 -4.144062 1.3313166
5.9036131 -4.1334496 1.3395888
5.9139242 -4.1345353 1.3269792
5.9126344 -4.1135168 1.342366
5.9276342 -4.1075397 1.3302758
5.9226823 -4.0970416 1.3422803
5.9302611 -4.0931129 1.3330923
5.932869 -4.0864773 1.3310907
5.9416218 -4.0854702 1.3319019
5.9555736 -4.0810137 1.3376367
5.965693 -4.0662189 1.3295783
5.956717 -4.0495157 1.3439053
5.9760022 -4.0482788 1.3289117
5.9826655 -4.0340981 1.3266933
5.9847045 -4.0306721 1.342201
5.9946413 -4.017941 1.3399476
5.9965715 -4.0233626 1.3333555
5.9893017 -4.0118966 1.3451236
6.0000186 -3.997386 1.329616
6.0115352 -3.9946203 1.3302733
6.0087748 -3.9874208 1.3374264
6.0179439 -3.9748709 1.3329755
6.0214286 -3.968698 1.3414464
6.0299082 -3.9615123 1.3357751
6.0361576 -3.9379265 1.3451992
6.0379028 -3.9300313 1.3390156
6.0373826 -3.9258218 1.3390635
6.0502591 -3.9144862 1.3422232
6.0548916 -3.918026 1.3315312
6.0640049 -3.8956299 1.3352346
6.0737634 -3.9015634 1.3377599
6.0706635 -3.8838851 1.3444494
6.0831003 -3.8882675 1.3289182
6.0839968 -3.8697047 1.3321718
6.0992098 -3.8704147 1.3306022
6.1038356 -3.8548901 1.3285112
6.1022654 -3.8453841 1.3422055
6.1007314 -3.8284888 1.3388035
6.102345 -3.8324363 1.3434222
6.113255 -3.8127341 1.3419895
6.1278563 -3.8087254 1.3261683
6.1249709 -3.7932563 1.339563
6.1287632 -3.7907782 1.3401052
6.1370125 -3.7928202 1.3307326
6.1485033 -3.7850533 1.3321646
6.1584129 -3.7580538 1.3406286
6.1462193 -3.7580051 1.3300982
6.1677079 -3.7448597 1.327955
6.1657825 -3.7354572 1.3333491
6.1684637 -3.7404902 1.3299224
6.1697006 -3.7162552 1.3419745
6.0083423 -3.6195116 1.3862016
6.026988 -3.6052332 1.3791178
6.0261641 -3.6080034 1.3814394
6.0359559 -3.5845687 1.3829679
6.0271678 -3.5764985 1.3829285
6.0468321 -3.5658841 1.3743629
6.0359545 -3.5590308 1.390361
6.0429215 -3.559341 1.3871719
6.0552711 -3.5421958 1.390353
6.0641823 -3.5490282 1.3891652
6.065134 -3.5356591 1.3753946
6.0650568 -3.5286939 1.3875167
6.0778837 -3.5075903 1.388476
6.0730209 -3.5017211 1.3844703
6.0896745 -3.4896543 1.3801281
6.0862765 -3.4829259 1.3779866
6.0943017 -3.4720664 1.3742775
6.0983124 -3.4792187 1.3818306
6.0991225 -3.4589891 1.3780941
6.1031022 -3.4548039 1.3790838
6.1058817 -3.4546115 1.3849939
6.1148791 -3.4394283 1.389414
6.1159863 -3.4363387 1.3864751
6.118041 -3.4230204 1.3809363
6.1360784 -3.4179451 1.3789883
6.1297612 -3.4011528 1.3752857
6.1412911 -3.4012084 1.3739531
6.1490993 -3.3821144 1.3769716
6.1444492 -3.3870597 1.3717165
6.1560502 -3.3728633 1.3821363
6.1686292 -3.3607128 1.3842319
6.1671062 -3.3443789 1.372987
6.169991 -3.3517394 1.3763018
6.1699252 -3.3418353 1.3843977
6.184309 -3.3186719 1.3890251
6.0052495 -3.234143 1.4271386
6.0138297 -3.2155271 1.4313954
6.0210652 -3.2138453 1.4261826
6.0313072 -3.2015443 1.4274542
6.036283 -3.1823609 1.4343454
6.0316663 -3.1753051 1.4248036
6.0291338 -3.1744671 1.4230058
6.0353446 -3.1754267 1.4252508
6.0448585 -3.1611228 1.4287968
6.0424562 -3.1570942 1.4268966
6.0646701 -3.1452892 1.4284602
6.0597415 -3.12941 1.4202567
6.0590577 -3.1307893 1.4253458
6.0731492 -3.1064086 1.43434
6.0685005 -3.1015232 1.4341159
6.0707316 -3.1057131 1.4325392
6.0834088 -3.0968828 1.4233862
6.0942764 -3.0862772 1.424853
6.0873771 -3.0705817 1.4321967
6.104012 -3.0617001 1.435136
6.0987349 -3.0550051 1.4214413
6.0950093 -3.0576274 1.4351805
6.1030684 -3.04531 1.4190891
6.1162047 -3.0232658 1.4189206
6.1183238 -3.0302234 1.4351741
6.1202064 -3.0192912 1.4187679
6.1205006 -3.0000112 1.4227163
6.1316295 -2.9941814 1.4287884
6.2991781 -3.0652325 1.3768244
6.3192134 -3.0580227 1.3904921
6.3221755 -3.0603719 1.3823547
6.3314309 -3.0507166 1.3830893
6.3344131 -3.0372603 1.3876295
6.3212914 -3.0349143 1.3856962
6.3279891 -3.0146837 1.3882817
6.3309278 -3.0167935 1.3732698
6.3374481 -3.0028195 1.3890023
6.3479047 -3.0019152 1.3820232
6.5205646 -3.0758386 1.3358778
6.5304642 -3.0505505 1.3333888
6.534019 -3.046582 1.3397472
6.5494232 -3.0376282 1.3269515
6.5455499 -3.0299494 1.3387966
6.5462036 -3.0196376 1.3441665
6.5449114 -3.0068607 1.3409396
6.5661922 -3.0153656 1.3267701
6.5524478 -3.0015583 1.3377353
6.7515993 -3.0624955 1.295516
6.746696 -3.0498478 1.2989912
6.7608781 -3.0515878 1.2986518
6.7525582 -3.0340474 1.2931722
6.7505832 -3.0253639 1.2875321
6.7557998 -3.0248032 1.3004501
6.7728477 -3.0078247 1.2945536
6.7752528 -2.996362 1.2923015
6.7744179 -2.9878294 1.2924062
6.9575796 -3.056011 1.2519301
6.9536238 -3.0473814 1.2476155
6.9726791 -3.0479405 1.2465451
6.9751959 -3.0385895 1.2543257
6.9773593 -3.0218177 1.2502316
6.97403 -3.0112665 1.2453996
6.9850473 -2.9997315 1.2517012
6.9889684 -2.9953682 1.2455482
7.166028 -3.0695832 1.1961752
7.1818805 -3.0517995 1.191134
7.177824 -3.0332136 1.2072324
7.1785212 -3.0228601 1.2022549
7.1948895 -3.0177147 1.2070073
7.1901736 -3.014302 1.1913933
7.1932244 -2.9929616 1.202828
7.1921673 -2.9991727 1.1950848
7.3861585 -3.0533483 1.1638973
7.3866467 -3.0527742 1.1525763
7.4009681 -3.0383704 1.1540706
7.3911457 -3.0323889 1.1633459
7.3962674 -3.0147252 1.1611986
7.3974733 -3.0006115 1.1593902
7.4136877 -2.9943626 1.1527067
7.5952563 -3.0500588 1.1141655
7.6006818 -3.0536468 1.1121765
7.597527 -3.0424833 1.1139381
7.6066141 -3.0214 1.1062526
7.6097431 -3.0040958 1.10884
7.6215363 -2.9967232 1.1155243
7.614809 -2.9834113 1.1178769
7.7986636 -3.0604436 1.0623304
7.8191338 -3.0489845 1.0558167
7.8177805 -3.0255067 1.0652214
7.8097281 -3.0252576 1.0616038
7.8283634 -3.0038512 1.0638037
7.8249946 -2.9898529 1.0665665
8.0052843 -3.0607264 1.0145621
8.016058 -3.0427201 1.0144936
8.0294037 -3.0371296 1.0111793
8.029418 -3.0224607 1.0105528
8.0317698 -3.009438 1.0135056
8.0438032 -3.0002089 1.0170283
8.0493069 -2.9965816 1.0131339
8.2267847 -3.0531788 0.97334367
8.2381392 -3.0271647 0.96929687
8.2316771 -3.028722 0.96833563
8.247962 -3.0160897 0.97530258
8.2374706 -2.996953 0.9690972
8.4299488 -3.0553873 0.93205374
8.4361353 -3.051127 0.92373276
8.441679 -3.028738 0.93723822
8.4501581 -3.0185227 0.92877066
8.4421444 -3.0069952 0.93272233
8.4502201 -3.0047503 0.93680179
8.6473398 -3.0605326 0.89017665
8.6368799 -3.0416324 0.87575722
8.6454411 -3.0306699 0.88248354
8.6609535 -3.0144055 0.87685406
8.6502438 -2.9929078 0.88795471
8.667717 -2.989491 0.89155567
8.8409986 -3.0483685 0.84053588
8.8437109 -3.0391569 0.83320349
8.8579388 -3.0221772 0.84562105
8.856102 -3.0013239 0.82849991
8.858326 -2.9911435 0.82893389
5.7562513 -4.9786839 1.2985431
5.7644348 -4.9741893 1.308295
5.7728996 -4.9785028 1.2992533
5.7760615 -4.9590969 1.2973961
5.7845564 -4.9597087 1.2970837
5.776073 -4.9441171 1.3079872
5.7866483 -4.9395695 1.3011264
5.8032646 -4.9313388 1.3020452
5.8139853 -4.9164467 1.2981808
5.8053818 -4.9240808 1.2914113
5.8231864 -4.8991251 1.3106077
5.8175297 -4.8929482 1.3062801
5.8416133 -4.8852587 1.3096111
5.8366442 -4.8813477 1.3043102
5.8498063 -4.8758712 1.3103502
5.8626447 -4.8657956 1.3039246
5.866375 -4.8520522 1.2939795
5.8632331 -4.8485885 1.304189
5.8809986 -4.8412876 1.3012044
5.8748884 -4.8294635 1.3024896
5.8819971 -4.8266969 1.3006256
5.8882909 -4.8164377 1.2968231
5.8902454 -4.8089337 1.292586
5.9155197 -4.7932267 1.3041258
5.9154816 -4.7911744 1.2929987
5.9214721 -4.7830892 1.3037935
5.9210248 -4.7780666 1.3001696
5.9306216 -4.762969 1.2918373
5.9304161 -4.7568765 1.3026242
5.9472146 -4.7436538 1.297044
5.9452863 -4.7500701 1.3060302
5.961483 -4.7369294 1.2970656
5.973865 -4.7285595 1.3073858
5.9819989 -4.7216291 1.305184
5.9816604 -4.7014394 1.2967964
5.9901834 -4.7019501 1.308247
5.9894896 -4.6895866 1.296463
6.0051603 -4.6942949 1.2915107
6.0124869 -4.6858644 1.3043755
6.0105886 -4.6672807 1.3021784
6.0230985 -4.657258 1.3052708
6.0245829 -4.6576605 1.2932003
6.0370913 -4.6522903 1.3011872
6.0399075 -4.6253853 1.3077826
6.0405107 -4.6254053 1.3062371
6.0527143 -4.6234775 1.2958409
6.0563569 -4.6088071 1.3094583
6.0682034 -4.6050177 1.3100092
6.0750856 -4.6004419 1.3106227
6.0748215 -4.5842934 1.3014432
6.0923481 -4.5821509 1.2939006
6.0929551 -4.5650296 1.2975605
6.10148 -4.5618939 1.2981862
6.0979795 -4.5424232 1.2973037
6.1010633 -4.5488195 1.307979
6.1225891 -4.5294704 1.2921509
6.1137071 -4.5329256 1.3025528
6.1384301 -4.5109687 1.3082948
6.1436925 -4.5085521 1.310154
6.1495562 -4.4928107 1.2996949
6.1462288 -4.4859428 1.3029016
6.1553464 -4.4848547 1.2947444
6.1681123 -4.4816175 1.301229
6.1614919 -4.4682446 1.2986813
6.0159636 -4.3436332 1.3450441
6.0189524 -4.3385634 1.3384165
6.0261011 -4.3287044 1.3398042
6.0236397 -4.3204384 1.3546103
6.0469089 -4.3132148 1.3432858
6.0520258 -4.3064198 1.3391461
6.0466714 -4.2892332 1.3533101
6.0645118 -4.2891974 1.3399882
6.0541835 -4.2826529 1.3413211
6.0703282 -4.2689738 1.3474358
6.0839128 -4.2490425 1.3350552
6.08003 -4.2521839 1.3393567
6.0895076 -4.2342262 1.3451209
6.1003609 -4.2247667 1.3507464
6.1060085 -4.2180648 1.3351823
6.1003199 -4.2122602 1.3379915
6.1104798 -4.1978126 1.3495572
6.1147914 -4.191515 1.3527201
6.1257696 -4.1815248 1.3539809
6.1180682 -4.1813569 1.3404657
6.1364703 -4.1735601 1.3384182
6.1424794 -4.1555896 1.3447577
6.1527781 -4.1540737 1.340575
6.148829 -4.147624 1.337363
6.1504936 -4.1414347 1.3523567
6.1565819 -4.1268306 1.3446499
6.1654677 -4.1279511 1.3428776
6.0036907 -4.0021625 1.3827007
6.0271297 -3.999953 1.3801655
6.0318174 -3.9912937 1.3892602
6.0229788 -3.9700694 1.3976059
6.0320807 -3.9686611 1.3953681
6.0475101 -3.9627671 1.3860843
6.0387454 -3.9466233 1.3946798
6.0467567 -3.9346044 1.380886
6.0497499 -3.9422746 1.3931097
6.0650244 -3.9268243 1.3956184
6.0585151 -3.916688 1.3868432
6.0679984 -3.9087029 1.3918934
6.074934 -3.9016082 1.3972112
6.0909529 -3.8889191 1.3953537
6.0953054 -3.892683 1.386497
6.0974088 -3.8865607 1.3951192
6.0902162 -3.8747346 1.3914621
6.1116071 -3.8604169 1.3913933
6.1191921 -3.8486137 1.3952161
6.1189895 -3.8470323 1.3860431
6.1212835 -3.8374443 1.3985527
6.1347899 -3.8238463 1.3905859
6.1333351 -3.808773 1.3812449
6.1371861 -3.8031301 1.3961164
6.1391678 -3.7985716 1.3787396
6.1522803 -3.7973354 1.3789934
6.1540036 -3.7887053 1.3825738
6.1520576 -3.784086 1.391965
6.1700306 -3.7572711 1.3846446
6.1718149 -3.756037 1.3903838
6.1844139 -3.757875 1.3971812
6.0227523 -3.6302111 1.4328586
6.0197287 -3.6309266 1.4312456
6.0273523 -3.6131215 1.4267236
6.0298357 -3.6186538 1.4382007
6.0349307 -3.5963798 1.4423472
6.0402679 -3.5976772 1.4265493
6.0491734 -3.5862036 1.4267893
6.0474586 -3.5820272 1.4252551
6.0584116 -3.5613258 1.4363585
6.0550919 -3.553272 1.4370202
6.0585575 -3.5453565 1.4353853
6.0738702 -3.5455461 1.4246495
6.0675578 -3.5431817 1.423326
6.0767121 -3.523392 1.4280708
6.0773311 -3.5235536 1.4266828
6.0820851 -3.503413 1.4355836
6.0910292 -3.4993894 1.4275373
6.1002016 -3.5020919 1.4352394
6.1078277 -3.4788406 1.4352083
6.1065454 -3.4838967 1.4347891
6.1059127 -3.4704626 1.4338366
6.1236334 -3.46668 1.4242388
6.1306067 -3.4541619 1.4285429
6.1362438 -3.4374301 1.424167
6.1266146 -3.4450078 1.4311531
6.1355848 -3.4327486 1.4297966
6.1334443 -3.41645 1.4239734
6.1432452 -3.4158723 1.4269509
6.1607366 -3.3925495 1.4246756
6.158185 -3.3953786 1.4288335
6.1552019 -3.3836977 1.4379081
6.1712542 -3.3791418 1.4422408
6.1776972 -3.3724465 1.4305607
6.1684318 -3.3649356 1.4270744
6.1747789 -3.3518643 1.4274659
6.0165901 -3.2415378 1.4753846
6.0084128 -3.2314603 1.4672248
6.0144005 -3.2363558 1.4710782
6.0233541 -3.2285225 1.4696829
6.0300207 -3.2079916 1.4768807
6.040833 -3.2151821 1.4671748
6.0407085 -3.1910467 1.4734336
6.0449052 -3.1851828 1.4777899
6.0574098 -3.1732869 1.4810526
6.0464163 -3.1797345 1.468776
6.0558023 -3.1575398 1.4851257
6.0692768 -3.1480589 1.4831685
6.0745792 -3.1371155 1.4679248
6.0637236 -3.1417317 1.4721173
6.0714602 -3.1241829 1.4684374
6.0863833 -3.1203115 1.4691573
6.0915885 -3.1210427 1.4855968
6.0830412 -3.1020441 1.4794776
6.0988379 -3.0949953 1.4768262
6.0978851 -3.0833831 1.4792923
6.1046443 -3.0868156 1.4755123
6.1077409 -3.0611932 1.4727659
6.1088686 -3.0546761 1.47251
6.1147408 -3.0634103 1.4791784
6.124794 -3.0487914 1.4749299
6.131155 -3.0436218 1.4860812
6.1182241 -3.0376074 1.4680234
6.1217203 -3.0244892 1.4804807
6.1390858 -3.0199111 1.4714967
6.1337881 -3.0006101 1.485629
6.1509442 -2.9988632 1.4678268
6.319685 -3.063895 1.4233199
6.3304105 -3.0662692 1.4406352
6.3408675 -3.0470481 1.4406961
6.3379803 -3.0420396 1.4268498
6.3308325 -3.0349238 1.4296412
6.3548241 -3.0249803 1.4299092
6.340745 -3.01577 1.4347515
6.3591108 -3.013412 1.4356223
6.3484807 -3.0005577 1.4272383
6.3519702 -2.9947412 1.4320397
6.5341992 -3.0628595 1.3849972
6.53929 -3.0611782 1.3905816
6.5416832 -3.0533166 1.3865628
6.5641246 -3.0326066 1.3787223
6.5527067 -3.0232964 1.3891617
6.5640678 -3.014235 1.3807026
6.5756836 -3.00348 1.3926059
6.5721292 -2.9985743 1.3980134
6.5694332 -2.988502 1.3874155
6.7559247 -3.0600226 1.3499497
6.7697325 -3.0489063 1.3424304
6.760304 -3.0369809 1.3474685
6.7764468 -3.026931 1.3512384
6.7685575 -3.0186961 1.3465825
6.7728148 -3.0261221 1.3420951
6.7874975 -3.0064178 1.3375216
6.7937088 -2.999315 1.3545494
6.9702868 -3.0588756 1.3035045
6.9738922 -3.0661719 1.2971858
6.986886 -3.0487406 1.2910674
6.9862194 -3.0417805 1.3066403
6.9780197 -3.0285151 1.3047075
6.9948444 -3.02336 1.3033878
6.9954257 -3.0103343 1.30086
6.9913378 -2.997278 1.3014576
7.182096 -3.0706573 1.2484858
7.1890264 -3.0648704 1.2569751
7.1929712 -3.0451694 1.2553411
7.1896758 -3.0261471 1.2566892
7.2000475 -3.0184009 1.2657411
7.2042871 -3.0155783 1.2520195
7.2040854 -3.005198 1.261824
7.2219372 -3.0022225 1.2670381
7.3986502 -3.0577788 1.2117078
7.3927307 -3.0464766 1.2034956
7.4073939 -3.0479524 1.2090462
7.4128904 -3.0267794 1.2103646
7.4068618 -3.0259302 1.2213584
7.4191842 -3.0126302 1.2213434
7.4328408 -2.9931989 1.2190372
7.6164532 -3.0668864 1.1656916
7.6055131 -3.0516028 1.176496
7.6243625 -3.0426655 1.1602212
7.6284113 -3.0213945 1.1732265
7.6209335 -3.0103173 1.1672156
7.6252294 -3.0088367 1.1694047
7.6350608 -3.0061052 1.1624367
7.8278198 -3.0649946 1.1221628
7.8300333 -3.0441635 1.1286657
7.8322163 -3.0338783 1.1242522
7.8320775 -3.0250869 1.1289297
7.8423972 -3.0115108 1.1182785
7.8435059 -3.0033457 1.1259464
7.8483248 -2.9953778 1.124261
8.0284472 -3.0487003 1.0792037
8.0403261 -3.0321066 1.08881
8.034379 -3.0298824 1.0905057
8.0414486 -3.0207098 1.0740253
8.0520477 -3.0135949 1.0874684
8.0491333 -2.9885526 1.0802838
8.2446795 -3.0559418 1.0471523
8.2420931 -3.0489287 1.0404907
8.2488394 -3.0250165 1.0310631
8.2432375 -3.0204804 1.0386666
8.2559338 -3.0023146 1.0315871
8.2673759 -2.9965303 1.0298982
8.4518623 -3.0474565 0.99540532
8.4546671 -3.0287688 1.002689
8.4609747 -3.0236964 0.98586673
8.4607086 -3.0057364 1.0028598
8.4732428 -2.9993024 0.98928356
8.4764471 -2.9997168 0.99122643
8.6569777 -3.0426097 0.94176263
8.6641502 -3.0300984 0.94914818
8.6589098 -3.0291042 0.94318783
8.6665726 -3.0008655 0.9514941
8.6725292 -2.9957759 0.94386882
8.8722496 -3.0558326 0.89932668
8.8748713 -3.0298729 0.91188455
8.8806543 -3.0284038 0.91060501
8.8834124 -3.01861 0.90395623
8.8725767 -2.9898043 0.90508395
6.0202489 -4.9874072 1.3105196
6.0430884 -4.9735317 1.3178284
6.0462265 -4.9585361 1.3201973
6.0516829 -4.9521894 1.305832
6.0620327 -4.9473844 1.3124477
6.0558414 -4.9437246 1.3191956
6.0748415 -4.935914 1.3145285
6.0693512 -4.9219685 1.3105283
6.0877028 -4.9149566 1.309126
6.0814619 -4.9107261 1.3095702
6.0949092 -4.8982477 1.3150884
6.1079426 -4.8898854 1.3060771
6.108273 -4.8853292 1.3236468
6.1109605 -4.8822489 1.3191389
6.1192708 -4.8557391 1.3110021
6.1341848 -4.86233 1.3180816
6.1358347 -4.8568172 1.3045182
6.1528053 -4.8436799 1.3164375
6.1457644 -4.8390646 1.3068962
6.1573086 -4.8275523 1.313103
6.1692853 -4.809442 1.3232963
6.0127668 -4.6847763 1.3557423
6.0210586 -4.6671815 1.361842
6.0269084 -4.6737137 1.3625019
6.0282383 -4.6587381 1.3611411
6.0414195 -4.6556392 1.3646504
6.0416689 -4.6376691 1.3651235
6.0483432 -4.6294951 1.3501753
6.0669246 -4.6351175 1.3512745
6.075953 -4.6159377 1.355309
6.0711765 -4.6115127 1.3488671
6.0765815 -4.596324 1.3581347
6.0920286 -4.5993819 1.3566068
6.093564 -4.5831184 1.3601472
6.095747 -4.5720401 1.3502547
6.1165576 -4.5742846 1.3550432
6.1208658 -4.5627718 1.3493749
6.1256351 -4.5510654 1.3634448
6.1354442 -4.547246 1.3634475
6.1263409 -4.5408554 1.3541758
6.1412597 -4.5256863 1.3608662
6.1497245 -4.5115452 1.3542737
6.1474457 -4.508379 1.3561417
6.1636262 -4.4900866 1.3657838
6.1633358 -4.4960089 1.358005
6.0151935 -4.3723731 1.401866
6.009614 -4.3661575 1.4063312
6.0183549 -4.3415346 1.393977
6.0211539 -4.3334537 1.3969077
6.0439434 -4.3408146 1.3976858
6.0374498 -4.3195834 1.4050807
6.0576348 -4.3162017 1.3980553
6.0512156 -4.3014021 1.4056265
6.0666528 -4.2967124 1.4029114
6.0717201 -4.2985926 1.4056865
6.0689969 -4.2769346 1.4083679
6.0877309 -4.2669501 1.4088806
6.0909185 -4.2543073 1.4056231
6.0817404 -4.2649369 1.4020454
6.0954804 -4.2388358 1.4026968
6.1099873 -4.245276 1.3961613
6.111877 -4.2375665 1.4045805
6.106729 -4.2223001 1.399364
6.1291409 -4.2176094 1.3903936
6.1288257 -4.2138515 1.3910912
6.1312733 -4.1988058 1.4049864
6.1363907 -4.1910024 1.4003973
6.1420088 -4.1859765 1.3999735
6.1443572 -4.1760826 1.4004349
6.163116 -4.1583891 1.3985035
6.1625147 -4.1521192 1.4016303
6.1753654 -4.1498766 1.4039561
6.0144491 -4.0295897 1.435421
6.0103264 -4.0221095 1.4406583
6.0172215 -4.0008268 1.4411182
6.0248027 -4.0029669 1.4480809
6.0262675 -3.9858479 1.4342952
6.0431309 -3.9889576 1.4369755
6.0395594 -3.975553 1.4409822
6.056437 -3.9692123 1.4341061
6.0513721 -3.9692838 1.4449162
6.0694218 -3.9423032 1.4493763
6.0697851 -3.939851 1.436425
6.0792103 -3.9271441 1.4425718
6.0738611 -3.9331524 1.4416113
6.0889597 -3.9171791 1.4501133
6.0910091 -3.9053283 1.4473289
6.0992613 -3.9021895 1.4330217
6.0901814 -3.8881865 1.4436979
6.1050968 -3.8828578 1.4322861
6.1131244 -3.8681345 1.4323664
6.1119499 -3.8608904 1.450983
6.1152234 -3.8587997 1.4435999
6.1255341 -3.8527887 1.4404641
6.1219792 -3.8376205 1.4428524
6.1374521 -3.832835 1.4327391
6.1414151 -3.8314698 1.4459938
6.1425815 -3.8073101 1.4338969
6.1494288 -3.7976763 1.4473052
6.1669407 -3.7985611 1.4375367
6.1730285 -3.7968409 1.4339781
6.1591849 -3.7817054 1.4491428
6.1839457 -3.7686949 1.4378703
6.0145683 -3.6687815 1.4864643
6.0086441 -3.6600094 1.4792916
6.0250964 -3.6411273 1.4883535
6.0314236 -3.6436334 1.4902225
6.0309935 -3.630312 1.4876851
6.038455 -3.6154702 1.4862083
6.0393133 -3.6084321 1.4752661
6.0503912 -3.6006093 1.477456
6.0578985 -3.5919216 1.4861857
6.0605588 -3.5837522 1.479323
6.0719347 -3.5834844 1.4817846
6.0695014 -3.5742538 1.4846333
6.0798836 -3.5536726 1.4779723
6.0793157 -3.5518537 1.4804062
6.080605 -3.5355422 1.4877553
6.0793452 -3.5368357 1.4815331
6.0965967 -3.5223255 1.4739287
6.1028938 -3.5217803 1.4857197
6.1113696 -3.5187585 1.4777641
6.1085625 -3.4980955 1.4895365
6.1188812 -3.4910641 1.4931283
6.1116495 -3.4914615 1.4774951
6.127255 -3.4664607 1.4739809
6.1361871 -3.4669998 1.4838163
6.1275411 -3.4512095 1.4814866
6.1462326 -3.441628 1.4893802
6.13869 -3.4397311 1.483294
6.1435308 -3.4364617 1.489256
6.1601505 -3.4296298 1.4897358
6.1488028 -3.4105058 1.482368
6.1692157 -3.4059522 1.4935139
6.1732082 -3.3935075 1.4757382
6.1615558 -3.3903229 1.4744319
6.1663766 -3.3830595 1.4840485
6.1810212 -3.3692837 1.4809103
6.0217986 -3.2679338 1.5211941
6.0218525 -3.2528963 1.5324244
6.0158081 -3.2578237 1.5183593
6.0357141 -3.2509253 1.5225542
6.0360885 -3.2401567 1.5172948
6.0290833 -3.2337451 1.5280038
6.0332117 -3.2280993 1.5225658
6.0395532 -3.218852 1.531714
6.0445762 -3.209518 1.5195203
6.0592041 -3.1902614 1.5324908
6.0506825 -3.1834123 1.5244808
6.060041 -3.1810768 1.5231233
6.0606179 -3.1693411 1.5284464
6.0671177 -3.1622434 1.53227
6.0778008 -3.1593037 1.518458
6.0832129 -3.1478901 1.5226468
6.0793219 -3.1368566 1.5240645
6.0899811 -3.1239789 1.5263062
6.0897765 -3.1105633 1.5294522
6.0973663 -3.1069934 1.5234191
6.0979152 -3.0964072 1.5357931
6.1104417 -3.1009126 1.5220543
6.1015992 -3.0892794 1.5315968
6.1180677 -3.0755727 1.5197761
6.1183481 -3.0755978 1.5224282
6.124804 -3.0546136 1.5280209
6.1354375 -3.0419116 1.536168
6.1274767 -3.0429296 1.5287074
6.1417451 -3.0285196 1.5261708
6.1391482 -3.0308752 1.5187067
6.1505055 -3.0170257 1.5333251
6.1542253 -3.0149813 1.5349282
6.1441946 -3.0060997 1.5196489
6.339354 -3.07077 1.4871629
6.3471403 -3.0734985 1.4885159
6.3375664 -3.0540547 1.482319
6.3535728 -3.04825 1.4802845
6.3577142 -3.0346668 1.4886861
6.354382 -3.0310631 1.4829462
6.3685017 -3.0142932 1.486293
6.3551445 -3.01039 1.4749258
6.3763933 -3.0069797 1.4770335
6.3792329 -2.9978008 1.4794476
6.5436201 -3.0765629 1.4319309
6.5611773 -3.0683362 1.435245
6.5600743 -3.0539672 1.4491645
6.572762 -3.047863 1.4400443
6.5634027 -3.041877 1.4356571
6.5824318 -3.0234692 1.4460173
6.5757084 -3.0151768 1.4442853
6.592319 -3.0044634 1.4375882
6.5775495 -2.996711 1.4454275
6.7627463 -3.0713391 1.3911742
6.7725859 -3.0613329 1.3949162
6.7772875 -3.058058 1.3977463
6.7852898 -3.0401616 1.4058011
6.7871985 -3.0338402 1.3908092
6.7999735 -3.0211287 1.3926471
6.7883482 -3.0136251 1.4037303
6.8070703 -2.9970701 1.3939377
6.8040466 -2.988116 1.4056842
6.9931884 -3.0569119 1.3536114
6.9913902 -3.0435374 1.3611391
6.9977174 -3.0446095 1.3492326
7.0077724 -3.0252531 1.3511547
7.0006442 -3.0221543 1.3615212
7.0015569 -3.0213935 1.3487511
7.0074644 -3.0120912 1.3592284
7.0151958 -2.9986341 1.3477391
7.1937413 -3.067441 1.3209375
7.2028432 -3.0464358 1.3159999
7.2036777 -3.0393448 1.3115602
7.2148166 -3.0383289 1.3107516
7.2134695 -3.0152497 1.3191218
7.2202015 -3.0063653 1.3170933
7.2288418 -3.0088453 1.3084024
7.2278347 -2.9946353 1.3107052
7.4146338 -3.053493 1.270146
7.4114099 -3.0537965 1.2756566
7.4166822 -3.0394804 1.2793542
7.4175301 -3.0203376 1.2740154
7.4334259 -3.0046215 1.2657202
7.4448676 -3.0020134 1.2683874
7.4354858 -2.9849854 1.2640746
7.6157732 -3.0584416 1.2361892
7.6328063 -3.0542119 1.2381443
7.6411333 -3.0351801 1.2242323
7.6317487 -3.0141163 1.2361457
7.6441813 -3.0205433 1.2374148
7.6421099 -3.0059507 1.222653
7.6437211 -2.9947481 1.2366812
7.8419962 -3.0430954 1.1936752
