# .PCD v0.7 - Point Cloud Data file format
VERSION 0.7
FIELDS x y z
SIZE 4 4 4
TYPE F F F
COUNT 1 1 1
WIDTH 1514
HEIGHT 1
VIEWPOINT 0 0 0 1 0 0 0
POINTS 1514
DATA ascii
-6.580802 2.5069079 0.7622239
-6.5897031 2.4994986 0.76560026
-6.5866265 2.4817297 0.77035207
-6.5904408 2.4845972 0.7612589
-6.5896368 2.461834 0.77246773
-6.5978985 2.4670911 0.76208508
-6.6050186 2.4549725 0.7571345
-6.6032681 2.4321547 0.75838655
-6.6036468 2.4313545 0.75621003
-6.6108661 2.4168324 0.76423949
-6.6120033 2.421006 0.75614762
-6.6256542 2.3997507 0.76985568
-6.6159158 2.3850317 0.75500923
-6.6214128 2.3899453 0.77224934
-6.6359901 2.3790965 0.75595021
-6.6393456 2.3634071 0.7541368
-6.6330705 2.3640058 0.76943833
-6.6317334 2.34975 0.77116024
-6.6491308 2.3384984 0.76132494
-6.6486921 2.3233964 0.76621532
-6.6602111 2.3105145 0.76453161
-6.4796858 2.2451463 0.83159238
-6.485476 2.2352777 0.83245331
-6.4860997 2.2232299 0.82749414
-6.489471 2.2199104 0.82095742
-6.4891281 2.2165275 0.82800686
-6.4905868 2.2026985 0.8249352
-6.4967308 2.1934733 0.81689262
-6.5011401 2.1901038 0.82688767
-6.4953723 2.1704135 0.83107483
-6.5047011 2.1624317 0.83167821
-6.4957013 2.1580667 0.8183952
-6.50037 2.1510265 0.82429928
-6.5041656 2.1464648 0.82721591
-6.5129075 2.1216216 0.81587738
-6.5081735 2.1201978 0.83022481
-6.516377 2.1203799 0.81981653
-6.5276399 2.0974698 0.82926047
-6.5269322 2.0931892 0.82441652
-6.5362172 2.0777028 0.82896811
-6.5413017 2.075901 0.81462806
-6.5257707 2.0661004 0.82501739
-6.5435095 2.0546186 0.81746507
-6.5353317 2.0423172 0.81445366
-6.5442243 2.0442369 0.8157059
-6.3623381 1.9777316 0.8853879
-6.3681178 1.9623235 0.88362473
-6.3642941 1.9585778 0.88807058
-6.3710136 1.9384515 0.87735909
-6.3825645 1.9319401 0.88028854
-6.3695517 1.9232305 0.89054763
-6.3708658 1.9129262 0.88014132
-6.3817787 1.9077443 0.88739288
-6.3802314 1.8935888 0.89148635
-6.3816833 1.8933762 0.88664675
-6.3818703 1.8757683 0.88056237
-6.393105 1.8751124 0.88797086
-6.3860908 1.8610002 0.88053834
-6.394618 1.8628756 0.88188815
-6.3938441 1.8558949 0.88563889
-6.4101286 1.8446095 0.88959616
-6.3961415 1.8346795 0.892169
-6.4125481 1.8164941 0.87848347
-6.4016905 1.8225011 0.87956965
-6.4067268 1.809689 0.88937432
-6.4165907 1.7993102 0.89050573
-6.4125261 1.7803041 0.87991947
-6.4210405 1.7709076 0.88416284
-6.416975 1.7755666 0.87922734
-6.4315467 1.7635695 0.87626016
-6.4223557 1.7578459 0.89096034
-6.4291945 1.7486548 0.88468683
-6.4334483 1.7255901 0.88918775
-6.2472162 1.6669544 0.94940156
-6.2439756 1.6749959 0.94502771
-6.2509184 1.6556692 0.9392454
-6.2567177 1.6428901 0.9434309
-6.2530909 1.6440669 0.94719726
-6.2652082 1.6317673 0.94460332
-6.262249 1.6273408 0.93899655
-6.2622447 1.6145386 0.93665385
-6.2675281 1.5973176 0.9541111
-6.2790728 1.5982507 0.93749791
-6.2661042 1.5836527 0.94019556
-6.2736521 1.5746095 0.93967855
-6.2855616 1.5609258 0.94858211
-6.2832413 1.5637332 0.95345682
-6.2767229 1.5524454 0.94826192
-6.2864261 1.5513057 0.93952405
-6.2787113 1.5353786 0.93511969
-6.2965903 1.5216969 0.94667602
-6.2968001 1.5249611 0.94977748
-6.2995405 1.4988974 0.94258142
-6.2988815 1.5080069 0.94955963
-6.2955127 1.4917607 0.93627006
-6.2926488 1.4857852 0.93807536
-6.3008685 1.464298 0.95146954
-6.3042016 1.4714847 0.9423604
-6.3127174 1.4511114 0.94089901
-6.3099585 1.4405845 0.95230114
-6.3115916 1.4342972 0.93881518
-6.3016562 1.4299067 0.93738973
-6.3086071 1.4248703 0.93870008
-6.3227415 1.4025749 0.93792212
-6.1237812 1.3647835 1.0104458
-6.1241455 1.3531083 1.0050596
-6.1426926 1.3352582 1.0069971
-6.1278334 1.3361083 1.004935
-6.1420712 1.3304634 1.0113164
-6.1377587 1.3095858 0.99599034
-6.1420321 1.3090712 1.0031992
-6.1397791 1.3004757 1.0148426
-6.1389399 1.2869011 1.0102774
-6.1567783 1.2811512 1.0122473
-6.1553822 1.2702042 1.0061938
-6.1421933 1.2607706 0.99704099
-6.1543789 1.2546557 0.99861693
-6.1646147 1.2452537 1.0096242
-6.1569004 1.2434555 1.0035706
-6.1627927 1.2277998 1.0052259
-6.1639991 1.2296885 1.0149555
-6.1579847 1.2156358 1.0046812
-6.160315 1.2042164 1.0094265
-6.1671982 1.1967404 0.99701822
-6.1720996 1.19243 1.0022621
-6.1630425 1.1830664 1.0066741
-6.163126 1.1632633 1.013575
-6.1816216 1.1549584 0.9996804
-6.1690979 1.1560894 1.0125965
-6.1826158 1.1530379 0.99846792
-6.1744661 1.1304778 1.0148418
-6.1765752 1.135618 1.0057789
-6.1889462 1.1201018 1.0139149
-6.1765599 1.1193643 1.0031955
-6.1765699 1.0953751 0.9967888
-6.1913238 1.1020808 1.0096438
-6.1816535 1.0903287 1.0113232
-6.1850705 1.0816947 1.0133275
-6.1823702 1.0671861 1.005095
-5.9988599 1.0289546 1.0631877
-5.9973035 1.0125073 1.0666143
-5.999361 1.0155168 1.0638198
-6.0104704 1.0077088 1.07415
-6.0134315 0.99382859 1.0723855
-6.0071006 0.9814679 1.0752773
-6.0071645 0.97587079 1.0735221
-6.0143619 0.96144903 1.0686642
-6.0198679 0.96510369 1.0638238
-6.0233579 0.95294017 1.0731285
-6.015069 0.9378745 1.0646521
-6.0094175 0.92577821 1.0681237
-6.0203285 0.93302524 1.0630021
-6.0140219 0.91055268 1.0584718
-6.0173731 0.90649647 1.0684625
-6.0224771 0.91013736 1.0744957
-6.0246778 0.89506859 1.0633368
-6.2172046 0.92147183 1.0054206
-6.2060328 0.89610982 1.0003103
-6.2196894 0.88857692 1.0114471
-6.2240286 0.8906405 0.99593073
-6.2168326 0.87965071 0.99673241
-6.2261524 0.8590343 1.0131972
-6.220582 0.8659966 0.99560726
-6.2195296 0.85086799 1.0023808
-6.2284741 0.85188407 1.0012167
-6.2313738 0.83193654 1.013407
-6.22542 0.82927024 1.0130986
-6.2166276 0.81902736 0.99611825
-6.421948 0.84053075 0.93955404
-6.4271383 0.81449455 0.95448929
-6.4278326 0.81686956 0.94712991
-6.4277129 0.81112748 0.94785082
-6.4111156 0.79214674 0.94423252
-6.4120955 0.79539704 0.95418566
-6.4262896 0.77086908 0.95385665
-6.4216352 0.7645961 0.94228345
-6.424778 0.76541919 0.93674898
-6.4282165 0.75616467 0.94967812
-6.4286232 0.75172234 0.94865543
-6.4248385 0.72322887 0.95057017
-6.615499 0.73616129 0.88309258
-6.6241431 0.72907025 0.87959224
-6.6120529 0.71967834 0.88608938
-6.6235681 0.71039551 0.88481671
-6.6251173 0.70799541 0.88799745
-6.6269827 0.69131398 0.893888
-6.6204081 0.69254136 0.88958603
-6.6193552 0.67136937 0.88501537
-6.6253605 0.67081755 0.88498956
-6.6323752 0.65506428 0.88545895
-6.8271298 0.67739177 0.82611507
-6.8189645 0.6534819 0.8296786
-6.8142858 0.64266747 0.83310759
-6.8230972 0.64133006 0.81651247
-6.8131676 0.63942289 0.82677734
-6.8200445 0.61661696 0.82962227
-6.8210168 0.62133902 0.82295734
-6.8262782 0.6080547 0.82438457
-6.8160968 0.58969307 0.81452543
-6.8259282 0.58523154 0.81817973
-7.0251813 0.59228182 0.75434005
-7.0131397 0.57244968 0.75686723
-7.0175204 0.578197 0.75811523
-7.0184588 0.55602086 0.76756245
-7.0159783 0.54464871 0.76464033
-7.0232196 0.54726124 0.76845133
-7.0276022 0.52974904 0.76652467
-7.0186357 0.52781022 0.76085508
-7.0282283 0.51687402 0.76636648
-7.0276666 0.49691468 0.75696003
-7.2135425 0.50144577 0.70770913
-7.2124143 0.50551224 0.70917976
-7.2087445 0.48598719 0.7062099
-7.2238126 0.46629965 0.71087724
-7.2094197 0.46985447 0.69398677
-7.2179346 0.44691661 0.70952427
-7.2226248 0.44033098 0.69736612
-7.2092271 0.44343269 0.6930865
-7.4117246 0.42856884 0.64694673
-7.4184723 0.42377496 0.63140965
-7.4146118 0.42389083 0.63717991
-7.4192452 0.40581933 0.6371035
-7.4023933 0.39208764 0.6475898
-7.4084973 0.3839438 0.64847726
-7.4099193 0.37083504 0.64300913
-7.408217 0.36983928 0.64469367
-7.4109631 0.34476751 0.64988387
-7.5962148 0.34222162 0.58752549
-7.5953813 0.33920917 0.5902189
-7.5999298 0.33003592 0.57847792
-7.6000009 0.32529545 0.57721311
-7.6142869 0.31647941 0.58823782
-7.6086345 0.30505845 0.57589269
-7.6124811 0.28806266 0.58576632
-7.8058615 0.2768271 0.51215196
-7.7942677 0.28086013 0.52864838
-7.8009748 0.26263279 0.51043773
-7.8024759 0.24998692 0.511518
-7.8055782 0.23864301 0.52021772
-7.8059716 0.22320379 0.51037663
-7.7980905 0.20813221 0.52642822
-7.7914591 0.19919853 0.52429742
-7.9842868 0.20086652 0.46063736
-7.9989514 0.19427623 0.45135894
-7.983727 0.18512125 0.45481265
-8.001359 0.16793349 0.4532012
-7.9824786 0.16439748 0.46426469
-8.0017939 0.13970347 0.45358515
-8.0000124 0.13223557 0.46246496
-8.1800499 0.12736537 0.40606675
-8.1793833 0.10772967 0.40624359
-8.1826477 0.09500777 0.38839132
-8.1880283 0.10022443 0.39857182
-8.1763096 0.071034551 0.39333332
-8.1738539 0.077311762 0.39011145
-8.1879282 0.06618426 0.40087378
-8.3741484 0.054964289 0.33852986
-8.3787403 0.043543551 0.34340698
-8.3739948 0.014084242 0.33198899
-8.380353 0.015286087 0.34419578
-8.3823509 -0.002691963 0.32820615
-8.3841553 -0.0037983414 0.33093411
-8.5743465 -0.030944338 0.26957592
-8.5637884 -0.045752477 0.27121019
-8.5584526 -0.058015622 0.27056164
-8.5563221 -0.064280026 0.27022567
-8.5634127 -0.066157117 0.26929411
-8.5720873 -0.092583373 0.26864812
-8.7464066 -0.096615091 0.20950665
-8.7615852 -0.10488493 0.22401589
-8.7445402 -0.1151593 0.21225347
-8.7634678 -0.12726131 0.211091
-8.7596493 -0.13904321 0.21526936
-8.7564306 -0.1603245 0.21661186
-8.9420719 -0.18031651 0.15692091
-8.9378271 -0.19456135 0.16368015
-8.9339008 -0.19600351 0.16053423
-8.9508886 -0.20624441 0.16293386
-8.9485054 -0.22040686 0.15565012
0.99137139 3.1053526 2.0000265
0.98494238 3.0980744 1.9984083
0.98085678 3.1033072 1.9963211
0.97798789 3.1170273 2.0021644
0.97267228 3.1206741 2.0074744
0.96328455 3.1159821 1.9944843
0.95618707 3.1093769 1.9947813
0.96440411 3.1076238 2.0080688
0.94844723 3.1072862 1.9997159
0.95534652 3.1218457 1.9992586
0.94118929 3.1169796 2.0084064
0.94579399 3.1300023 2.008914
0.92877889 3.1232591 1.9932989
0.92967469 3.1179686 2.0100539
0.93641198 3.1316862 2.0091119
0.9284575 3.1203415 2.0021403
0.92751116 3.1262264 2.007232
0.90686011 3.1246576 2.0092449
0.89949471 3.1314628 2.0096006
0.90377468 3.1295002 2.0032027
0.90759563 3.1377149 2.0106308
0.90056258 3.1348708 2.0097804
0.89403552 3.1393497 2.0008917
0.89189154 3.1290648 2.0054231
0.88650078 3.1298587 2.0023892
0.88016635 3.147042 2.0067332
0.8668586 3.1476243 1.9956912
0.87864083 3.1319027 2.0018153
0.87243432 3.1331646 1.993486
0.86658204 3.1430571 2.0019412
0.85432994 3.1411231 1.9973645
0.84950453 3.1365104 2.008703
0.84382713 3.1497262 2.0032861
0.8492592 3.1451557 2.0063558
0.83922118 3.139554 2.008997
0.82614744 3.1519787 2.0076053
0.83741617 3.1554585 2.0055857
0.81764132 3.1550846 2.0066407
0.82398909 3.1528707 2.0077593
0.82200593 3.1491718 1.997579
0.80847639 3.1575906 2.0042789
0.81036854 3.1655548 2.0051863
0.80359763 3.1522143 1.9981363
0.79140836 3.1686802 2.0053484
0.8022871 3.1594841 2.0057974
0.79580563 3.1615918 1.9975159
0.78793097 3.1593473 1.9915652
0.77803516 3.1617086 2.0040979
0.7691927 3.1548002 1.9932798
0.78146756 3.1702926 1.9976323
0.76356053 3.176641 2.009279
0.77235192 3.1692684 2.0077715
0.76204926 3.1595137 1.9918115
0.76469505 3.1619596 1.9912112
0.75455147 3.1796763 2.0003147
0.74485546 3.1753047 2.0104322
0.7468766 3.1674531 1.9972175
0.74294561 3.1741021 2.0052826
0.73154593 3.1763062 2.0053642
0.72932661 3.1751845 1.9998686
0.73145849 3.1805565 1.9996583
0.72523564 3.1791222 2.0110188
0.71750396 3.1717889 1.9915735
0.71381086 3.1715064 1.9935298
0.70951611 3.1854873 1.9921641
0.6943236 3.1741798 2.0053947
0.68924713 3.1893032 2.0097473
0.69095463 3.1849065 1.999729
0.68072599 3.1935225 2.0109012
0.69057745 3.1843328 1.999944
0.67493206 3.1816902 1.9933574
0.67907512 3.1972413 2.0043411
0.67457724 3.1894786 2.0070026
0.67063278 3.1824422 2.0083985
0.66864336 3.1955316 2.0027988
0.66528702 3.1978505 2.004921
0.65515989 3.1995163 2.0012021
0.64938426 3.1873145 1.9921285
0.65358913 3.1893098 2.0107188
0.64896482 3.1855841 1.9991736
0.63338208 3.1906416 2.0040462
0.63121158 3.2042723 2.0035365
0.62002361 3.1978364 1.9943368
0.63149583 3.1918886 1.9971797
0.62436295 3.208385 1.9921972
0.61162895 3.2059603 2.008625
0.60101599 3.197845 2.005816
0.60668308 3.2083917 2.0099092
0.60327536 3.207582 1.9951074
0.59845674 3.206588 1.9956963
0.58209181 3.194453 2.0004652
0.59059834 3.2045896 1.9979931
0.57859403 3.2079823 2.00822
0.57738894 3.2072923 1.9916401
0.57902563 3.2039154 2.010704
0.57567871 3.2122519 2.0064967
0.56875849 3.2144239 1.9933336
0.55902827 3.206713 2.0098832
0.55339003 3.2200449 2.0047951
0.55294907 3.2130103 1.9978915
0.55309588 3.2140639 1.9980373
0.53801042 3.2080784 2.0075109
0.540452 3.2145438 1.9995739
0.5331195 3.2242608 2.0101502
0.52920598 3.2200723 1.9965593
0.52435529 3.2169955 2.0105205
0.51529628 3.211458 2.0058756
0.51307327 3.2206514 1.992748
0.50739872 3.2086687 1.9921867
0.51663524 3.2207077 2.0038314
0.49896717 3.2173579 1.9957769
0.50144398 3.2233877 2.0009899
0.49339333 3.2163253 1.9919277
0.4974049 3.2263975 1.9918482
0.49199182 3.2170243 2.0068521
0.47298682 3.2272699 1.9980571
0.46794206 3.2329264 2.0030093
0.47825164 3.2208314 1.9964455
0.47543263 3.2275341 1.9971957
0.45205146 3.2279463 2.0092883
0.46031421 3.2351646 1.9973403
0.46052143 3.2293348 2.0107379
0.44594073 3.2199306 1.9963948
0.4422971 3.2190149 1.9914521
0.43857321 3.237164 1.9964708
0.42985225 3.220787 2.0110757
0.43233556 3.223845 2.0106843
0.41977018 3.2216933 1.9975508
0.42064023 3.221204 2.0104797
0.42225972 3.2218163 2.0031865
0.41597095 3.2351747 2.0024836
0.41773346 3.2332242 1.9953293
0.41289267 3.2411783 1.9981554
0.39370808 3.2299747 1.9994565
0.38958004 3.2395339 1.9983039
0.39047 3.2248597 2.0001776
0.38596404 3.2371573 2.004519
0.38106588 3.241379 2.0061247
0.38303363 3.2309606 2.0066636
0.37792939 3.2266526 2.0072429
0.36553124 3.2405477 2.0006151
0.37242949 3.2406976 1.9914782
0.35217285 3.2405 2.0097427
0.35474157 3.2456117 1.9962572
0.35861078 3.2310901 1.9917909
0.34132674 3.2419541 1.9921166
0.34591582 3.2328081 2.0042124
0.33484569 3.2432611 2.0000086
0.32538059 3.2401795 2.0048714
0.33645356 3.2364922 2.0049176
0.32810527 3.2449057 1.9983565
0.31312874 3.2447174 1.9914491
0.30901468 3.2487729 2.0038543
0.30316451 3.2398982 2.0008876
0.30382824 3.2393947 2.0029223
0.30002502 3.2461097 1.99535
0.29654694 3.2419167 1.9981672
0.28516415 3.2511575 2.0109792
0.28957698 3.2354376 2.0002575
0.27885211 3.255296 2.0054026
0.26817295 3.2513115 1.9985219
0.27093211 3.2368567 2.0110197
0.26678336 3.242795 2.0071464
0.2550393 3.2473903 1.9939778
0.26032814 3.2571576 1.9998914
0.24765114 3.2476304 1.9921119
0.24740133 3.2391341 1.9997381
0.24996826 3.2437649 1.9962097
0.24534662 3.2573187 1.9965725
0.23000285 3.2446585 1.9964107
0.23980385 3.2458305 1.9918882
0.22272375 3.2542737 1.992541
0.21814109 3.2430804 1.998768
0.20968455 3.2446558 2.009233
0.20805898 3.2560337 2.0091143
0.21234664 3.2592485 1.9991231
0.20885451 3.2467277 2.0002973
0.19298813 3.2412887 2.0057702
0.19359301 3.2557433 2.0044708
0.19456032 3.2593699 2.0101917
0.19536553 3.2573137 1.9967715
0.19164786 3.2426939 1.9914873
0.16858253 3.2480087 1.9947093
0.17174393 3.2493842 1.9992124
0.16537006 3.2536521 1.9948053
0.15887703 3.2467258 1.9933313
0.16239266 3.2608261 1.9990612
0.14708224 3.2635791 1.999083
0.15724428 3.2514563 1.9932967
0.14610676 3.2448206 2.0108807
0.14068992 3.26351 2.0061581
0.14185254 3.2630024 2.0065722
0.13773075 3.2639503 1.9920636
0.13683063 3.2525806 1.9986993
0.12043344 3.2593584 2.0093782
0.11962901 3.2641649 1.9929122
0.11735034 3.2570093 2.0103345
0.10080132 3.2590654 2.0103037
0.1042739 3.2558062 1.9979506
0.10196 3.2459323 1.9987686
0.097229823 3.2551649 1.9980892
0.087777063 3.2500834 1.9967216
0.078738242 3.2654037 1.9961276
0.075190589 3.264348 2.0039961
0.078278542 3.2514191 1.9984808
0.07204517 3.2622101 1.9976168
0.069345765 3.2552469 2.0094481
0.064068422 3.2562597 2.0031931
0.058760229 3.2652698 1.9935426
0.061098851 3.2564912 1.9938883
0.044255342 3.2475078 2.0033429
0.046732403 3.253597 2.0075986
0.047841836 3.2551732 2.0070636
0.028357217 3.2577274 2.0053685
0.036740966 3.2478957 2.0106461
0.019609373 3.2563565 2.0066226
0.021613775 3.266644 1.9955504
0.015449506 3.2561808 2.0054114
0.02303013 3.2649355 2.0042098
0.00096019695 3.2605555 1.9941629
-0.00076405366 3.2638586 1.9950721
0.0069662612 3.2541654 2.0020168
-0.0010476201 3.2501082 2.0104897
-0.0095962733 3.2510934 2.0014756
-0.019840168 3.2649894 2.0025947
-0.024806499 3.2662804 1.9921459
-0.013796224 3.2541029 1.9919624
-0.033858079 3.260288 2.0012994
-0.024058739 3.2585809 1.9993817
-0.035461005 3.2593307 1.9930804
-0.036910113 3.2628834 2.0100851
-0.037449826 3.2586932 1.997406
-0.051044855 3.2510164 2.0006855
-0.056166757 3.2593176 2.004972
-0.050302614 3.2619019 2.0031826
-0.063319296 3.2640469 2.0027189
-0.066784628 3.2617288 2.0101187
-0.070433334 3.2638757 2.003751
-0.084744833 3.2603486 1.9957294
-0.080973998 3.2499459 2.0085177
-0.083504222 3.2626204 2.004925
-0.089029498 3.2592819 1.9972148
-0.087233737 3.2468746 2.0019064
-0.10215832 3.2538714 1.9949846
-0.11279614 3.2512586 2.0107386
-0.10522309 3.2601552 2.0087357
-0.11811347 3.2501121 2.0045185
-0.12360385 3.260946 2.0025592
-0.1154618 3.2619939 1.9971894
-0.13534093 3.251338 2.0015402
-0.12243144 3.262677 1.998695
-0.13311447 3.2530158 1.9926472
-0.1315075 3.249675 1.9943342
-0.1452086 3.2559342 2.0031667
-0.14583121 3.2560799 2.0095413
-0.15069944 3.248323 2.0049734
-0.15757047 3.2521994 2.01053
-0.16865811 3.2551093 2.0070944
-0.16170493 3.2506847 2.0048866
-0.18012114 3.2509041 1.9922094
-0.17418626 3.2485557 2.0110641
-0.1710961 3.260047 2.0004566
-0.19405341 3.2576678 2.0067139
-0.19532333 3.2461095 1.999442
-0.18776037 3.2584503 1.9925339
-0.19382247 3.2504442 1.9980934
-0.20445202 3.2400885 2.00776
-0.20952456 3.2431657 2.0005734
-0.21803236 3.2577167 2.0092056
-0.20874739 3.2583716 1.9983068
-0.2121391 3.2494812 2.0053155
-0.21667568 3.2482004 2.0040781
-0.23181935 3.2484813 2.00073
-0.24070539 3.2520111 2.0060985
-0.23686279 3.2476218 2.0040891
-0.23992772 3.2416885 1.9943614
-0.25743276 3.2496433 1.9945717
-0.2452707 3.2370424 1.9981595
-0.26029465 3.2404504 1.9966049
-0.2666859 3.2376597 1.9960181
-0.2639755 3.2359929 2.00686
-0.27425566 3.2543049 1.9967465
-0.26577267 3.2419882 2.0072458
-0.28063723 3.2452996 2.0016127
-0.2901327 3.2369678 1.9919351
-0.28163701 3.2500844 1.9966749
-0.30286855 3.2502089 2.0097263
-0.30388916 3.2470078 2.0105402
-0.30132136 3.233295 1.9951319
-0.30030757 3.2377021 1.9973087
-0.31988001 3.2493305 1.998201
-0.30860993 3.2351892 1.997794
-0.32745266 3.2340407 2.005465
-0.31579554 3.2425368 1.9968488
-0.32977074 3.2460463 2.0003083
-0.33342293 3.2425594 1.997298
-0.3323347 3.2423484 1.9948325
-0.33819437 3.2456241 2.0095923
-0.34323937 3.2359736 2.0110719
-0.34369206 3.2318428 1.9973977
-0.36196727 3.2326446 1.9957973
-0.35934937 3.2292211 2.0005071
-0.35713783 3.2314587 2.0045261
-0.36725453 3.2298565 1.9975057
-0.36598665 3.2387817 1.994465
-0.38125864 3.2285566 2.0084143
-0.37954003 3.2239211 2.0026357
-0.38028625 3.2379265 2.000622
-0.3862718 3.2313867 2.0094538
-0.39077699 3.2288933 1.9946566
-0.4089556 3.2326233 2.0011694
-0.4087339 3.2234688 2.0047731
-0.40380156 3.2210231 1.9911355
-0.41484928 3.2329569 1.9964226
-0.41291669 3.230654 1.9911684
-0.41402394 3.2375741 1.9962289
-0.42118111 3.2307069 1.9971998
-0.43411592 3.2275867 1.9927282
-0.4290635 3.2229733 2.0022752
-0.43517855 3.2183468 2.0098939
-0.45608991 3.2200325 2.0018137
-0.45048752 3.2264299 2.0051563
-0.46128041 3.2222493 2.0066366
-0.46571019 3.2315092 2.0006409
-0.46485192 3.2271895 1.9929384
-0.46924686 3.2262495 1.9927585
-0.46858042 3.2226381 2.0063202
-0.48694217 3.2105772 1.9973767
-0.48977455 3.2280531 2.0044413
-0.48305887 3.2238972 2.0075066
-0.48872358 3.2233126 1.9928916
-0.50246763 3.2128119 2.0053141
-0.49286813 3.2159994 1.9942021
-0.50178713 3.2192366 1.9930029
-0.51670098 3.2078114 2.0081427
-0.51931626 3.216469 2.0030077
-0.52211034 3.2102702 1.9949328
-0.53134173 3.2101858 1.9954747
-0.52951568 3.2117443 1.9941763
-0.54062402 3.2044926 2.0094123
-0.52866584 3.2160497 2.00476
-0.53132176 3.2183349 2.0103099
-0.54155403 3.2146909 1.9997561
-0.54289711 3.2065983 1.9931549
-0.54543841 3.208061 1.9958496
-0.55283868 3.2113769 2.0079298
-0.56537294 3.1963658 1.9945452
-0.56598097 3.1965897 2.0018163
-0.566046 3.203105 1.9913924
-0.56740838 3.2029762 1.9944694
-0.57353359 3.1992686 2.0098624
-0.58430988 3.197367 2.0083055
-0.58953506 3.2096944 2.0038762
-0.58531296 3.2051384 1.9921318
-0.60769093 3.2025001 2.002634
-0.60737288 3.1969192 1.9972423
-0.61497343 3.2032607 1.997636
-0.61595744 3.1934497 1.999056
-0.60966915 3.1880279 2.0078001
-0.61380357 3.1856971 1.9972303
-0.63485974 3.2016933 2.0037742
-0.62052172 3.191364 2.009244
-0.62773925 3.2002594 2.0078747
-0.63938481 3.1978254 2.0027895
-0.64277351 3.1974611 1.9959121
-0.65565866 3.1818612 2.0043061
-0.65393436 3.1831057 1.9999001
-0.65181512 3.1878102 2.0065479
-0.66827452 3.1832454 2.0086448
-0.65598845 3.178988 2.0092883
-0.67427093 3.1781144 2.0068111
-0.66600823 3.176018 1.9948945
-0.67227441 3.1911416 1.992769
-0.67990839 3.1790564 2.0091116
-0.6926263 3.1880176 2.0059984
-0.69222027 3.1885276 2.0081992
-0.70341891 3.1751945 1.9925654
-0.69902211 3.1684122 2.0025628
-0.70797616 3.1696007 2.0089285
-0.71483177 3.1675038 1.9919758
-0.72104263 3.1715522 1.995095
-0.70972914 3.1682892 1.9970694
-0.73033094 3.1631849 1.9951252
-0.73305684 3.1748703 2.0020597
-0.73943859 3.1782598 1.9989254
-0.72893232 3.166476 1.9972775
-0.73622364 3.1679132 2.0032792
-0.73914731 3.1581652 2.0034873
-0.75207222 3.1638799 2.0058784
-0.75862992 3.1671541 2.007174
-0.76213872 3.1686313 1.993525
-0.76252681 3.1658347 1.9976265
-0.76093912 3.166847 1.9976434
-0.76129407 3.1695433 2.0103712
-0.77471304 3.1702659 2.0075202
-0.77126473 3.1659017 1.9939238
-0.78946269 3.1586514 2.0028086
-0.78165746 3.1528811 2.002996
-0.7936427 3.1585884 2.0099542
-0.80323499 3.1621387 2.0012496
-0.81153023 3.1465797 1.9950908
-0.81347293 3.1550307 2.0072103
-0.8113125 3.1494656 2.0014234
-0.80913371 3.1479406 1.99942
-0.81422549 3.1573899 1.9992326
-0.82216656 3.1546793 1.9957806
-0.82370239 3.1381612 2.0061839
-0.83635181 3.153837 1.9919286
-0.8288123 3.1419148 2.0044987
-0.8343128 3.1447859 2.0017433
-0.84851646 3.1437459 2.0045593
-0.84887707 3.1451457 1.9969624
-0.85711652 3.1330867 2.0049429
-0.85114115 3.1475859 1.992547
-0.86716753 3.141371 2.0107551
-0.86337954 3.1315913 2.0074136
-0.86304194 3.14465 2.0087209
-0.87229943 3.1294322 2.0068769
-0.87581033 3.1261251 1.99429
-0.88674939 3.1216869 2.0057595
-0.88044208 3.1274133 1.9973804
-0.89131707 3.137145 1.9915985
-0.8897872 3.1230018 1.9949614
-0.90027505 3.1191969 1.9940331
-0.90315706 3.1237268 2.0081058
-0.90782911 3.1164043 1.9936206
-0.91584092 3.1137772 1.9934223
-0.92254376 3.1262484 1.99924
-0.93108869 3.1195633 2.002991
-0.93221867 3.1262915 2.0035503
-0.94187737 3.123678 1.9910879
-0.93991327 3.1145387 2.0096159
-0.94372922 3.1112764 1.9952652
-0.94418049 3.1218719 1.9983804
-0.94555807 3.1139293 2.007302
-0.95286107 3.1056566 2.0101838
-0.95464736 3.1137123 1.9917274
-0.95663023 3.0994036 2.0070369
-0.97279334 3.1008866 1.9969624
-0.96520358 3.1055744 1.9949231
-0.97705275 3.1049366 1.9915835
-0.98136222 3.1105938 2.0004234
-0.98714185 3.0967643 2.0073264
-0.98727012 3.1068113 2.0061562
-0.98428136 3.0998061 1.9983805
-0.992369 3.0898216 2.0036755
-0.99757278 3.1023726 1.9983757
-1.0012312 3.097261 2.0001223
-1.009578 3.1003041 2.0047135
-6.7122779 2.767899 0.76145077
-6.7160764 2.7620838 0.75365382
-6.7063322 2.7542689 0.75586885
-6.710711 2.7403622 0.74482507
-6.7114329 2.7216086 0.75750875
-6.7205944 2.7222457 0.7595228
-6.72684 2.7060361 0.74984825
-6.7256007 2.69363 0.76261091
-6.7348228 2.6929436 0.74606252
-6.7434192 2.6815479 0.75140166
-6.7413898 2.6735363 0.76244068
-6.7484155 2.6655638 0.75704086
-6.7432251 2.6511598 0.75320822
-6.7558064 2.6361883 0.74485594
-6.759418 2.6442931 0.74714273
-6.7503328 2.6270213 0.75946414
-6.5809684 2.5386918 0.80432755
-6.5794215 2.5441935 0.80684483
-6.5850997 2.524219 0.81808937
-6.5873132 2.5193813 0.80735683
-6.6041746 2.5202923 0.81803685
-6.6099839 2.497884 0.81017351
-6.6011806 2.4843597 0.81734061
-6.6161966 2.4819343 0.81897581
-6.6195526 2.4795642 0.81816041
-6.6206083 2.4699328 0.80952322
-6.6293297 2.4550543 0.81059563
-6.6325235 2.4452543 0.80638081
-6.6331868 2.4332952 0.81140745
-6.6225924 2.4226291 0.82081717
-6.6427178 2.4185948 0.8203637
-6.6321507 2.4122314 0.80673271
-6.6494336 2.398139 0.80881286
-6.6395364 2.3924851 0.81770802
-6.6479907 2.3869176 0.81347805
-6.657248 2.3637228 0.80886674
-6.655129 2.3552227 0.81863171
-6.6519251 2.3469322 0.80785614
-6.6529226 2.3413684 0.81438589
-6.4885178 2.2669504 0.87886673
-6.4949656 2.2588489 0.86923862
-6.481854 2.2446666 0.88252544
-6.5023608 2.2365398 0.87100303
-6.5007749 2.241636 0.88311452
-6.4902811 2.2215903 0.87895072
-6.504005 2.2155874 0.8808893
-6.502327 2.2149899 0.86362934
-6.5108714 2.2008705 0.86738491
-6.5101786 2.1890142 0.87488759
-6.5229435 2.1844478 0.88011324
-6.5105629 2.1765809 0.86630541
-6.5277982 2.1649601 0.86738753
-6.5317335 2.1559544 0.86941975
-6.5271783 2.151644 0.8656292
-6.5304995 2.1409242 0.87087834
-6.537971 2.1195648 0.87921429
-6.5434918 2.1229548 0.87604684
-6.5462594 2.1008589 0.86785823
-6.545259 2.1025016 0.87691599
-6.5367432 2.094413 0.87051404
-6.5429883 2.0817251 0.86535627
-6.5430288 2.0748103 0.877693
-6.5619745 2.0669553 0.87014353
-6.3765092 1.9898899 0.92675567
-6.3771086 1.9894756 0.94242746
-6.3724461 1.9845467 0.92587191
-6.3794355 1.9770414 0.94184238
-6.3895802 1.9697 0.9248572
-6.3879004 1.9462781 0.93865901
-6.397151 1.9342784 0.9335205
-6.3927908 1.9389265 0.92484665
-6.3935757 1.9264145 0.93841439
-6.4020114 1.9178247 0.9332875
-6.3979845 1.9151893 0.93700731
-6.3966808 1.8947177 0.92922676
-6.399693 1.8816592 0.92543477
-6.3992481 1.8843495 0.92305911
-6.4028206 1.8796214 0.9422673
-6.4033651 1.8592862 0.92698264
-6.4100957 1.8524017 0.92863113
-6.4219522 1.852566 0.92386425
-6.4224701 1.8346214 0.93552589
-6.4294081 1.8309046 0.92754185
-6.4214597 1.813866 0.92587018
-6.4297795 1.8007697 0.93267852
-6.4258671 1.8072875 0.93538344
-6.425734 1.7968637 0.92973763
-6.4279642 1.7854688 0.92832619
-6.4309735 1.7761178 0.93554574
-6.449255 1.7626123 0.92485064
-6.4458756 1.7598141 0.92329317
-6.2628055 1.6894724 0.99211627
-6.2724366 1.684566 0.98685473
-6.27004 1.6701339 0.99353874
-6.2693024 1.6698959 0.99611396
-6.2617445 1.6560714 0.99419796
-6.2714696 1.6448686 0.99085271
-6.2668281 1.6339117 0.98511064
-6.283586 1.642409 0.99901897
-6.2731118 1.6350757 0.9884268
-6.2733207 1.6135606 0.98404467
-6.2750745 1.6130965 0.98790932
-6.2873411 1.6053452 0.99562508
-6.2848573 1.5823228 0.99766952
-6.2956772 1.5823576 0.98824
-6.2839093 1.5722579 0.99375331
-6.2940454 1.5547285 0.99683428
-6.2875147 1.5641239 0.99773204
-6.3067131 1.5390323 0.99590397
-6.2919912 1.5466737 0.99552274
-6.3078494 1.5363528 0.98240942
-6.3080773 1.526512 0.99761844
-6.3044281 1.5066265 0.99386573
-6.3130507 1.5114344 0.99588311
-6.3196168 1.48762 0.98673081
-6.3155999 1.4777584 0.99627751
-6.3260579 1.4799337 0.99709666
-6.3134217 1.4708005 0.9961158
-6.3198762 1.4646169 0.9988513
-6.328146 1.4552912 0.99803889
-6.3167849 1.4322312 0.99571925
-6.1321654 1.3892452 1.051724
-6.1386256 1.3740773 1.0573144
-6.1488266 1.3723737 1.0565355
-6.1369982 1.3661788 1.0607675
-6.1543097 1.3460628 1.0439665
-6.1420631 1.3375393 1.0581719
-6.1489849 1.3436893 1.0520782
-6.1568761 1.3254106 1.048638
-6.1620193 1.3208749 1.0447117
-6.147963 1.3097013 1.046568
-6.1562142 1.2987763 1.0560933
-6.1677971 1.303309 1.0590389
-6.1537776 1.2795466 1.0488713
-6.1605248 1.2695066 1.0611019
-6.1630278 1.2640367 1.0418124
-6.1623201 1.2526836 1.042598
-6.1673951 1.2562665 1.0581348
-6.1785512 1.2338046 1.0439965
-6.1731358 1.2280332 1.0539287
-6.1716347 1.2181401 1.0612961
-6.1682649 1.2218058 1.0463499
-6.1753583 1.2156864 1.0445502
-6.1794934 1.2053727 1.0476046
-6.1737847 1.1900856 1.0492377
-6.1758327 1.1740572 1.0540223
-6.1771588 1.1804866 1.0560777
-6.1776867 1.1635791 1.0503422
-6.1826658 1.157241 1.0507734
-6.1817713 1.1580321 1.0540643
-6.1909323 1.1420262 1.0560956
-6.1927142 1.1310796 1.0504283
-6.1894298 1.1147176 1.0472798
-6.187933 1.1158857 1.0424583
-6.2033701 1.1044165 1.0509924
-6.1971617 1.0925405 1.0521432
-6.0179777 1.0483118 1.1077192
-6.0048594 1.0380918 1.1156889
-6.0174656 1.044498 1.1059726
-6.0096283 1.0333921 1.1057016
-6.0184884 1.0147064 1.118081
-6.0253057 1.0158082 1.1081724
-6.0177784 1.0017515 1.1105626
-6.0133877 0.9907366 1.102784
-6.0138068 0.98581773 1.1122012
-6.0256805 0.98862815 1.1184096
-6.0163908 0.96395242 1.1017152
-6.0308623 0.95384598 1.1032094
-6.0373521 0.95257336 1.1195205
-6.0335464 0.94056565 1.1131384
-6.0299997 0.94111389 1.1164854
-6.0340624 0.93624932 1.1093508
-6.0280213 0.92030472 1.1165782
-6.0395784 0.91013169 1.1012112
-6.0389028 0.90090859 1.1093478
-6.0287976 0.9011696 1.1087192
-6.0324726 0.89206564 1.1118412
-6.2218857 0.89694995 1.0539366
-6.2207747 0.8892771 1.0425377
-6.2233405 0.88672036 1.047563
-6.232276 0.86900866 1.0415701
-6.2378531 0.86852145 1.0591482
-6.2305517 0.85535014 1.0492189
-6.2360115 0.85188502 1.0575557
-6.2368259 0.8503474 1.0451101
-6.2294912 0.84015453 1.0613681
-6.2427735 0.82751489 1.0569664
-6.2329211 0.81573409 1.0587695
-6.2416129 0.8063063 1.0416112
-6.4311752 0.81949717 0.99126136
-6.4262495 0.82075107 0.99126321
-6.4273043 0.79763395 0.99949461
-6.4307685 0.8030113 0.98327321
-6.444149 0.78411049 0.99230677
-6.4291806 0.78556454 0.9885245
-6.4466453 0.77551007 0.98327279
-6.4478388 0.75331855 0.99410647
-6.4334221 0.76211196 1.0018859
-6.4371896 0.743334 0.98896581
-6.4381022 0.72558576 0.99401182
-6.4500046 0.73389256 0.98930758
-6.6317501 0.743038 0.93113542
-6.6354227 0.72878212 0.92668784
-6.6353035 0.72223717 0.93234003
-6.6461382 0.71173996 0.92844826
-6.6407418 0.70484501 0.9235056
-6.640584 0.69781029 0.92537642
-6.64958 0.68623418 0.9250471
-6.6507831 0.6719197 0.93494779
-6.6448936 0.65770859 0.93610954
-6.6339455 0.65259933 0.93458891
-6.8378181 0.65471756 0.87110114
-6.8303967 0.65578169 0.88198435
-6.8274097 0.63795948 0.87560272
-6.8387575 0.63028461 0.86800534
-6.8339834 0.6289748 0.88279575
-6.8341384 0.6087783 0.87983561
-6.8324099 0.60052884 0.87458479
-6.8309965 0.59200591 0.86430633
-6.8396697 0.59028941 0.8691048
-6.8471675 0.58042538 0.87808335
-7.0265369 0.57317698 0.82099873
-7.0396895 0.5785197 0.81388378
-7.0419455 0.56773925 0.81850523
-7.0305691 0.54648781 0.80501163
-7.0267763 0.55087364 0.8197692
-7.0281796 0.53595406 0.82389247
-7.0325294 0.52359986 0.80932969
-7.0421157 0.51348186 0.81580859
-7.0419674 0.49550068 0.81013668
-7.22755 0.5038923 0.74481922
-7.2336149 0.49072176 0.74570215
-7.237402 0.48518971 0.76176262
-7.2282901 0.47817943 0.75687861
-7.2345424 0.46330929 0.76058012
-7.2342744 0.45298192 0.75850546
-7.2392344 0.44198772 0.75135034
-7.2400575 0.42736664 0.76168114
-7.2354288 0.42386785 0.75173497
-7.4349999 0.43189174 0.69430149
-7.4295511 0.41461286 0.7013768
-7.4300566 0.41195491 0.70539165
-7.4296646 0.3861815 0.6939854
-7.433198 0.39017776 0.68568087
-7.4216008 0.36856517 0.69261897
-7.4262872 0.3678501 0.69934338
-7.4330339 0.36279014 0.70518827
-7.617722 0.34605679 0.62717921
-7.6212759 0.34572452 0.63513589
-7.6147609 0.33708683 0.63055474
-7.6263165 0.31447181 0.63907892
-7.6307817 0.3119103 0.63533002
-7.6312175 0.29028526 0.63619339
-7.6230445 0.2856572 0.63143951
-7.6231608 0.27314213 0.6354602
-7.8072085 0.28285807 0.56980544
-7.8136415 0.25963089 0.56882757
-7.8142142 0.24298845 0.5729574
-7.8134327 0.24326156 0.5674113
-7.8246794 0.23050413 0.58388448
-7.8204918 0.22663096 0.5684002
-7.827765 0.19871742 0.58101261
-8.0097084 0.19532892 0.52331042
-7.9998431 0.19569148 0.51098782
-8.0147152 0.17631772 0.51681
-8.0055513 0.16414578 0.51659203
-8.0026789 0.16590014 0.52407432
-8.0007677 0.14742568 0.52584207
-8.0147114 0.13006163 0.51881129
-8.014185 0.1217647 0.50995189
-8.208147 0.12037143 0.4488003
-8.206604 0.10930406 0.4500131
-8.1924334 0.087498002 0.45421687
-8.1966 0.075816669 0.4499802
-8.1930733 0.069506206 0.45756713
-8.2037077 0.052587312 0.46417978
-8.3855352 0.039571214 0.40439653
-8.3888741 0.027578019 0.39668536
-8.3904305 0.021821965 0.40280867
-8.3990002 0.016756982 0.39183384
-8.3964128 0.008856263 0.40824711
-8.3956127 -0.017364461 0.40505886
-8.5845737 -0.030075086 0.33218232
-8.5783224 -0.046331543 0.33843887
-8.576292 -0.05897205 0.3298513
-8.5866575 -0.062174387 0.33581126
-8.5903931 -0.07615649 0.33940396
-8.5745478 -0.093436062 0.34273672
-8.5863962 -0.092245348 0.33204672
-8.7830782 -0.10226399 0.2886768
-8.7797413 -0.12732023 0.28848776
-8.779974 -0.13159958 0.27381131
-8.7833767 -0.15388919 0.27893981
-8.7802916 -0.16998529 0.27981171
-8.9618826 -0.16810653 0.22069457
-8.9610882 -0.19296855 0.22972305
-8.9543171 -0.20167403 0.21676895
-8.9639349 -0.21465793 0.21853462
-8.9702024 -0.21963142 0.21349017
-8.9671431 -0.23047112 0.21307494
-9.1589975 -0.26373336 0.16052052
-9.1601057 -0.27210838 0.15530016
-9.1558723 -0.28409934 0.160055
-9.146493 -0.29323453 0.16097826
-9.1562233 -0.31325731 0.16002646
-9.3365707 -0.31966937 0.10739478
-9.3503571 -0.35615104 0.10802282
-9.3419352 -0.36594275 0.10566539
-9.3385382 -0.37301406 0.10499699
0.98566419 3.3156023 1.9685383
0.97861737 3.3122249 1.9743764
0.980887 3.3155456 1.9665691
0.98178363 3.3105011 1.9763199
0.97676569 3.3197825 1.9756041
0.97407484 3.3136842 1.9761193
0.95554471 3.3319955 1.9672247
0.95500666 3.3293369 1.9691231
0.95104963 3.3336911 1.9622551
0.95054507 3.3217394 1.9756347
0.93405765 3.3311424 1.9672581
0.94107914 3.3381064 1.9741424
0.93393707 3.3319492 1.9629922
0.91898578 3.3313 1.9654486
0.91378349 3.3302462 1.9758444
0.92786366 3.3311167 1.9588057
0.92245728 3.338074 1.9587489
0.90815461 3.3291118 1.9747106
0.89574856 3.3408134 1.9737099
0.89647275 3.336633 1.9594476
0.89057481 3.3405895 1.9732847
0.89629853 3.3361936 1.9727885
0.88890487 3.3492832 1.9648446
0.89035928 3.3520515 1.9749674
0.87426841 3.354249 1.9627585
0.86857152 3.35516 1.9701489
0.8658343 3.3552995 1.9632318
0.86303872 3.3457732 1.9660944
0.85620308 3.3484793 1.9594067
0.84836513 3.35655 1.9672934
0.84626317 3.3433647 1.9578977
0.83799672 3.3605471 1.9628736
0.82923245 3.3549809 1.9597136
0.83252263 3.3555167 1.9581023
0.82593393 3.3646102 1.9574759
0.82713491 3.3526573 1.9765539
0.81572467 3.3626196 1.9745717
0.81739569 3.3544402 1.9618698
0.80192775 3.3640807 1.9706874
0.79977065 3.3705404 1.9663953
0.8054986 3.3595572 1.9677442
0.80182928 3.3649676 1.965108
0.78313434 3.366276 1.9757452
0.78127784 3.3755386 1.9657637
0.77780861 3.3628774 1.963728
0.77371144 3.3760843 1.9685984
0.76869076 3.3625493 1.9622964
0.76168644 3.3753555 1.9666868
0.76197875 3.3773656 1.9595962
0.75108713 3.3818915 1.9578501
0.75590193 3.3768203 1.9640121
0.74206418 3.372756 1.9744828
0.7455889 3.3746746 1.9651664
0.73974925 3.379416 1.9640235
0.7439267 3.3853691 1.9691372
0.72606707 3.3719072 1.9663818
0.73307639 3.3781087 1.9690223
0.71378237 3.3819911 1.9634062
0.71887738 3.3908529 1.9587439
0.71688032 3.3735113 1.9575579
0.71313584 3.385674 1.9702576
0.69555199 3.3886905 1.9578565
0.68843746 3.3799241 1.9663441
0.69200528 3.3900123 1.9585497
0.69442874 3.3889732 1.9756916
0.68196464 3.3947716 1.9583614
0.6867438 3.3922777 1.9662291
0.67416221 3.3951893 1.9569821
0.67596322 3.3878973 1.9756062
0.67310065 3.3833103 1.9759046
0.66905081 3.399683 1.9673886
0.65769947 3.403177 1.9609181
0.65394574 3.4042628 1.9647169
0.63867831 3.3936245 1.9576464
0.63561523 3.3901188 1.9685857
0.62969279 3.3988597 1.964379
0.62643898 3.3970914 1.9767402
0.6310516 3.4074547 1.9710821
0.62641603 3.4043336 1.9572068
0.62040335 3.4030657 1.9578267
0.61468798 3.4024649 1.9739077
0.60045534 3.395231 1.9725777
0.59975106 3.408963 1.9714352
0.60284448 3.4121482 1.9587626
0.59886616 3.3969924 1.9616994
0.58582604 3.4006374 1.9724982
0.58857805 3.4057531 1.960657
0.58369023 3.4002073 1.9583138
0.57314312 3.4147525 1.9719908
0.56871969 3.4080133 1.9635476
0.56491512 3.4202878 1.9736581
0.55719036 3.4030602 1.9756958
0.54813451 3.4098601 1.9706333
0.55793506 3.4044859 1.9679303
0.55506206 3.4198675 1.9692526
0.53512472 3.4069438 1.9734075
0.54598516 3.4215086 1.9618723
0.52500343 3.4159226 1.9639919
0.52167749 3.4245279 1.9598644
0.53202748 3.4134493 1.9682115
0.5139333 3.4233067 1.9680542
0.50594866 3.410181 1.9698964
0.50000077 3.4127424 1.9577725
0.50898933 3.429848 1.959515
0.49527401 3.4288256 1.9758862
0.50287998 3.4126115 1.9585878
0.49463987 3.4320052 1.9751145
0.49486363 3.4151647 1.9653223
0.47720611 3.4197476 1.9634093
0.47542009 3.4194303 1.9696981
0.46198037 3.4257698 1.9651314
0.46838233 3.4288766 1.9667329
0.45662573 3.4307888 1.9701959
0.45274428 3.4264431 1.9700716
0.4506045 3.4331372 1.9682384
0.4448351 3.432193 1.9695115
0.44176638 3.4277656 1.9695051
0.43522343 3.4283197 1.971992
0.43888751 3.4359748 1.9584019
0.42063776 3.4266036 1.9638413
0.42867601 3.4285529 1.9749739
0.41214681 3.4216657 1.9685737
0.41721827 3.4277842 1.9634522
0.40575194 3.4347844 1.9733588
0.39416051 3.4244087 1.9693396
0.40073514 3.4330287 1.963763
0.38858214 3.4433455 1.9731526
0.396422 3.431886 1.9624964
0.38674799 3.4288578 1.9589022
0.38348308 3.4323483 1.9653503
0.36565697 3.4286458 1.9731679
0.37896276 3.4331841 1.9735253
0.3658675 3.4275644 1.9594345
0.36765012 3.4352498 1.9717842
0.35933861 3.4361162 1.9732051
0.34700724 3.4483299 1.9626993
0.34909868 3.4331644 1.9619706
0.34057903 3.4306133 1.9692492
0.34140253 3.4431632 1.9729733
0.33863118 3.4372241 1.959668
0.32230723 3.4382358 1.9621474
0.31380033 3.4373305 1.9686584
0.32565019 3.448108 1.9690502
0.30340874 3.4454467 1.9766344
0.31351635 3.4392536 1.9645983
0.30504426 3.445509 1.9642965
0.30606586 3.4386368 1.968356
0.28635818 3.4480262 1.969398
0.29392856 3.4430213 1.9625305
0.28522253 3.4400277 1.9692709
0.28321064 3.4454935 1.9765767
0.28367749 3.4472363 1.9625375
0.27065495 3.4456136 1.9588431
0.25802368 3.4465346 1.9720613
0.25297606 3.442349 1.9586667
0.25589195 3.4544775 1.9711148
0.2585054 3.4524148 1.9762845
0.24517797 3.4554315 1.9704443
0.23289213 3.4508069 1.9592065
0.23373824 3.4422646 1.9645891
0.22132441 3.4564996 1.9750581
0.23621592 3.455991 1.9668974
0.21706788 3.4472501 1.976748
0.21422492 3.4506686 1.9671602
0.20459971 3.4538305 1.9730344
0.20157954 3.4446998 1.9706912
0.21100712 3.4429748 1.9659461
0.20560406 3.4527149 1.9638853
0.19436048 3.4549623 1.976874
0.19187869 3.4428492 1.9610015
0.1747791 3.4431162 1.9590517
0.18814822 3.443069 1.9762877
0.17335626 3.4486685 1.9644837
0.16841458 3.4562204 1.975806
0.1738849 3.4589424 1.9700048
0.16522905 3.4434404 1.974794
0.15422978 3.4621623 1.9575862
0.15848501 3.4602778 1.9698532
0.1406792 3.451947 1.9641086
0.13586189 3.4459317 1.965999
0.13517183 3.4476147 1.9679111
0.13253167 3.4474647 1.9695374
0.12712727 3.4573216 1.9765314
0.12991872 3.4470353 1.970852
0.12403226 3.4470186 1.9676764
0.11234426 3.4631455 1.9687868
0.10544538 3.4530725 1.9684143
0.10133848 3.452055 1.965959
0.089498289 3.4580319 1.9749811
0.091913424 3.4639919 1.957803
0.096218802 3.4540627 1.9621297
0.082436115 3.4462943 1.9661353
0.070279613 3.4579227 1.9598328
0.065117002 3.457144 1.963086
0.074274883 3.4552805 1.9661711
0.060256969 3.4465311 1.9652386
0.067349471 3.4556847 1.9740952
0.054069266 3.4455335 1.9618032
0.058333617 3.4483447 1.9753635
0.051620003 3.4583738 1.9747661
0.047728285 3.4575109 1.9641284
0.028163265 3.4476683 1.9656179
0.0326037 3.4504724 1.9586382
0.030741574 3.4529169 1.970789
0.012132695 3.4493225 1.9609921
0.016608996 3.4565139 1.9623682
0.020152675 3.455601 1.9728272
0.012553046 3.4462118 1.9730711
-0.0073386533 3.4458907 1.9760689
-0.013670038 3.4636595 1.9690452
-0.00059881632 3.4623406 1.9611146
-0.018165285 3.4462605 1.9633043
-0.014242174 3.459425 1.9682676
-0.017298674 3.4555311 1.9756515
-0.028204337 3.4578326 1.9594243
-0.028906798 3.4494143 1.9703779
-0.028233089 3.4493437 1.9604152
-0.03710033 3.4464777 1.9610665
-0.045723557 3.448524 1.9614062
-0.051348835 3.4490428 1.9595317
-0.063997768 3.4474368 1.9763614
-0.064577073 3.4530685 1.957141
-0.06296654 3.447427 1.9711218
-0.076392658 3.4635332 1.9612523
-0.082434617 3.4535372 1.9737343
-0.084703699 3.4476426 1.9578549
-0.096018948 3.4472253 1.9619685
-0.09729664 3.4627442 1.9632864
-0.097922944 3.4544437 1.9667275
-0.098209202 3.4453208 1.9707712
-0.10036991 3.4483526 1.9732995
-0.10570067 3.4556079 1.9615566
-0.1102515 3.4492767 1.9642762
-0.12082131 3.4543221 1.9632123
-0.1212604 3.4581282 1.9722699
-0.12921724 3.4444678 1.9755569
-0.13305318 3.4442945 1.9585572
-0.1327752 3.4476454 1.9572142
-0.15117908 3.4551718 1.9677145
-0.14614153 3.4472139 1.969243
-0.15705994 3.4418967 1.9739608
-0.16544975 3.4560499 1.9660981
-0.16558218 3.4504535 1.9720753
-0.16299473 3.4590878 1.9632757
-0.18147078 3.4520838 1.9584668
-0.1708889 3.4419231 1.9601885
-0.17701969 3.4527264 1.9619346
-0.18014964 3.4486074 1.9672363
-0.18462229 3.4508841 1.9602759
-0.19859418 3.4429975 1.9655755
-0.21103716 3.4489911 1.9657825
-0.19876201 3.4513934 1.9603744
-0.21434911 3.4584615 1.9696077
-0.22395858 3.452915 1.9677204
-0.22236721 3.4536898 1.9590805
-0.22558437 3.4498436 1.9605381
-0.22707936 3.4446633 1.9730641
-0.22682773 3.4411497 1.9617428
-0.24127391 3.4379592 1.9729763
-0.24268003 3.4455926 1.9766084
-0.25878605 3.4455783 1.9665258
-0.25468451 3.4426339 1.9591441
-0.25599065 3.4488966 1.9591358
-0.26806286 3.4503438 1.9738927
-0.2620219 3.4381762 1.969743
-0.2646203 3.4475842 1.9620724
-0.28576052 3.44029 1.9695537
-0.27437422 3.4380395 1.9738599
-0.29430869 3.4461346 1.9753213
-0.28300896 3.4376144 1.9647679
-0.28807661 3.4377792 1.9745591
-0.30322623 3.4468355 1.9617712
-0.30575693 3.4393756 1.9756185
-0.30829537 3.4446325 1.9712919
-0.31607631 3.4407189 1.975183
-0.3280063 3.4389949 1.9688746
-0.32760617 3.4409184 1.9756708
-0.33972409 3.4390152 1.9606223
-0.32753512 3.4419637 1.974081
-0.33388418 3.4409976 1.9594389
-0.35078582 3.4397495 1.9653872
-0.35789564 3.4281361 1.9608244
-0.35779262 3.438776 1.9692407
-0.36384165 3.4316609 1.9633596
-0.37421662 3.4415476 1.9740174
-0.36069965 3.4442866 1.9634106
-0.37349039 3.4322071 1.975193
-0.37948409 3.4327905 1.9655447
-0.38052562 3.4303432 1.9593241
-0.3881076 3.426326 1.9726236
-0.39033094 3.4301863 1.9651673
-0.40660515 3.4317148 1.9665971
-0.40744144 3.4381237 1.9591727
-0.39986068 3.4232602 1.9651458
-0.4181602 3.4227979 1.9615252
-0.42580101 3.4206276 1.9611694
-0.42404786 3.4304414 1.9692667
-0.43051142 3.419035 1.9584868
-0.42662245 3.4313602 1.9658055
-0.4289532 3.4208755 1.9696599
-0.43798363 3.4329393 1.9579339
-0.45446941 3.4334993 1.9683024
-0.44952461 3.4179931 1.9656523
-0.4520033 3.4148366 1.9687184
-0.46850786 3.418149 1.9719081
-0.46863219 3.4185879 1.9735204
-0.46911147 3.4255469 1.9655457
-0.4814924 3.4308078 1.9667706
-0.48465231 3.4247227 1.9609336
-0.48049253 3.4210711 1.9652314
-0.49247739 3.413152 1.9622188
-0.49618733 3.4135096 1.960399
-0.48952785 3.4235735 1.9637122
-0.5055173 3.4159193 1.9645151
-0.49843976 3.4165201 1.9692829
-0.5081715 3.4217553 1.9751489
-0.51628995 3.4112692 1.9686399
-0.51238209 3.4131589 1.9680643
-0.5272482 3.4166446 1.9620831
-0.52795035 3.4090452 1.9731359
-0.5443536 3.4142148 1.9569625
-0.54376847 3.4204278 1.9618458
-0.54500198 3.418052 1.9574989
-0.54292119 3.404438 1.9662101
-0.56003654 3.4026518 1.9762415
-0.55238295 3.4158826 1.9722337
-0.55886209 3.4057434 1.9584723
-0.57184929 3.4042587 1.9673395
-0.56541085 3.4126542 1.9604383
-0.58495253 3.4050925 1.9666898
-0.57344019 3.4058712 1.9588701
-0.59810019 3.411978 1.9580288
-0.59787565 3.4015932 1.975584
-0.60199696 3.3980298 1.9603041
-0.59740573 3.4020905 1.9640234
-0.60278201 3.3985436 1.9617656
-0.61216486 3.3932548 1.9701674
-0.61530793 3.3997149 1.9578898
-0.62958258 3.3973489 1.9748197
-0.63075721 3.4001751 1.9650064
-0.62567902 3.3992465 1.9767971
-0.62841928 3.3983896 1.9755266
-0.63199961 3.4024878 1.9647096
-0.63802338 3.3871939 1.9711742
-0.65932584 3.4012196 1.9625514
-0.65690774 3.3945961 1.9712398
-0.65674603 3.3833153 1.9755042
-0.66818136 3.3936162 1.9671004
-0.67189288 3.3943658 1.9572085
-0.67867327 3.3786628 1.9710276
-0.67526555 3.3927591 1.9648093
-0.68006575 3.3888347 1.958632
-0.68613517 3.3860483 1.9574574
-0.68302023 3.3819551 1.9619002
-0.6934393 3.3812757 1.9612863
-0.69247991 3.3877287 1.9749731
-0.70283067 3.3790569 1.9583101
-0.70891559 3.3836615 1.9728855
-0.72340292 3.3692653 1.9691545
-0.7277807 3.3727982 1.9706712
-0.71833801 3.3844466 1.9672413
-0.73511219 3.3760016 1.9608508
-0.73806214 3.3661926 1.9726443
-0.74218529 3.3642025 1.9613218
-0.7418642 3.3764958 1.9703032
-0.74215549 3.3744497 1.9667277
-0.74875855 3.3667529 1.9754771
-0.75202304 3.3776693 1.9698344
-0.76071072 3.3587956 1.9708053
-0.77312791 3.3602397 1.9763255
-0.76402688 3.3558209 1.9745171
-0.77835417 3.3593206 1.9652933
-0.77907044 3.3645616 1.9672964
-0.78799164 3.3703694 1.968352
-0.78823388 3.3611867 1.9627501
-0.79949319 3.3563998 1.9761579
-0.79432631 3.349695 1.962931
-0.80040848 3.3644099 1.9616897
-0.81213176 3.3551197 1.9626499
-0.82288253 3.3580933 1.9661363
-0.82811153 3.3548474 1.9662923
-0.81514728 3.3619521 1.9710429
-0.83140522 3.3530171 1.962136
-0.82565844 3.3598356 1.9601451
-0.83885443 3.3510854 1.9700862
-0.83765072 3.3557477 1.9763614
-0.84303749 3.3502471 1.9570597
-0.84164935 3.343333 1.9736072
-0.86150104 3.3493626 1.9620051
-0.86039066 3.3493068 1.974524
-0.85579228 3.348686 1.9649507
-0.87103629 3.3456917 1.9636425
-0.88152796 3.3311 1.9745661
-0.8809247 3.3469141 1.9734817
-0.88231057 3.3341897 1.9648268
-0.89375365 3.3273246 1.9620206
-0.89891976 3.3397267 1.9749068
-0.90338582 3.3381693 1.9620781
-0.91130263 3.3414111 1.9764848
-0.91081971 3.3304121 1.9720483
-0.91781616 3.3286591 1.9682097
-0.91438413 3.3363075 1.9626024
-0.91225851 3.3181081 1.9636351
-0.91920745 3.3251543 1.9617205
-0.927239 3.315455 1.9683261
-0.94392353 3.3189511 1.969318
-0.94341236 3.3219182 1.9639701
-0.95001328 3.3250546 1.958329
-0.94944108 3.3249075 1.9572005
-0.95446026 3.309875 1.9663504
-0.9639141 3.3124759 1.9750308
-0.95720452 3.323137 1.9726499
-0.9761005 3.32055 1.9733664
-0.97396177 3.3156385 1.962432
-0.97373581 3.307318 1.9631081
-0.9869023 3.3069339 1.9685965
-0.97907484 3.3116798 1.9583745
-0.99659348 3.3144422 1.9726179
-0.99975121 3.3023918 1.9680496
-1.0040355 3.3099356 1.9697909
-0.99916792 3.3126373 1.9754814
-1.0056179 3.306658 1.9731877
-6.7250075 2.7520947 0.80903143
-6.730814 2.7352602 0.81430548
-6.7260952 2.7322297 0.80683994
-6.7477736 2.7234752 0.80140471
-6.739511 2.7156961 0.81013614
-6.7388854 2.6995916 0.80992949
-6.7587118 2.6995242 0.79976529
-6.7503266 2.6870499 0.79853052
-6.7487173 2.6846576 0.81606376
-6.7577949 2.6641572 0.80511624
-6.7685437 2.6661413 0.81296444
-6.7610722 2.6461384 0.81338638
-6.5898533 2.5654242 0.85814226
-6.6044502 2.5563114 0.86561143
-6.6044698 2.5592415 0.8747257
-6.5957446 2.5465653 0.85716498
-6.6072135 2.5378168 0.86897171
-6.6088333 2.5211942 0.85774404
-6.6116753 2.5099094 0.87356919
-6.616971 2.5132618 0.85834438
-6.6132011 2.4895666 0.87455916
-6.6215706 2.4970315 0.86023194
-6.6295047 2.4809303 0.86389321
-6.6306214 2.473798 0.86766332
-6.6442556 2.4701991 0.86359054
-6.6287627 2.4588649 0.85607308
-6.6508174 2.439589 0.86904359
-6.6410522 2.4422073 0.87463337
-6.6425023 2.4254847 0.85818475
-6.6481137 2.4069548 0.87433982
-6.6489377 2.3956697 0.85605592
-6.653533 2.399478 0.87449789
-6.6524429 2.3788013 0.86610484
-6.6676788 2.380445 0.85985011
-6.6591311 2.3718781 0.85927194
-6.4940524 2.2987437 0.9145909
-6.4969811 2.2906756 0.92196816
-6.5069261 2.2757576 0.92125338
-6.4912686 2.2627616 0.93311054
-6.5120473 2.267513 0.91573685
-6.5166578 2.2547872 0.91638213
-6.5195398 2.2407987 0.93014425
-6.5039673 2.2312202 0.93254298
-6.5167751 2.2297134 0.92590332
-6.5158248 2.2200482 0.92001915
-6.5154395 2.1981518 0.91379887
-6.517674 2.196507 0.92859
-6.5325184 2.1880839 0.91754687
-6.5280647 2.1784728 0.92259616
-6.5317411 2.1712246 0.92148966
-6.5327783 2.1624947 0.91675425
-6.5331573 2.1539991 0.92713183
-6.539762 2.1441798 0.91703683
-6.5439548 2.1246438 0.91454518
-6.5547748 2.1291366 0.93150282
