# .PCD v0.7 - Point Cloud Data file format
VERSION 0.7
FIELDS x y z
SIZE 4 4 4
TYPE F F F
COUNT 1 1 1
WIDTH 1541
HEIGHT 1
VIEWPOINT 0 0 0 1 0 0 0
POINTS 1541
DATA ascii
8.9080343 -3.1412244 1.3128346
8.9153099 -3.1425393 1.3243318
8.9304304 -3.1166847 1.3261442
8.930582 -3.1155071 1.3229775
8.9269247 -3.1018543 1.3148344
8.9380856 -3.0950463 1.3224224
8.950326 -3.0660143 1.3222594
8.9414444 -3.0523188 1.3204986
8.9546919 -3.0557497 1.3188623
8.9620075 -3.0455952 1.3175259
8.9531984 -3.0313289 1.31543
8.960948 -3.0141835 1.3195813
8.9601784 -3.0062969 1.3171428
9.1679144 -3.0450563 1.288209
9.1658421 -3.0291202 1.2756938
9.1756086 -3.02635 1.2775241
9.172945 -3.0156481 1.2759179
9.1701012 -2.9981196 1.2755326
6.3559718 -4.9760237 1.6168355
6.2124801 -4.8608055 1.6627673
6.2176142 -4.84477 1.6633097
6.2268453 -4.8438201 1.6673689
6.2378025 -4.8319087 1.6629221
6.23912 -4.8103914 1.6518334
6.2467842 -4.8061132 1.6509712
6.2621102 -4.800364 1.6671226
6.2643409 -4.7889595 1.663756
6.2763543 -4.7820768 1.6674752
6.2846584 -4.771451 1.6661516
6.2732687 -4.7761273 1.6495644
6.2940159 -4.7624459 1.6603431
6.2952933 -4.7462974 1.6633928
6.3006177 -4.7459435 1.6496652
6.3014832 -4.7310119 1.648757
6.3112473 -4.7151442 1.6634196
6.3201375 -4.7106652 1.6551148
6.3251662 -4.7106595 1.6494883
6.3268161 -4.7053318 1.6620089
6.3521733 -4.6783786 1.6564103
6.356194 -4.6694822 1.6573815
6.3636155 -4.6664929 1.6632707
6.3618031 -4.668869 1.6565356
6.363028 -4.6525507 1.6613722
6.2113781 -4.5256457 1.6861321
6.2177806 -4.5121436 1.6841764
6.238833 -4.5163455 1.6978898
6.2315688 -4.5020995 1.6827898
6.2386656 -4.4927726 1.6841898
6.2382712 -4.4846454 1.6837053
6.2522659 -4.4790416 1.6832708
6.26722 -4.4725485 1.6969697
6.2680507 -4.4543872 1.699428
6.2821341 -4.4415088 1.6893306
6.2810421 -4.4476399 1.7009161
6.2909145 -4.4336891 1.6973338
6.2988195 -4.424994 1.7008715
6.3004251 -4.4098592 1.6899678
6.3069186 -4.4139113 1.6996948
6.3148003 -4.4046297 1.688844
6.3221846 -4.3876133 1.6948832
6.3291225 -4.3818903 1.6986932
6.3297467 -4.3615718 1.6919329
6.3328171 -4.3533931 1.6893115
6.345778 -4.3525176 1.6918104
6.3503118 -4.3479676 1.6995026
6.3512506 -4.3417001 1.687124
6.3557153 -4.3200006 1.7011057
6.3692636 -4.3179698 1.702252
6.3725266 -4.3142076 1.6838881
6.221674 -4.1787114 1.7275233
6.2199464 -4.1731176 1.7342898
6.2220168 -4.1730127 1.7325571
6.2373147 -4.1559381 1.7301772
6.229979 -4.1519918 1.7198383
6.2451301 -4.1495881 1.725206
6.2479615 -4.1323094 1.7279898
6.2584019 -4.1366172 1.7236129
6.2628121 -4.1134167 1.7323984
6.2683558 -4.1129794 1.7360692
6.2755241 -4.1061573 1.735864
6.272532 -4.0869102 1.732587
6.2762942 -4.0914292 1.720741
6.2983117 -4.0664735 1.7172874
6.2979369 -4.0746655 1.7290901
6.3072114 -4.0535059 1.7345982
6.3018408 -4.0553021 1.7286789
6.319242 -4.0324335 1.729737
6.312254 -4.0309181 1.7252735
6.3140392 -4.0296092 1.7325165
6.3194828 -4.0068712 1.7178432
6.3247089 -4.0128517 1.7336701
6.3466458 -4.0007844 1.7362238
6.3367243 -3.9924021 1.7349703
6.3433371 -3.970084 1.7167544
6.3617396 -3.9641697 1.7309198
6.3656383 -3.9692912 1.7345022
6.363605 -3.9426649 1.7321591
6.382618 -3.9486673 1.7225293
6.2095637 -3.8347254 1.759181
6.2111859 -3.8249784 1.7559698
6.2181234 -3.8156095 1.7579521
6.2208753 -3.8098955 1.7631682
6.2261686 -3.7996829 1.7679255
6.2301965 -3.788425 1.7661513
6.2359967 -3.7843194 1.7614347
6.2559495 -3.7618577 1.7627317
6.2594728 -3.7669594 1.7617825
6.2606411 -3.7585664 1.7659507
6.2721672 -3.7411423 1.7513846
6.2665501 -3.7274437 1.7579042
6.277709 -3.7321446 1.7651237
6.2708387 -3.7194173 1.7693805
6.2891717 -3.7067089 1.7551661
6.2922502 -3.6952724 1.7635182
6.2935419 -3.6833239 1.7672775
6.3101048 -3.676698 1.7647922
6.3079529 -3.6718121 1.7684917
6.3048391 -3.6710098 1.7518635
6.305881 -3.6639204 1.7639314
6.312345 -3.6476755 1.7609622
6.3253164 -3.6454864 1.7645495
6.3254943 -3.6353703 1.7521139
6.3299174 -3.6121116 1.7636296
6.3401132 -3.6109529 1.7578171
6.3386493 -3.593668 1.7551814
6.3609319 -3.5849743 1.7503927
6.3607168 -3.5835743 1.7617035
6.3641891 -3.5704174 1.7650235
6.3710208 -3.5613351 1.766632
6.3699083 -3.550894 1.7556778
6.3858137 -3.5525742 1.758098
6.385294 -3.5391562 1.7618122
6.2199993 -3.430665 1.7937391
6.2184014 -3.4329925 1.7842058
6.230979 -3.4218273 1.8031141
6.2209086 -3.4134107 1.8018659
6.226038 -3.4102278 1.7931604
6.2424655 -3.3885789 1.7887478
6.2422009 -3.3850923 1.784546
6.2435327 -3.3677001 1.8019073
6.2538981 -3.3593719 1.7887032
6.2466717 -3.3565199 1.8000251
6.2631474 -3.3515801 1.7952207
6.2577548 -3.3330367 1.7994237
6.2628164 -3.3267021 1.7861198
6.2667747 -3.315212 1.7925539
6.2894721 -3.3233554 1.7934859
6.283452 -3.2998214 1.7873747
6.2930069 -3.3012898 1.7960516
6.2983479 -3.2861524 1.7934154
6.3010378 -3.2853634 1.7903957
6.3105116 -3.2765024 1.8015096
6.311295 -3.2558553 1.7888385
6.3072615 -3.2452784 1.7859794
6.3074188 -3.2343044 1.8007169
6.31426 -3.2440257 1.7981998
6.3275228 -3.2356901 1.7987884
6.3217053 -3.218003 1.7941537
6.3297644 -3.2153776 1.7992864
6.346488 -3.1920149 1.7907861
6.3405633 -3.1905544 1.7942982
6.3516064 -3.1841996 1.7978879
6.3537507 -3.1816289 1.793335
6.3632121 -3.1676469 1.7905631
6.3698015 -3.1580505 1.7899628
6.3711166 -3.1461434 1.7908326
6.3699017 -3.1454918 1.7912229
6.3692632 -3.1351638 1.8004789
6.3839774 -3.1212699 1.8035328
6.3838124 -3.1151342 1.8011154
6.2179732 -3.0129473 1.8251014
6.2126741 -3.0108664 1.8328128
6.2109532 -2.9910855 1.8342421
6.4021883 -3.0719779 1.7870116
6.4132376 -3.0647502 1.7942957
6.4036736 -3.0606151 1.7846154
6.4149675 -3.0420897 1.7867094
6.4266391 -3.0485854 1.7902483
6.4275541 -3.0247371 1.7987911
6.4315109 -3.0254116 1.7845742
6.4330373 -3.0191097 1.7971973
6.4447546 -3.0023191 1.803241
6.4441705 -2.9914501 1.8003993
6.623704 -3.074271 1.7599124
6.6311927 -3.0668736 1.75151
6.6259522 -3.0533228 1.7583107
6.6310191 -3.0327487 1.7546988
6.6381669 -3.0247612 1.7556472
6.6488404 -3.0201044 1.7514944
6.6480441 -3.0157242 1.7577112
6.6530175 -3.0140381 1.7612681
6.6506014 -3.0048428 1.7526484
6.8339486 -3.0613906 1.732141
6.8348212 -3.0600746 1.7168318
6.8489766 -3.0555563 1.7196852
6.8547168 -3.0405519 1.7268487
6.8472438 -3.0247416 1.7253397
6.8561454 -3.0260315 1.7225653
6.8659825 -3.0008824 1.7351894
6.8716531 -3.000752 1.7229292
6.8835273 -2.9998567 1.7230849
7.0596805 -3.0642722 1.6893765
7.0665751 -3.0503054 1.6845843
7.066731 -3.0397489 1.6915691
7.0715642 -3.0393064 1.6935273
7.079237 -3.0173807 1.7009389
7.0740595 -3.0071709 1.694604
7.087359 -2.9922891 1.6974167
7.0978703 -2.9917867 1.6958096
7.2825956 -3.0664911 1.6509757
7.27355 -3.0565829 1.6512394
7.2846465 -3.0354331 1.6561997
7.2958031 -3.0316615 1.6652822
7.2821531 -3.0119927 1.6550709
7.2954741 -3.0117357 1.6554456
7.2907386 -2.9880373 1.6678836
7.4957447 -3.06863 1.6268802
7.4921622 -3.044976 1.6246674
7.4913778 -3.0350006 1.6330771
7.4889717 -3.0260792 1.633571
7.4955001 -3.0104723 1.6338278
7.5022774 -3.0080245 1.6250832
7.5140004 -2.9986608 1.6299529
7.6978588 -3.0602841 1.5905454
7.7085257 -3.059433 1.5950087
7.6995521 -3.0475154 1.5929956
7.7030015 -3.0371199 1.5951051
7.7192159 -3.0145807 1.590427
7.713202 -2.997086 1.5852774
7.7155828 -2.9862423 1.5985959
7.9222155 -3.0644186 1.5632792
7.9254165 -3.0484591 1.5537282
7.9198575 -3.0249777 1.5630701
7.9191527 -3.0248919 1.5534222
7.9328079 -3.0184128 1.5538871
7.9309111 -3.0051665 1.5555254
7.9469857 -2.9927144 1.5568091
8.1296148 -3.0577953 1.5160928
8.1231871 -3.043328 1.5158921
8.1315937 -3.0306785 1.5157672
8.1333027 -3.0193532 1.51801
8.133462 -3.0090947 1.525176
8.1440544 -2.9886484 1.5247813
17.567558 0.006571338 0.1218762
17.580715 0.029039228 0.14103213
17.575762 0.05405274 0.12885839
17.573099 0.092679486 0.13111384
17.570536 0.10784139 0.13976511
17.580847 0.12683408 0.12954451
17.58382 0.15963681 0.12834685
17.578663 0.18332995 0.12558196
17.580559 0.21105362 0.12772575
17.568516 0.23467784 0.13861755
17.570887 0.26102886 0.12518889
17.570784 0.28055277 0.12970246
17.569801 0.29517406 0.13470393
17.576611 0.32721666 0.13380663
17.565643 0.35681656 0.12354587
17.563292 0.3768805 0.12775262
17.570686 0.40010464 0.14023717
17.576847 0.41839468 0.13189019
17.560209 0.45883566 0.12674259
17.565683 0.4675242 0.14069524
17.562012 0.49890733 0.13647543
17.564878 0.53054571 0.1272565
17.572226 0.54159522 0.12813634
17.564539 0.57988209 0.13653685
17.555922 0.60766166 0.13001598
17.557009 0.61358523 0.13903838
17.562267 0.64743215 0.12676504
17.559978 0.66800469 0.12826256
17.569307 0.6925379 0.12568274
17.553453 0.72317553 0.12727398
17.551519 0.75080937 0.13573174
17.565331 0.76201063 0.13131228
17.549889 0.8012929 0.13342772
17.555292 0.81365758 0.12931645
17.549063 0.8382073 0.12847231
17.556278 0.8646813 0.12904043
17.552481 0.89728624 0.13894537
17.556377 0.90850669 0.12491395
17.541735 0.94999552 0.13090815
17.544481 0.95660514 0.12303375
17.548782 0.98228818 0.13828829
6.2089601 -4.8602934 1.7168523
6.2303214 -4.8656845 1.7225381
6.2254295 -4.849216 1.7154778
6.2341995 -4.8389993 1.7210319
6.2387481 -4.8409047 1.7127017
6.2586555 -4.822052 1.7240589
6.2554784 -4.8127108 1.7143469
6.2713957 -4.8031006 1.7089094
6.2617254 -4.7907023 1.7236217
6.2728391 -4.7989993 1.7088782
6.2832661 -4.7879949 1.7074358
6.3004565 -4.7824264 1.7119321
6.3033204 -4.7685337 1.7242166
6.2991118 -4.7526436 1.7180277
6.3204451 -4.738965 1.7212347
6.313436 -4.7321277 1.7145857
6.3177714 -4.7352033 1.7085596
6.3323827 -4.729085 1.7234164
6.3415442 -4.7193489 1.7219349
6.3454061 -4.7051988 1.7234104
6.3545113 -4.6873088 1.7071344
6.3621626 -4.6789031 1.7076623
6.3542972 -4.6742964 1.7133086
6.2196999 -4.5436225 1.7584027
6.2177429 -4.5354023 1.7560412
6.2189803 -4.5408173 1.7517152
6.2335563 -4.5285106 1.7555023
6.2420945 -4.5081944 1.7565869
6.2454772 -4.5053062 1.7585777
6.2473664 -4.5051332 1.7458798
6.2507191 -4.4824195 1.7422237
6.2577829 -4.4786072 1.7581159
6.2653632 -4.4692001 1.7497482
6.2785773 -4.4619141 1.7462527
6.2845316 -4.4629374 1.7423148
6.2881126 -4.4490633 1.7442904
6.2873554 -4.4269414 1.7498922
6.2903728 -4.4225969 1.747121
6.3144627 -4.4211731 1.7585402
6.3205309 -4.4041524 1.7414253
6.313889 -4.4100585 1.7583085
6.3235788 -4.3951678 1.7502797
6.3291488 -4.378952 1.7429247
6.3263383 -4.3757653 1.754114
6.3400202 -4.3728547 1.7555293
6.3497519 -4.352582 1.7420594
6.3614469 -4.339273 1.7419435
6.3587308 -4.3491406 1.7573955
6.3732319 -4.3211002 1.7454857
6.3791389 -4.3131609 1.7418029
6.2246213 -4.2071705 1.7757528
6.2301178 -4.188714 1.7834409
6.2275734 -4.1908207 1.778525
6.2376618 -4.1818585 1.7879674
6.2389274 -4.1653228 1.7714835
6.2415957 -4.1651516 1.7864271
6.2507825 -4.1593695 1.7858258
6.259841 -4.142374 1.7864945
6.2643394 -4.1369371 1.7863327
6.2769156 -4.1316395 1.7852306
6.2657971 -4.1235957 1.7903806
6.2762747 -4.1159225 1.7853191
6.2944283 -4.0966496 1.7894745
6.2876539 -4.0931311 1.7739078
6.2903099 -4.0741777 1.786184
6.2964692 -4.0783749 1.7899307
6.3175602 -4.0591922 1.7907509
6.3180375 -4.0567451 1.7798492
6.319171 -4.0355821 1.7856594
6.3201308 -4.0276132 1.7880342
6.3399758 -4.0365205 1.7897115
6.3449588 -4.0206962 1.7903123
6.3448677 -4.0124521 1.7814292
6.3489199 -3.9967034 1.7872993
6.3573928 -3.9840086 1.783349
6.3581295 -3.9908509 1.7864206
6.3626008 -3.9822869 1.7798856
6.3678794 -3.9589183 1.7870005
6.3822446 -3.9600763 1.7864732
6.214756 -3.8417728 1.8174431
6.2171354 -3.8336437 1.8183434
6.2211804 -3.8261549 1.8062391
6.2258143 -3.8243685 1.8135427
6.2415528 -3.8041286 1.8077503
6.2431488 -3.8010025 1.8058007
6.2407827 -3.7827139 1.8081486
6.2414765 -3.7855155 1.8101923
6.2556229 -3.7685881 1.8067292
6.2568717 -3.7628326 1.8132247
6.2575812 -3.762439 1.804983
6.276907 -3.7450328 1.816206
6.2771211 -3.7489367 1.8062456
6.2852182 -3.7335496 1.8093919
6.2806072 -3.7277548 1.8040909
6.2901917 -3.7056823 1.8132215
6.2978139 -3.7112823 1.8119389
6.3077717 -3.701483 1.8191451
6.2997613 -3.6828198 1.8145621
6.3082752 -3.6681776 1.8070105
6.3232722 -3.6780837 1.8111209
6.3300157 -3.6539097 1.8038986
6.3279696 -3.6547551 1.8040264
6.3359504 -3.6327245 1.8107877
6.3470654 -3.6405141 1.8145831
6.3528676 -3.6239161 1.8116829
6.3477874 -3.6248808 1.8144076
6.3614125 -3.6010597 1.8181489
6.3622317 -3.5904093 1.8117636
6.3584552 -3.5963929 1.8112236
6.3671145 -3.5725148 1.8119733
6.3798723 -3.5670168 1.8080857
6.3853951 -3.5686758 1.8145341
6.2187629 -3.4511354 1.8465289
6.2110157 -3.4441242 1.84956
6.2270517 -3.4363852 1.8403492
6.2201757 -3.4387882 1.841327
6.236012 -3.4326158 1.8372718
6.2355776 -3.4106617 1.855006
6.2487454 -3.3975091 1.8378885
6.2413616 -3.4007094 1.8357739
6.254715 -3.3961523 1.8502754
6.2641687 -3.3710601 1.8542286
6.2600589 -3.3653049 1.850509
6.25559 -3.3521259 1.8451384
6.2741404 -3.3477273 1.8388376
6.2834673 -3.3350091 1.8414578
6.2737598 -3.3312471 1.8415681
6.2799854 -3.3326998 1.8549432
6.2839327 -3.3257525 1.8527749
6.29075 -3.310945 1.8387039
6.2954412 -3.3075283 1.8404808
6.294621 -3.2993891 1.838634
6.2977419 -3.2800798 1.8538198
6.317131 -3.2699466 1.8534557
6.3111372 -3.2659585 1.8487546
6.31883 -3.2573264 1.8480295
6.3291311 -3.2430725 1.8423177
6.31953 -3.2472517 1.846398
6.3432918 -3.2321303 1.8486639
6.344873 -3.2148256 1.8369689
6.3523707 -3.217452 1.8399162
6.3416328 -3.2055082 1.8422214
6.3490362 -3.1950409 1.8550483
6.3516126 -3.18977 1.8492143
6.3538127 -3.175066 1.8385681
6.3712993 -3.1772294 1.8477473
6.3680487 -3.1536403 1.8423673
6.3790736 -3.1441884 1.8439884
6.3741665 -3.1354988 1.8519051
6.3915129 -3.1297393 1.8482944
6.377152 -3.1209815 1.8532188
6.2084684 -3.0206497 1.8735837
6.219214 -3.0244353 1.8832233
6.2227745 -3.0101066 1.8692768
6.2204885 -2.9980278 1.8811707
6.2275448 -2.9928999 1.8820317
6.4216261 -3.0610073 1.8452644
6.4125762 -3.056695 1.8414084
6.4251351 -3.0616903 1.8373538
6.4255981 -3.0337272 1.8501643
6.4224377 -3.0245004 1.8428322
6.4441895 -3.0310631 1.8401269
6.4339519 -3.0111098 1.8449708
6.4333415 -3.0118141 1.8554723
6.4387722 -2.9990094 1.8493757
6.635004 -3.0666592 1.8073828
6.6332808 -3.0587003 1.8064944
6.6471186 -3.0640798 1.8209752
6.6370873 -3.0411763 1.8215117
6.6429887 -3.0420732 1.8210567
6.6416874 -3.0303812 1.8208675
6.6530414 -3.0211761 1.805149
6.6616769 -3.006434 1.8204108
6.6551433 -2.9965158 1.8059901
6.8390512 -3.0664299 1.7830483
6.8570094 -3.0619066 1.7791249
6.865303 -3.0433986 1.7739141
6.852695 -3.0353315 1.7740721
6.8745542 -3.0415616 1.7878754
6.8769369 -3.0261433 1.771518
6.8788509 -3.0162663 1.7775825
6.8805623 -2.9992626 1.7835766
6.8865418 -2.9978375 1.7750309
7.0687265 -3.065942 1.7547745
7.0756307 -3.0552325 1.7487142
7.0719199 -3.0508525 1.7576265
7.0842724 -3.042454 1.7554903
7.0914001 -3.0309253 1.7518586
7.0786719 -3.0217855 1.7524282
7.0997334 -2.9944983 1.7388415
7.1044235 -2.9895184 1.7455516
7.2769899 -3.0638039 1.7073377
7.2938185 -3.0592821 1.7132981
7.2820864 -3.0377135 1.7203505
7.3024259 -3.0335193 1.708256
7.29669 -3.0172994 1.7106788
7.2998528 -3.0129776 1.7116318
7.3008652 -3.0057645 1.7142391
7.5007987 -3.0704901 1.6837645
7.4988251 -3.0631204 1.6830323
7.5032496 -3.0352557 1.6773877
7.5143704 -3.0408309 1.6843284
7.5196037 -3.0138526 1.6856331
7.5107827 -3.0028663 1.6783423
7.5289993 -2.9957869 1.6850764
7.5151072 -2.9986749 1.6778547
7.7070165 -3.055562 1.6524321
7.7165723 -3.0424402 1.6563764
7.7287202 -3.0361412 1.6603898
7.7227197 -3.0160956 1.6613187
7.7359724 -3.0158899 1.6596524
7.7435651 -3.0088141 1.6419446
7.9220819 -3.0521457 1.6284021
7.9179897 -3.0568576 1.6277093
7.9265909 -3.0475588 1.6236122
7.9419112 -3.0363443 1.6261374
7.9299941 -3.0207908 1.6142241
7.9449801 -2.9999459 1.624675
7.9438953 -2.9912019 1.6106617
8.1314955 -3.0622959 1.5935832
8.1354189 -3.0344951 1.5782768
8.13766 -3.0233052 1.5792649
8.1421776 -3.021786 1.5775394
8.1454782 -3.0086324 1.5800525
8.1480703 -2.9911354 1.5808085
17.543411 -0.97435927 0.13391307
17.544025 -0.93991548 0.12628141
17.55772 -0.9306609 0.13469067
17.542746 -0.90902901 0.12456867
17.546856 -0.88238734 0.13290332
17.556082 -0.86004615 0.13602611
17.565054 -0.82669216 0.1381574
17.565224 -0.80261457 0.12180357
17.55084 -0.77493876 0.12623833
17.557657 -0.74624562 0.12739487
17.563993 -0.73649305 0.13680229
17.557301 -0.70748168 0.13616531
17.562943 -0.68609697 0.14029294
17.556959 -0.66097295 0.14156067
17.56082 -0.6329909 0.12497649
17.572981 -0.59700221 0.12623815
17.56823 -0.57322508 0.13635679
17.565577 -0.55042928 0.12605442
17.566536 -0.52313143 0.13892765
17.571894 -0.51009881 0.13599229
17.578375 -0.4917773 0.13830626
17.57423 -0.46116176 0.12512688
17.569414 -0.42588389 0.12882619
17.568689 -0.41753444 0.13314208
17.569201 -0.38623551 0.14093134
17.573092 -0.36365247 0.14019932
17.578211 -0.32666257 0.13873325
17.573416 -0.31313458 0.13555071
17.578281 -0.2794224 0.13515258
17.575989 -0.26109132 0.12327258
17.570724 -0.23698479 0.1251986
17.567741 -0.2176955 0.13322371
17.571543 -0.18386045 0.13200936
17.57901 -0.17135207 0.13462619
17.570761 -0.13890265 0.12402294
17.570265 -0.12309644 0.1314829
17.569002 -0.082671821 0.13141221
17.56624 -0.06751021 0.14034827
17.580261 -0.047914024 0.13847466
17.573849 -0.011010073 0.13040973
17.398491 0.003521285 0.28127867
17.402054 0.031236691 0.28756315
17.393606 0.062458947 0.28315878
17.403912 0.080887295 0.28673851
17.396799 0.11083761 0.29824308
17.399048 0.14009908 0.28102893
17.388725 0.14793964 0.29971427
17.398296 0.17289317 0.28903586
17.39677 0.21177709 0.29342815
17.393337 0.22419322 0.29019877
17.401806 0.2582615 0.29372007
17.401758 0.27590793 0.30067828
17.38796 0.30515757 0.29458031
17.389725 0.32479599 0.28263235
17.592598 0.36130226 0.26545843
17.589373 0.37662438 0.26416606
17.5889 0.40180871 0.26643646
17.587078 0.43678451 0.26938292
17.594543 0.45048776 0.26693615
17.586369 0.48104483 0.25262871
17.594929 0.50039071 0.26811323
17.586975 0.52004403 0.25696829
17.585947 0.54628915 0.2507976
17.578785 0.57472169 0.25999057
17.579641 0.60892129 0.25755337
17.594189 0.62039256 0.26588899
17.587408 0.65192127 0.25486028
17.582863 0.68219268 0.2542595
17.581232 0.70052832 0.26281494
17.577118 0.7313205 0.25738123
17.578665 0.75133979 0.26674816
17.575661 0.76410741 0.25122407
17.581476 0.79658145 0.25740176
17.581087 0.82266402 0.26746976
17.569859 0.85040706 0.26719621
17.576157 0.87353462 0.25385392
17.570757 0.8907544 0.26750147
17.574295 0.92433661 0.26688287
17.577196 0.93722779 0.26006368
17.568621 0.96698105 0.25950173
17.574575 0.99928886 0.25442547
6.2011204 -4.8835249 1.7692723
6.2210369 -4.8837881 1.7800761
6.2202039 -4.8789725 1.7829623
6.2222309 -4.8731198 1.7750214
6.2363915 -4.8511844 1.7795732
6.2445178 -4.8392467 1.7767384
6.2540846 -4.8398266 1.7752103
6.2519221 -4.82902 1.77211
6.2607083 -4.8153367 1.7656302
6.2655439 -4.8047743 1.7755058
6.2701731 -4.7952218 1.7738775
6.2820845 -4.7925816 1.7833246
6.2847877 -4.7775903 1.7689157
6.2903643 -4.7873769 1.7716786
6.3079882 -4.7697954 1.7676868
6.3101511 -4.7708683 1.7669328
6.3094678 -4.7491422 1.7768898
6.3272433 -4.7363343 1.7689342
6.3219066 -4.7414842 1.7659339
6.3300776 -4.7285304 1.7647582
6.3481121 -4.7176666 1.7643881
6.3445058 -4.7015986 1.7779019
6.3503342 -4.6895232 1.7776409
6.3617411 -4.6985536 1.7788182
6.2168722 -4.5593452 1.7996907
6.226862 -4.5621395 1.7997986
6.2160859 -4.5522637 1.8128295
6.2352543 -4.5312462 1.8098558
6.2464552 -4.5221877 1.8129106
6.2346439 -4.5115671 1.8000883
6.2416444 -4.5095091 1.8092896
6.2482629 -4.4976425 1.8057094
6.2683825 -4.4865203 1.8053463
6.2682295 -4.4905505 1.8070852
6.2692413 -4.4869709 1.8018702
6.2802153 -4.4597735 1.805197
6.2912855 -4.4497113 1.8097266
6.2953739 -4.4468284 1.806592
6.2964764 -4.4390798 1.8038257
6.300621 -4.4294662 1.8029805
6.3119316 -4.4191632 1.7954849
6.3124313 -4.4085407 1.8111389
6.3293381 -4.4040852 1.8091896
6.3258696 -4.4060578 1.8144752
6.3441277 -4.3932805 1.814597
6.3371582 -4.3757796 1.8131644
6.3535037 -4.3734469 1.8130327
6.3543663 -4.3532519 1.8070146
6.3520818 -4.3581676 1.7999667
6.3670187 -4.34514 1.8137455
6.2179193 -4.2155547 1.8399299
6.2243352 -4.2233109 1.8370345
6.2263927 -4.2003255 1.8297815
6.2264891 -4.2069607 1.8317348
6.2318587 -4.181478 1.837635
6.2373381 -4.1890922 1.8321975
6.2413731 -4.1664772 1.8402455
6.2452636 -4.1691027 1.8396327
6.2631245 -4.1601033 1.84524
6.2539248 -4.1422458 1.8350021
6.278492 -4.136375 1.8340318
6.2783332 -4.1299868 1.8366435
6.2752666 -4.1274271 1.8335708
6.284935 -4.1106453 1.8351848
6.2965446 -4.0943556 1.8335949
6.2940421 -4.0984364 1.8356959
6.3060899 -4.0843205 1.8317093
6.3061733 -4.0721393 1.8363863
6.3056316 -4.0679107 1.8413434
6.3306847 -4.0586834 1.835431
6.3254876 -4.0506778 1.8266538
6.3393083 -4.0486078 1.8355216
6.3357282 -4.0353694 1.8381975
6.3490629 -4.0182147 1.8288957
6.3439994 -4.0151911 1.8271159
6.3573337 -4.0003977 1.8324796
6.3527565 -3.9992731 1.8431758
6.3641806 -3.9837682 1.8372618
6.3802691 -3.9744966 1.8267766
6.3813024 -3.9658508 1.8367116
6.2087088 -3.8635628 1.8767347
6.2148819 -3.8578491 1.8591062
6.2299104 -3.8413577 1.8658851
6.227603 -3.8371615 1.8609796
6.2359815 -3.8236465 1.8702506
6.242568 -3.822403 1.8654599
6.2545061 -3.8113294 1.8729316
6.2571282 -3.7944126 1.8670374
6.2538247 -3.7869759 1.8615366
6.2600231 -3.7840614 1.8757958
6.2761445 -3.7715824 1.8589433
6.2813787 -3.7583158 1.8591374
6.2689724 -3.7553935 1.867148
6.2833328 -3.7401402 1.8706725
6.2927752 -3.7418573 1.859022
6.2914767 -3.7223246 1.8599181
6.3053751 -3.7161789 1.863183
6.3067327 -3.7127235 1.8746524
6.3021841 -3.6978726 1.8648392
6.3121223 -3.6821113 1.8692133
6.3163075 -3.6755049 1.8573321
6.3236279 -3.6689281 1.8699759
6.33113 -3.6600094 1.8567928
6.3266301 -3.6619701 1.8701067
6.345643 -3.6397159 1.8729397
6.3529925 -3.6439753 1.8665344
6.3412261 -3.6195393 1.8574965
6.3527122 -3.6189363 1.8631284
6.3556552 -3.6080604 1.8748184
6.3687725 -3.5924125 1.8734696
6.3662519 -3.597733 1.86992
6.3718376 -3.5808752 1.8641328
6.3900547 -3.5816443 1.8584424
6.2227387 -3.4753597 1.8928607
6.2209268 -3.4520783 1.8897992
6.2219357 -3.4465399 1.8936352
6.2365274 -3.4378481 1.8930569
6.2420688 -3.4427383 1.9042244
6.2332301 -3.4297409 1.8974035
6.2360697 -3.4086692 1.8973591
6.2575479 -3.4151492 1.9031155
6.2554641 -3.4010618 1.8968445
6.2475815 -3.3937635 1.9009118
6.2539959 -3.3864374 1.9056937
6.2639184 -3.3657694 1.905091
6.2707672 -3.368927 1.9013543
6.2814398 -3.3623152 1.8976301
6.271522 -3.3549719 1.9003297
6.2927594 -3.3412652 1.9073341
6.2871637 -3.3295052 1.9067106
6.3015113 -3.3210406 1.8909012
6.3016033 -3.3194211 1.9004664
6.2954116 -3.3104341 1.8886106
6.3132753 -3.2997696 1.8953549
6.3159084 -3.2839079 1.8940343
6.3179264 -3.2859099 1.9008169
6.316196 -3.2619402 1.9054656
6.3307285 -3.2525768 1.8887051
6.3279486 -3.2466524 1.8968924
6.3321605 -3.2509878 1.8880742
6.3357368 -3.2256274 1.8989486
6.3434916 -3.2248149 1.9026638
6.3407989 -3.2148211 1.9065813
6.3462381 -3.2115791 1.8923718
6.3584089 -3.1903067 1.9052262
6.369247 -3.1916068 1.9072742
6.3668556 -3.1792159 1.9044812
6.3691001 -3.1768584 1.9022344
6.3745718 -3.1618345 1.8970888
6.3882184 -3.14714 1.8987777
6.3930345 -3.1533985 1.896991
6.2114911 -3.0490241 1.9380724
6.2107501 -3.0394895 1.9294007
6.2139144 -3.0290079 1.9351161
6.222857 -3.0308352 1.9332423
6.2246423 -3.0062921 1.921201
6.2284632 -3.0085959 1.9326766
6.2294788 -2.9930978 1.9376296
6.4263024 -3.0822172 1.8978221
6.4200211 -3.0562005 1.8947147
6.4354157 -3.0497732 1.8964502
6.4290113 -3.0520611 1.90626
6.4327779 -3.0393491 1.8969412
6.4478602 -3.0277193 1.8894346
6.4486451 -3.0113814 1.8914253
6.4475441 -3.0174811 1.8892781
6.4543886 -3.0039701 1.89614
6.4526968 -2.9936421 1.889807
6.6351905 -3.0719078 1.8604168
6.6496329 -3.0573337 1.8589879
6.640955 -3.0516455 1.8750269
6.6539993 -3.0366302 1.8598127
6.6568403 -3.022104 1.8683394
6.6703501 -3.0167391 1.8595186
6.6763401 -3.0148199 1.8580526
6.6643076 -2.9982202 1.8614979
6.670115 -2.9989815 1.8694589
6.8630481 -3.0665336 1.8278493
6.8694711 -3.0538607 1.8330299
6.877389 -3.0510292 1.8435217
6.8638644 -3.0411465 1.8304327
6.8863654 -3.0224779 1.8430843
6.8736391 -3.0252125 1.8409814
6.8894258 -2.9986701 1.8349566
6.8963785 -2.9903569 1.8415586
7.0830207 -3.057169 1.8045636
7.0720353 -3.0632272 1.8084012
7.0889978 -3.0408089 1.7962821
7.0952349 -3.0362473 1.8072681
7.0866385 -3.0280347 1.8115118
7.0885201 -3.0175998 1.7960583
7.0972991 -3.0089037 1.8096879
7.0987158 -2.9971607 1.810991
7.3000541 -3.0707023 1.7783412
7.2934227 -3.0443785 1.7752993
7.2933788 -3.0367675 1.7747228
7.3072238 -3.0244243 1.7782203
7.3048925 -3.0193877 1.7742618
7.3104277 -3.0123696 1.764985
7.3269343 -2.9981892 1.7740345
7.3276706 -2.9863551 1.783627
7.5158253 -3.0647759 1.7411197
7.5148134 -3.0509045 1.7513499
7.51509 -3.0419192 1.7349874
7.5136003 -3.023845 1.7347791
7.5290542 -3.0100796 1.7520063
7.5239167 -3.0067203 1.751395
7.5422626 -2.9899292 1.7456326
7.720243 -3.0648553 1.705797
7.7254257 -3.0541971 1.7208403
7.7396426 -3.0269964 1.717513
7.7434373 -3.0187073 1.7203739
7.7356076 -3.0156996 1.7066339
7.7379928 -2.9966705 1.711401
7.7440009 -2.9833717 1.7037582
7.9340982 -3.0500767 1.6884925
7.9371943 -3.0346415 1.6769882
7.9396634 -3.0250576 1.6717731
7.9563546 -3.0252831 1.6741534
7.9440928 -3.0045953 1.6764221
7.9468584 -2.9939444 1.6751155
8.151185 -3.0534229 1.660418
8.1535511 -3.0350122 1.6488384
8.1621609 -3.0384247 1.6454943
8.1555214 -3.0200233 1.6446493
8.1612244 -3.0200164 1.6575253
8.1625433 -3.0011766 1.6547679
17.564287 -0.97319782 0.25913647
17.565161 -0.95772827 0.25668252
17.578281 -0.91793525 0.25191632
17.570892 -0.89356762 0.26203859
17.581831 -0.88060015 0.26485765
17.578068 -0.84291035 0.26195738
17.574902 -0.83768892 0.26269907
17.582899 -0.80415094 0.2617532
17.579943 -0.77509618 0.26438707
17.57069 -0.76045269 0.25222257
17.577662 -0.73033011 0.26394328
17.587742 -0.70069146 0.26661676
17.575333 -0.67925483 0.26456454
17.578123 -0.64649421 0.2623595
17.591003 -0.62404901 0.26859963
17.586666 -0.60658801 0.26800555
17.579397 -0.57347775 0.26810727
17.592833 -0.55352098 0.25721964
17.585291 -0.53763801 0.25085783
17.580347 -0.51209188 0.25460911
17.583204 -0.48062316 0.26395106
17.597748 -0.46008921 0.25839826
17.594931 -0.43294409 0.26974732
17.590029 -0.403954 0.26932094
17.582886 -0.38299677 0.26680237
17.60195 -0.36725333 0.25720608
17.600384 -0.33962408 0.25618023
17.598886 -0.31936729 0.25057012
17.388897 -0.28408176 0.2871989
17.390076 -0.25810385 0.29393259
17.394974 -0.22997506 0.28759083
17.389179 -0.20797476 0.29723784
17.397797 -0.18942952 0.28948393
17.397732 -0.15639158 0.28617316
17.397205 -0.13106602 0.29927185
17.394125 -0.1072128 0.28356543
17.401417 -0.08542604 0.29093906
17.407648 -0.065604061 0.29401952
17.408236 -0.038634542 0.28448778
17.394518 -0.010879325 0.29665869
17.42691 0.0046350602 0.41983676
17.413513 0.030833112 0.41358465
17.409729 0.065357141 0.42160106
17.418159 0.079556145 0.41837826
17.423243 0.11300372 0.41620362
17.421392 0.12318121 0.41360444
17.4238 0.16049232 0.40851405
17.413548 0.18391111 0.41896746
17.426342 0.20782745 0.41211206
17.409573 0.23797199 0.40873346
17.424938 0.26107839 0.41336852
17.416294 0.27080482 0.41989607
17.421364 0.29679829 0.4166421
17.414415 0.33130485 0.4232817
17.424212 0.3510136 0.41906357
17.411798 0.36902326 0.42071784
17.416754 0.38962731 0.41537836
17.416582 0.42019936 0.40915307
17.406832 0.44381982 0.42253989
17.410191 0.47095692 0.42176735
17.410139 0.49378151 0.41979778
17.414688 0.52831739 0.42325169
17.405729 0.54831243 0.4083966
17.413483 0.5617829 0.42374617
17.407843 0.58550608 0.41450325
17.397951 0.61730725 0.41896936
17.409679 0.63458717 0.41973966
17.396034 0.6722554 0.42678288
17.39613 0.68076527 0.41314822
17.409578 0.71326137 0.42235321
17.40222 0.74636507 0.41008615
17.392859 0.76471138 0.42805937
17.406918 0.79482776 0.42173296
17.406086 0.81346023 0.42458349
17.400572 0.82724833 0.42686471
17.405781 0.85197389 0.41665572
17.39542 0.88929111 0.41943645
17.583353 0.92407531 0.38614333
17.600725 0.94994736 0.38652554
17.584429 0.9702329 0.39511752
17.597301 0.98415947 0.39252824
6.2111244 -4.9145374 1.8367672
6.2260828 -4.9071126 1.8408281
6.2180357 -4.8916326 1.8271939
6.2350469 -4.8816915 1.8244975
6.2278137 -4.8705063 1.827193
6.2509627 -4.8702488 1.8297533
6.2503667 -4.8479047 1.8240213
6.2569962 -4.8526449 1.8382907
6.2663922 -4.8301959 1.8260566
6.2740378 -4.8330593 1.8362149
6.2779984 -4.8135643 1.837707
6.2796268 -4.8059597 1.837962
6.2853041 -4.7932382 1.8250257
6.2973351 -4.7903299 1.8333495
6.3066573 -4.781467 1.8241676
6.3186626 -4.7762547 1.8265433
6.3132162 -4.7584262 1.8225535
6.3220253 -4.7607441 1.8251047
6.3250914 -4.7404294 1.8413764
6.3359113 -4.7392206 1.8260469
6.3368773 -4.7407908 1.8414646
6.3593225 -4.727459 1.8357303
6.362011 -4.7151647 1.8339514
6.3717504 -4.6975422 1.8263049
6.2107615 -4.579649 1.8681899
6.2194538 -4.5742893 1.8570398
6.2305098 -4.5610423 1.8549144
6.2375641 -4.54564 1.8616583
6.2471576 -4.5338125 1.8598944
6.2530103 -4.5377941 1.870508
6.2435217 -4.5274272 1.8707108
6.2494383 -4.5212193 1.8553953
6.2696085 -4.4989147 1.8635149
6.2679877 -4.4934506 1.8603886
6.278708 -4.4965029 1.8686392
6.281848 -4.4772539 1.8535849
6.2938256 -4.4733276 1.863104
6.3036661 -4.4687138 1.8593434
6.3002377 -4.4608612 1.8587188
6.3150334 -4.4534984 1.865412
6.3204303 -4.4419546 1.8537632
6.3260174 -4.4308124 1.8596047
6.3162775 -4.4258056 1.8590238
6.3346443 -4.4087138 1.8551714
6.3298726 -4.4071836 1.8595222
6.3533392 -4.3887825 1.854369
6.3417392 -4.3846612 1.8643802
6.3596458 -4.3769445 1.8702348
6.3537793 -4.3588891 1.8551626
6.3672762 -4.3522582 1.8586652
6.2042489 -4.2346506 1.8943681
6.2126093 -4.2296677 1.8829546
6.226799 -4.2206097 1.8877336
6.220396 -4.2193561 1.8807815
6.2301283 -4.2090335 1.8865286
6.2441993 -4.2013912 1.8818367
6.2531047 -4.191484 1.8924177
6.2520094 -4.1697922 1.8818583
6.2567563 -4.1600771 1.9004889
6.2664189 -4.1629629 1.8968757
6.279572 -4.1517563 1.8901993
6.2789626 -4.1381063 1.8998421
6.2869277 -4.1361713 1.8898718
6.2796593 -4.1265326 1.8924754
6.2854266 -4.1130419 1.8967136
6.2969289 -4.1113486 1.8998978
6.3037267 -4.106607 1.8842849
6.3010936 -4.0888042 1.881651
6.3078885 -4.0720868 1.9000117
6.313302 -4.0715265 1.8867579
6.3350902 -4.063621 1.8959736
6.3301892 -4.0621209 1.8900942
6.3349185 -4.0384388 1.8973966
6.3496656 -4.0277963 1.8855767
6.3470039 -4.0371456 1.898478
6.348568 -4.0207391 1.884295
6.3533039 -4.0032692 1.8860687
6.3624144 -3.9941552 1.8968515
6.3688788 -3.9839559 1.8955505
6.2060952 -3.8689501 1.9154532
6.217495 -3.8631668 1.924991
6.2180982 -3.8679576 1.9272041
6.23281 -3.8536797 1.9242659
6.2348123 -3.8503036 1.9231291
6.2449827 -3.8352258 1.9237942
6.2480421 -3.8242078 1.9120086
6.256906 -3.8140657 1.9288282
6.2475319 -3.8004122 1.9258895
6.2689281 -3.8058813 1.9242698
6.2690115 -3.7921124 1.9236768
6.279532 -3.7923591 1.9202055
6.2795782 -3.777406 1.9232739
6.2818251 -3.7731326 1.9119432
6.2811217 -3.7522359 1.9153039
6.2992692 -3.7465365 1.9250507
6.2980695 -3.7431326 1.9171159
6.3050723 -3.7362075 1.9106164
6.3088822 -3.7239873 1.9290558
6.309741 -3.7156894 1.9133043
6.3089681 -3.712615 1.9225924
6.32759 -3.704314 1.922897
6.3227277 -3.6812491 1.9294106
6.3409219 -3.6812069 1.9114463
6.3477731 -3.6671259 1.9256197
6.3379726 -3.6601427 1.9167265
6.3579063 -3.6595924 1.9224635
6.3498936 -3.6372604 1.9263449
6.3553681 -3.6363273 1.9136583
6.3592701 -3.6197317 1.9204742
6.3674083 -3.6090934 1.921562
6.3648219 -3.6050053 1.9221407
6.3825278 -3.5909388 1.9169674
6.2144761 -3.4865656 1.9524651
6.220571 -3.4779768 1.9437591
6.2208271 -3.4643116 1.9531976
6.2321777 -3.4558229 1.9543406
6.2292538 -3.4604456 1.9489627
6.2301984 -3.4446795 1.9556578
6.2384448 -3.4300847 1.9500815
6.2534943 -3.4324133 1.9462692
6.24962 -3.4223769 1.9576635
6.2463121 -3.4196711 1.9542361
6.2578187 -3.3977818 1.9490266
6.2553577 -3.3946741 1.9437438
6.2641788 -3.3961742 1.9434578
6.2824259 -3.3711753 1.9429851
6.2818036 -3.3739402 1.9492073
6.2757912 -3.3605881 1.9425069
6.2964621 -3.3438051 1.9417055
6.291544 -3.3367758 1.9498731
6.3028016 -3.338412 1.959368
6.3054414 -3.328135 1.9428531
6.3046412 -3.3111184 1.9595046
6.3186193 -3.3013177 1.9505348
6.3073025 -3.3074384 1.9513294
6.3156877 -3.3000426 1.9483802
6.3235874 -3.277987 1.9539171
6.337697 -3.2666497 1.9440507
6.3250937 -3.2593353 1.942205
6.331677 -3.2616205 1.95862
6.3464155 -3.2373173 1.9446234
6.350637 -3.2350318 1.952122
6.3583307 -3.2381909 1.9478489
6.3626633 -3.2120047 1.944582
6.3580141 -3.2017553 1.9463928
6.3741469 -3.2077291 1.9467918
6.3673186 -3.1903989 1.9404323
6.3660145 -3.1835425 1.9565897
6.3748317 -3.1738603 1.9512345
6.3817906 -3.1621537 1.9547608
6.2079778 -3.0722671 1.9832036
6.2172079 -3.0509288 1.9756329
6.2139239 -3.0464189 1.9760506
6.2263551 -3.0420859 1.9737961
6.235507 -3.0268991 1.9729259
6.2264581 -3.0200646 1.9772105
6.2377958 -3.0245311 1.9699477
6.2427616 -3.0147619 1.9806577
6.2438731 -3.0006235 1.9721599
6.2396169 -2.9839613 1.9864726
6.4372602 -3.0738666 1.9443285
6.4356146 -3.0530751 1.9443146
6.4463863 -3.0598431 1.9401435
6.4375629 -3.0384433 1.9516325
6.4464726 -3.0321429 1.9496291
6.4544997 -3.0191312 1.9457753
6.4667983 -3.0190091 1.9487641
6.4518223 -2.9981358 1.9528254
6.4675431 -3.0003545 1.9423225
6.6541991 -3.0742776 1.91032
6.6558261 -3.0696135 1.9146566
6.6647491 -3.05088 1.9108155
6.653645 -3.0456481 1.9112312
6.6583571 -3.0335002 1.9240652
6.6745448 -3.0166905 1.9142123
6.6687164 -3.0160897 1.928378
6.6790214 -3.0074127 1.9136668
6.6923018 -2.9979227 1.9108237
6.8701081 -3.0579054 1.887298
6.8770342 -3.0536149 1.8935429
6.8813972 -3.0519862 1.8951789
6.8900838 -3.0457101 1.8862692
6.8949156 -3.034801 1.8933061
6.8801494 -3.0234296 1.8831999
6.8982043 -3.020107 1.9006064
6.9063926 -3.0068371 1.8893107
6.9087334 -2.9874732 1.897383
7.0778308 -3.0577483 1.8561776
7.0826998 -3.0559044 1.8561178
7.0934825 -3.0314193 1.8707702
7.1104965 -3.0268426 1.8574669
7.1091328 -3.0178373 1.860849
7.1188455 -3.0082448 1.8655441
7.115581 -2.9976492 1.8520081
7.1221967 -2.993217 1.8521864
7.3085542 -3.0614905 1.8265675
7.3013597 -3.0546701 1.8401456
7.3222232 -3.0444109 1.8325444
7.3113203 -3.0335562 1.836902
7.3203435 -3.0161786 1.8358537
7.3240051 -3.0060334 1.8294851
7.3343487 -3.0014844 1.8222189
7.5111504 -3.0663452 1.8051833
7.5296469 -3.0435157 1.7982813
7.5345931 -3.0382609 1.805891
7.5197029 -3.0331752 1.8119904
7.5286322 -3.0195537 1.7947234
7.5311251 -3.0093246 1.7975227
7.5460019 -2.9942396 1.8009777
7.7290349 -3.0674698 1.7821523
7.7272935 -3.0478842 1.7727145
7.7391686 -3.0421536 1.7776092
7.7437625 -3.026896 1.7823246
7.7407589 -3.0174162 1.7793856
7.7508378 -3.0072503 1.7712113
7.7485118 -2.9962201 1.7776269
7.936789 -3.0518022 1.7377088
7.9433641 -3.037539 1.7469655
7.9527235 -3.0326002 1.7407935
7.9655218 -3.0326283 1.7439827
7.9689331 -3.0186715 1.7359754
7.9628906 -2.9970984 1.7429107
8.1468372 -3.0649381 1.7048566
8.1504717 -3.049989 1.7149354
8.1711502 -3.0291743 1.7043744
8.1636391 -3.0348845 1.7140321
8.162528 -3.0210197 1.708601
8.1709356 -3.0048473 1.706352
8.1885834 -2.983568 1.7179549
17.583197 -0.97827846 0.39066929
17.588692 -0.9607724 0.39482668
17.59659 -0.92472291 0.38872623
17.591684 -0.89407778 0.3970044
17.39608 -0.85823005 0.42752445
17.391611 -0.84442812 0.40979704
17.399323 -0.81972939 0.40966365
17.398582 -0.79595 0.41873777
17.391117 -0.76811725 0.41263545
17.40274 -0.74232012 0.40912107
17.403421 -0.71313334 0.41686034
17.396425 -0.69980991 0.41756153
17.413551 -0.67991203 0.40976617
17.404545 -0.64620936 0.42806804
17.40378 -0.63179958 0.42769241
17.404051 -0.60306638 0.41684321
17.406559 -0.56779408 0.42641556
17.408899 -0.55440289 0.41548854
17.40028 -0.52958184 0.42811391
17.405525 -0.49421066 0.42225453
17.407223 -0.47919601 0.42129856
17.416624 -0.45218247 0.40938127
17.406694 -0.42901275 0.41307566
17.408934 -0.41578728 0.42618525
17.409441 -0.38422799 0.40941584
17.40954 -0.353268 0.41708961
17.418755 -0.34063473 0.41574445
17.417509 -0.30646169 0.42349815
17.425301 -0.28167477 0.4117794
17.425686 -0.25237632 0.41113737
17.420176 -0.24208081 0.42121446
17.413677 -0.20304897 0.41400868
17.415228 -0.19457968 0.42567524
17.420437 -0.16446833 0.42626905
17.418724 -0.13441312 0.41412312
17.420206 -0.10478969 0.4086374
17.409328 -0.086447321 0.41148442
17.41707 -0.069813706 0.42420331
17.412535 -0.045815893 0.4174073
17.416245 -0.021828569 0.41560739
17.437756 0.019514676 0.54709268
17.43083 0.030831935 0.54601383
17.436663 0.063405901 0.54910046
17.434128 0.080930918 0.53799421
17.432154 0.11651654 0.55263859
17.438 0.13339329 0.55260164
17.438326 0.1592349 0.54660195
17.441465 0.17269617 0.55293059
17.437288 0.20153077 0.53895164
17.426283 0.23401991 0.54465449
17.433443 0.24952145 0.54416919
17.424763 0.2781125 0.55066973
17.434967 0.29258716 0.5454129
17.428226 0.32461199 0.55334991
17.430346 0.35478076 0.55254138
17.427074 0.37094748 0.54427874
17.423733 0.40762636 0.53752708
17.434357 0.4276644 0.53990626
17.431274 0.44378045 0.54679
17.434181 0.46917844 0.54183322
17.422756 0.50205839 0.54804873
17.430813 0.52661294 0.53852654
17.425335 0.54176319 0.53915071
17.434566 0.57059568 0.54747212
17.4317 0.60200417 0.54163516
17.427992 0.6106329 0.5476386
17.415987 0.63644499 0.54599518
17.417198 0.67344058 0.54006487
17.420753 0.68794829 0.54592651
17.431158 0.70598924 0.55286288
17.416573 0.73326612 0.54835683
17.428167 0.76929361 0.54408395
17.410208 0.78057218 0.55064088
17.412838 0.821845 0.54171091
17.423754 0.84104908 0.53987116
17.4088 0.85737574 0.54234296
17.419817 0.88256234 0.5463109
17.409155 0.90985721 0.54295969
17.412529 0.94163942 0.54980278
17.401731 0.96479267 0.55037469
17.417837 0.97436023 0.5539127
17.409401 1.0165575 0.54916888
6.2072725 -4.910059 1.8977346
6.2098269 -4.9134612 1.897766
6.2234263 -4.8932514 1.8920273
6.2253928 -4.903697 1.8884822
6.2311034 -4.8890376 1.8966883
6.2458277 -4.8732882 1.8825494
6.2541637 -4.8604407 1.8804713
6.258357 -4.8557911 1.894354
6.2570205 -4.8446026 1.8808875
6.2660441 -4.8321881 1.8863721
6.2773061 -4.8362494 1.8862225
6.2820616 -4.8246236 1.894009
6.2868357 -4.8062544 1.8933344
6.3058591 -4.8127627 1.893533
6.3013248 -4.8003912 1.8997011
6.3049846 -4.7801147 1.8929187
6.3144932 -4.7783098 1.8902746
6.3219118 -4.7791061 1.8835611
6.3232002 -4.7680225 1.8993081
6.3310099 -4.7546859 1.8987318
6.3442922 -4.7368455 1.8853471
6.3574123 -4.7409964 1.8948314
6.3583064 -4.727107 1.8939186
6.3585138 -4.7209167 1.8977224
6.2198629 -4.5879841 1.9131192
6.2262478 -4.5762968 1.9119915
6.2258377 -4.5817866 1.9238652
6.2227716 -4.5665307 1.9261295
6.2329803 -4.5566473 1.910655
6.2389231 -4.5456023 1.919686
6.244278 -4.5479116 1.9177161
6.2562356 -4.5237241 1.9227453
6.2576656 -4.5252542 1.9128042
6.2781706 -4.5131764 1.9201852
6.2824669 -4.5072913 1.9136353
6.2741418 -4.5014319 1.9101077
6.2846761 -4.4823799 1.9124168
6.2870722 -4.4727793 1.9212989
6.2917204 -4.4593444 1.9113729
6.3008814 -4.4663272 1.9237912
6.3190618 -4.4543047 1.9251909
6.3152595 -4.4366612 1.9220594
6.316474 -4.443913 1.9086708
6.3277354 -4.4169726 1.918624
6.3463655 -4.4120359 1.9257174
6.3384333 -4.4017134 1.9099166
6.346961 -4.4071326 1.9244056
6.3577857 -4.3964195 1.9197237
6.35748 -4.38731 1.9196973
6.3672357 -4.3752785 1.9238991
6.2061763 -4.2591591 1.9393327
6.209569 -4.24542 1.9555968
6.2298179 -4.2366686 1.9357944
6.2366662 -4.2228465 1.9541091
6.2334557 -4.2165728 1.9485282
6.2373261 -4.2043972 1.9444293
6.2453842 -4.1898475 1.946062
6.2479186 -4.1906142 1.9495498
6.2657595 -4.1778154 1.9532807
6.2635612 -4.1813774 1.9401679
6.2655525 -4.1688819 1.9421557
6.2749591 -4.1589289 1.9492188
6.2806172 -4.1546497 1.9363605
6.2864609 -4.1294341 1.9486436
6.2906065 -4.1333275 1.9385115
6.3091598 -4.1192369 1.9518579
6.3036013 -4.1029639 1.9510489
6.3196635 -4.1100187 1.9407594
6.319201 -4.0850835 1.9545468
6.3224573 -4.0881844 1.9360423
6.3325882 -4.0751204 1.9412953
6.3246951 -4.0584636 1.947755
6.3438525 -4.0619507 1.9497392
6.3501391 -4.0453839 1.948177
6.3486962 -4.0504479 1.9539508
6.3571095 -4.0227246 1.9450362
6.3588567 -4.0263124 1.9436082
6.3597822 -4.0195785 1.9463308
6.3704062 -3.9990354 1.9451859
6.2071776 -3.8955154 1.9801357
6.2129126 -3.873239 1.9713244
6.2238884 -3.8645475 1.9703431
6.2213116 -3.8623779 1.9770401
6.2407069 -3.8595884 1.9714614
6.2385278 -3.8438964 1.9719681
6.2421107 -3.8454337 1.9713397
6.2567663 -3.8308539 1.9782575
6.2499824 -3.820966 1.9830351
6.2659082 -3.8060596 1.9794737
6.2606773 -3.8123472 1.965106
6.2623777 -3.7983334 1.9643513
6.2752542 -3.7787652 1.9836173
6.2871375 -3.787183 1.9763741
6.2857051 -3.7616024 1.9832343
6.2986822 -3.763586 1.9770926
6.2921534 -3.7473595 1.9807127
6.3049841 -3.7418382 1.9702036
6.3047204 -3.7284493 1.9808662
6.3092217 -3.7244711 1.9777117
6.3101497 -3.7110479 1.9795383
6.3166976 -3.7012365 1.9666402
6.3224788 -3.7038484 1.9645643
6.3275132 -3.6998649 1.9653174
6.3452921 -3.6825891 1.98289
6.3499188 -3.6775997 1.9697112
6.348392 -3.6643898 1.9639832
6.3504725 -3.663588 1.9749938
6.3620315 -3.6482766 1.970603
6.3642411 -3.6336777 1.9813932
6.3632832 -3.623353 1.9768019
6.38414 -3.6116703 1.97321
6.372086 -3.6193841 1.9781868
6.2056384 -3.5096245 2.0063274
6.212101 -3.4850833 1.9949034
6.2161236 -3.4810557 1.9996281
6.2269559 -3.4836838 2.0087144
6.2320476 -3.4693475 2.0097475
6.228138 -3.4685557 1.9972296
6.2398252 -3.4506457 2.0104411
6.2422905 -3.4387722 2.0051005
6.2601523 -3.4311087 2.0025592
6.2544103 -3.4205534 2.0034134
6.253633 -3.4091818 2.0075254
6.2729774 -3.4162412 2.0075147
6.2808852 -3.4041588 2.0028603
6.2735057 -3.3861134 2.0068998
6.2752008 -3.3878334 1.9965914
6.277916 -3.3783076 1.9983834
6.2881017 -3.3619275 2.009387
6.2914858 -3.3479023 2.0035594
6.2895179 -3.3408237 1.9966834
6.304996 -3.3442833 2.0116444
6.3013163 -3.3333046 2.0092521
6.3217363 -3.3277538 2.0110686
6.3221331 -3.3190544 1.9962292
6.3178635 -3.3024821 2.01069
6.3176208 -3.2889507 1.9946791
6.3270578 -3.2774267 1.9994355
6.338274 -3.2804284 1.9918075
6.3404818 -3.2647443 2.009433
6.3368497 -3.2557149 2.0053594
6.3463287 -3.2558815 2.0090411
6.3507571 -3.24439 1.9949106
6.3527803 -3.237128 1.9975333
6.3566079 -3.2141068 2.0000513
6.3655834 -3.2199807 2.0103309
6.3690076 -3.2107098 2.0053253
6.3764081 -3.1966026 2.0030198
6.3885531 -3.1958675 2.0088828
6.3930573 -3.1775005 2.0015936
6.395175 -3.1673295 1.9944911
6.3932061 -3.1522307 1.9983729
6.394907 -3.1572428 2.0048909
6.4024644 -3.144758 2.009809
6.4126325 -3.1329601 2.0088804
6.4053059 -3.1166885 1.9932034
6.4082465 -3.1214824 1.9979168
6.4261689 -3.1033525 2.0078502
6.4217734 -3.0975428 2.0096257
6.4232287 -3.091681 2.0008686
6.4373817 -3.0881417 1.9933769
6.4444199 -3.0709984 1.9920721
6.4353275 -3.0565698 1.9968375
6.4527407 -3.0589859 2.0051634
6.4550591 -3.0356243 1.9963568
6.4564362 -3.043967 1.9948854
6.4621239 -3.0337343 1.9996777
6.4725127 -3.009932 1.9936509
6.4728222 -3.0148656 2.0044792
6.474894 -3.0026722 1.9922085
6.4681969 -2.9806406 1.9945103
6.6537476 -3.0589685 1.9769758
6.6583443 -3.0473335 1.9728978
6.6676931 -3.042563 1.9774187
6.6653552 -3.0397391 1.9763103
6.6741977 -3.0197906 1.9778625
6.6815562 -3.0183942 1.9806447
6.6936936 -3.0108368 1.9782203
6.699791 -3.007185 1.981848
6.6967039 -2.9856632 1.9686488
6.8821154 -3.0558579 1.9404482
6.8891459 -3.0433495 1.9359888
6.8866348 -3.0505247 1.9538757
6.900033 -3.032618 1.9472378
6.8979383 -3.0213037 1.954123
6.8947215 -3.005388 1.9516498
6.913044 -3.0063424 1.94126
6.914135 -2.9993751 1.9491088
7.0944619 -3.0693176 1.9232785
7.0968394 -3.047478 1.9176461
7.1060038 -3.0451851 1.9133121
7.1149602 -3.0401378 1.9118917
7.1194434 -3.0218637 1.9136957
7.1217999 -3.0144408 1.9237998
7.1175046 -3.0133483 1.9156058
7.1200805 -2.9996946 1.913709
7.302712 -3.0686986 1.8932269
7.3125038 -3.043781 1.8980886
7.3301306 -3.0443919 1.8821768
7.3299193 -3.0269039 1.8982092
7.3240614 -3.0245159 1.8866328
7.3338552 -3.0174222 1.8901962
7.3422146 -2.9900823 1.8821203
7.5156479 -3.0595922 1.8635411
7.5359907 -3.0623677 1.8641359
7.5281258 -3.0467622 1.8684533
7.5383487 -3.0352495 1.8706007
7.5360818 -3.018219 1.8674679
7.5386615 -3.007822 1.8535205
7.5453148 -3.0018826 1.8668516
7.547986 -2.9860327 1.8523548
7.7431765 -3.0575383 1.8267236
7.7379069 -3.0516992 1.8262115
7.7445464 -3.0399003 1.8409394
7.7605982 -3.0120373 1.8423969
7.7572298 -3.0163043 1.8289586
7.7581635 -2.9945979 1.8365262
7.9459438 -3.0507805 1.8026044
7.9659615 -3.0569592 1.7965676
7.9520164 -3.0406902 1.8059454
7.9713864 -3.0259414 1.8006424
7.9762444 -3.0242887 1.8062289
7.9834623 -3.0121689 1.806855
7.9701529 -2.9976583 1.8084747
8.176959 -3.0609066 1.7791393
8.1799011 -3.0419052 1.7827264
8.1693878 -3.0261729 1.7771968
8.1864271 -3.0115623 1.7760421
8.1775351 -3.0012066 1.7776158
8.1825905 -2.9890528 1.7843597
17.418015 -0.9683162 0.54922694
17.417101 -0.93270028 0.54232812
17.403196 -0.92219079 0.53805137
17.407389 -0.8937676 0.53776449
17.420372 -0.86653936 0.54904228
17.409014 -0.84626031 0.53637338
17.411795 -0.81820744 0.5477525
17.424984 -0.80552506 0.54922312
17.423353 -0.77362746 0.54006875
17.412226 -0.73992318 0.55295867
17.420546 -0.71683174 0.54061615
17.415361 -0.69599831 0.53959543
17.423244 -0.67038047 0.54478818
17.426819 -0.6418463 0.55410635
17.430069 -0.62157238 0.54635322
17.424566 -0.59386444 0.55457789
17.426359 -0.58455044 0.54655242
17.419497 -0.54318881 0.54690486
17.434071 -0.52456588 0.55484867
17.419458 -0.49814314 0.55218917
17.4377 -0.48443955 0.54831195
17.423567 -0.45692518 0.54095763
17.428377 -0.42249894 0.55490917
17.438347 -0.40543762 0.55308163
17.437601 -0.38602814 0.54721344
17.429068 -0.35299274 0.54473734
17.428726 -0.3390004 0.54725826
17.440325 -0.31267199 0.54682273
17.432241 -0.29253697 0.5406909
17.432068 -0.26774982 0.53666151
17.429201 -0.24542063 0.54201442
17.442423 -0.21789195 0.5505594
17.428257 -0.18618456 0.54920751
17.428009 -0.16510572 0.54059297
17.445898 -0.1453373 0.54706299
17.437885 -0.11463252 0.54224288
17.427364 -0.084766753 0.54708886
17.439329 -0.063765496 0.55393618
17.430824 -0.05127639 0.53659099
17.436153 -0.01935564 0.53970474
17.454966 0.012566469 0.66824329
17.461546 0.034178626 0.67255706
17.456636 0.061331224 0.66424859
17.450342 0.08797577 0.67268896
17.455399 0.11228468 0.67656738
17.446892 0.12838972 0.66681999
17.453531 0.15381473 0.68260747
17.444981 0.1710806 0.67506516
17.443245 0.19975175 0.67568076
17.44413 0.23369625 0.66388577
17.448095 0.24888468 0.67645222
17.453138 0.27066988 0.66627496
17.442463 0.30759683 0.67889452
17.443445 0.3183136 0.67380285
17.452835 0.35420552 0.66866446
17.446068 0.38174269 0.67527574
17.449518 0.39610487 0.66295689
17.448725 0.42213801 0.66354907
17.440353 0.4466894 0.66845781
17.452562 0.47241378 0.66295689
17.452944 0.50242484 0.66829062
17.445858 0.51783687 0.67105633
17.448561 0.54296345 0.66639626
17.443848 0.56949621 0.66810077
17.454012 0.58587533 0.68134564
17.439001 0.61597937 0.67777681
17.450569 0.65006071 0.66421998
17.449783 0.66390699 0.67234683
17.449556 0.68997568 0.68067646
17.434202 0.70888239 0.67038274
17.433315 0.74883211 0.66575325
17.437729 0.76239115 0.67218983
17.444872 0.77938229 0.67940813
17.427322 0.81242502 0.66881531
17.431442 0.83642757 0.67025888
17.428774 0.86625159 0.67746478
17.422503 0.88850832 0.67441165
17.42264 0.91087878 0.68086553
17.430872 0.93395519 0.66905022
17.427399 0.96264613 0.67180502
17.433598 0.99145067 0.67017424
17.435131 1.0057025 0.67776877
6.2204027 -4.9278512 1.9549015
6.2151833 -4.9121594 1.9541922
6.2319064 -4.8988109 1.9445013
6.2366524 -4.9010515 1.9485631
6.2448597 -4.8958945 1.9460863
6.2529721 -4.8800249 1.953198
6.2656341 -4.8712034 1.9391704
6.2694426 -4.8641424 1.9498376
6.2629948 -4.8501306 1.9547458
6.2799897 -4.8518586 1.9445022
6.2796836 -4.8290234 1.9515239
6.2836919 -4.8382826 1.945567
6.3069792 -4.8176813 1.9442787
6.3005633 -4.8191838 1.9520606
6.3181968 -4.7993183 1.9563003
6.3133411 -4.7981663 1.9477012
6.3155851 -4.7911658 1.9392058
6.3237891 -4.7671595 1.9490439
6.342648 -4.7763906 1.9441564
6.3464026 -4.755404 1.9487946
