# .PCD v0.7 - Point Cloud Data file format
VERSION 0.7
FIELDS x y z
SIZE 4 4 4
TYPE F F F
COUNT 1 1 1
WIDTH 1512
HEIGHT 1
VIEWPOINT 0 0 0 1 0 0 0
POINTS 1512
DATA ascii
-0.57432133 -3.1285055 1.8384771
-0.58766031 -3.1225579 1.8362409
-0.57020193 -3.1360567 1.8335789
-0.57850432 -3.1316042 1.8369521
-0.56118685 -3.1207626 1.8362836
-0.5552395 -3.1281388 1.833191
-0.56112844 -3.1291492 1.8447669
-0.55610609 -3.1228492 1.8410566
-0.5516293 -3.1228175 1.8422856
-0.55116969 -3.126219 1.8355012
-0.5398826 -3.1273334 1.8422432
-0.54338372 -3.1261587 1.8357588
-0.52911997 -3.1318989 1.8365961
-0.51751703 -3.1303155 1.8426999
-0.52254003 -3.1357899 1.8404531
-0.50823039 -3.1396937 1.831632
-0.5170123 -3.1338639 1.8425961
-0.51421744 -3.1473906 1.8406496
-0.49513182 -3.1408203 1.8395184
-0.49481606 -3.1381712 1.835763
-0.50128371 -3.148617 1.8316643
-0.50100851 -3.1469469 1.8295054
-0.48721659 -3.1353972 1.8423655
-0.4925864 -3.1366298 1.8375616
-0.47185162 -3.1472714 1.82803
-0.47336251 -3.1479907 1.8353351
-0.46369362 -3.1418803 1.8292043
-0.46305975 -3.1373644 1.8302753
-0.46437144 -3.1381531 1.8386388
-0.44681337 -3.1430173 1.8303673
-0.45300987 -3.1387413 1.8323598
-0.44330409 -3.1385837 1.8367262
-0.4357563 -3.1490283 1.8333397
-0.43534759 -3.1492379 1.8294122
-0.43974185 -3.1531088 1.8355281
-0.43366691 -3.1428881 1.8416039
-0.420286 -3.1473963 1.8344631
-0.41303492 -3.1556697 1.8325051
-0.42471203 -3.1496549 1.8304192
-0.40802491 -3.1504827 1.8441236
-0.39960843 -3.1619089 1.8427521
-0.40919861 -3.1480317 1.8421807
-0.39442167 -3.1510105 1.8318007
-0.40303034 -3.1579852 1.841841
-0.39556578 -3.1537592 1.8286339
-0.38198444 -3.1478646 1.8462654
-0.38232657 -3.1529961 1.84
-0.36980876 -3.1552844 1.8460664
-0.37924814 -3.1536586 1.8387469
-0.37077275 -3.1597552 1.8311924
-0.36859223 -3.1618457 1.8327985
-0.36778238 -3.1579375 1.8288622
-0.3475433 -3.1636646 1.8425214
-0.35768345 -3.1624129 1.8297745
-0.33778265 -3.1581104 1.8418155
-0.35108823 -3.1646407 1.840307
-0.34676161 -3.1559284 1.8342167
-0.32869977 -3.1591144 1.8263818
-0.3245708 -3.1561561 1.8407102
-0.32776076 -3.1691401 1.829473
-0.31850454 -3.1643615 1.8366705
-0.3076416 -3.163192 1.828295
-0.30071431 -3.166203 1.8347052
-0.30012712 -3.1637745 1.8428736
-0.29228631 -3.1658661 1.8358449
-0.29240391 -3.1656849 1.8427798
-0.29402936 -3.1655996 1.838915
-0.28174442 -3.1718755 1.8323461
-0.27729383 -3.1584461 1.829211
-0.27851439 -3.172631 1.8335614
-0.27097142 -3.1619849 1.8431535
-0.27623042 -3.1649013 1.8343722
-0.26986441 -3.1653168 1.8430308
-0.25708762 -3.1695721 1.8345625
-0.25614196 -3.170414 1.8444411
-0.26222456 -3.1758018 1.834933
-0.24137168 -3.1672437 1.8459364
-0.24438313 -3.17083 1.8310838
-0.23396294 -3.1743956 1.8300742
-0.2266774 -3.1636124 1.8352872
-0.23504096 -3.1697171 1.8315479
-0.23381191 -3.1655126 1.845287
-0.22136371 -3.179374 1.8389996
-0.22025651 -3.1648915 1.8288397
-0.20761712 -3.1738966 1.8382144
-0.20509873 -3.1734178 1.8425716
-0.21208797 -3.1765206 1.8358511
-0.20807345 -3.1670694 1.8459021
-0.19891112 -3.1716335 1.8327392
-0.19075793 -3.1733477 1.8307052
-0.17739132 -3.1678617 1.8429058
-0.18776378 -3.1655834 1.839644
-0.18439665 -3.1752939 1.8428476
-0.16731656 -3.168335 1.8408544
-0.16039601 -3.1731746 1.8301709
-0.16410048 -3.1799343 1.8402742
-0.16344737 -3.178122 1.8275769
-0.14951447 -3.1767347 1.8446264
-0.14553019 -3.1706247 1.8374017
-0.15470847 -3.1808019 1.8287463
-0.14592049 -3.1820529 1.8458542
-0.13626003 -2.9906106 1.9145486
-0.11879451 -2.9877372 1.9047601
-0.1181251 -2.9922254 1.9021893
-0.11944855 -2.9942358 1.9150312
-0.11145538 -2.9843931 1.9013597
-0.11335865 -2.9983404 1.9097402
-0.10795901 -2.9827981 1.899742
-0.10550951 -2.9877155 1.8960812
-0.090284504 -2.9862549 1.9024647
-0.083714738 -3.0004508 1.9078126
-0.080036946 -2.9981024 1.897305
-0.07670173 -2.9824717 1.9098618
-0.08315482 -2.990355 1.8981152
-0.072178565 -2.9837453 1.9045374
-0.068360187 -2.9933262 1.9009756
-0.058213215 -2.9889944 1.9036337
-0.059685521 -2.9834476 1.9019957
-0.051155992 -2.9996355 1.8955959
-0.046287116 -2.9847832 1.9108067
-0.055034537 -2.9875462 1.9119654
-0.038434029 -2.9908166 1.8956107
-0.032340925 -2.9949369 1.915019
-0.033690922 -2.989696 1.9066706
-0.026787478 -2.9976647 1.9050524
-0.033461712 -2.9860008 1.9139681
-0.023697775 -2.9883757 1.9073243
-0.011275606 -2.9964092 1.9063307
-0.020491481 -3.0000997 1.9092461
-0.016106948 -3.0031075 1.9071051
-0.016511708 -2.9990492 1.9022866
0.0042423629 -3.0025773 1.9142774
0.0086417226 -2.984199 1.9022214
0.012449406 -2.9913576 1.8954743
0.0079086497 -2.9957998 1.9008209
0.021749774 -2.9911032 1.8978875
0.024506565 -3.0008297 1.9126294
0.02061959 -3.0023212 1.8993822
0.035738893 -2.997216 1.9024833
0.033773612 -2.9919136 1.9026095
0.029667294 -2.9912033 1.9068207
0.040742427 -2.9939263 1.9075248
0.043808281 -2.9964371 1.9066226
0.054818146 -2.9993279 1.8985711
0.059080847 -2.9909468 1.9060811
0.048689902 -2.9929121 1.8982853
0.055365484 -2.9963078 1.9007546
0.056782879 -2.9877782 1.9017183
0.064953029 -2.9883165 1.9077673
0.07622426 -2.9950075 1.899093
0.067621469 -2.9899919 1.9110975
0.083229728 -2.9980888 1.9003416
0.079542071 -2.9873068 1.9070314
0.09495201 -2.9897022 1.9107813
0.10231031 -2.992022 1.9028572
0.097178362 -2.9889195 1.9129069
0.10425041 -2.9833286 1.8994942
0.11379164 -3.0005071 1.9145385
0.10429639 -2.9937019 1.9089661
0.12084997 -2.9998124 1.8966184
0.10872908 -2.9987118 1.9091959
0.12861246 -2.9861896 1.9135808
0.11773971 -2.9815409 1.9086456
0.13355649 -2.9856687 1.9012074
0.13312288 -2.9866238 1.9113359
0.14476493 -2.9968967 1.9044473
0.14645654 -2.9842832 1.9030244
0.15473506 -2.9863138 1.904292
0.16693902 -3.1695213 1.8431904
0.16495073 -3.1728513 1.844873
0.17061444 -3.1724865 1.8275073
0.16885541 -3.1764226 1.8425093
0.17148089 -3.1754153 1.8419994
0.18917091 -3.1827753 1.8371958
0.17942241 -3.1747522 1.8312647
0.19980204 -3.1792703 1.8348829
0.19329271 -3.16628 1.8309308
0.20536014 -3.169194 1.8447586
0.1986948 -3.1729677 1.8426799
0.1999647 -3.1831739 1.8370572
0.22291674 -3.1721599 1.8315793
0.2285026 -3.1673486 1.8419391
0.22909012 -3.1643548 1.8330734
0.2291674 -3.1681135 1.8366092
0.22444056 -3.1660633 1.8279231
0.23378228 -3.1680758 1.8344675
0.24674171 -3.1810391 1.8337449
0.23574863 -3.1663764 1.8298448
0.25858283 -3.1628199 1.8419011
0.25933778 -3.1624341 1.8434752
0.25446972 -3.1635365 1.835781
0.26412326 -3.1634929 1.8326098
0.26413602 -3.1673014 1.8321377
0.27528262 -3.1754713 1.8276058
0.26996449 -3.1728067 1.8448172
0.2759597 -3.1652386 1.839703
0.28849882 -3.1691487 1.841306
0.2803148 -3.1684892 1.8372461
0.28823012 -3.1694324 1.8364106
0.30820119 -3.1740568 1.8356229
0.30974579 -3.1679852 1.8333883
0.3035956 -3.1766953 1.830847
0.31427363 -3.1698277 1.8441405
0.32447901 -3.1762476 1.8289013
0.330152 -3.1724198 1.8359574
0.33303571 -3.1670299 1.8302064
0.33080459 -3.1735339 1.8401637
0.48275834 -4.6665368 1.2780952
0.50015467 -4.6619587 1.2869874
0.49671465 -4.6618381 1.2908552
0.51248592 -4.6646004 1.2803884
0.50602168 -4.6579404 1.2807988
0.5170151 -4.6450286 1.2876583
0.52130109 -4.6463375 1.287673
0.53034675 -4.6463985 1.2910845
0.54644752 -4.6480012 1.2794485
0.53679627 -4.6562586 1.2808653
0.55710131 -4.6495686 1.2827123
0.56763446 -4.6519904 1.2884669
0.56705886 -4.6443601 1.2936628
0.57034993 -4.6474652 1.2754077
0.58317298 -4.6435404 1.2831154
0.57640547 -4.6551266 1.2830281
0.59649634 -4.648931 1.2809162
0.59660071 -4.640192 1.2780181
0.60011542 -4.6418538 1.2927837
0.61199301 -4.639668 1.2785488
0.62528628 -4.6436768 1.2902519
0.62042528 -4.6436505 1.2787716
0.62131768 -4.6506977 1.2741512
0.62740475 -4.6409497 1.2856464
0.63523555 -4.6448746 1.280278
0.65077281 -4.6420612 1.2825258
0.64622152 -4.6456499 1.2901627
0.65955698 -4.6356258 1.2857229
0.66999322 -4.6285782 1.2787962
0.67519379 -4.6361427 1.2932217
0.68615812 -4.6369023 1.2827957
0.68882418 -4.6290107 1.2915437
0.70000869 -4.6267123 1.2923836
0.70657146 -4.6248121 1.2821009
0.70462805 -4.6215644 1.2870144
0.7173149 -4.629262 1.2938532
0.71224809 -4.6279926 1.2762059
0.73481685 -4.6198673 1.2876759
0.73294443 -4.6277843 1.2852781
0.74414384 -4.6169782 1.2743913
0.74976736 -4.6216841 1.2818112
0.74496341 -4.630199 1.2761806
0.76890606 -4.6140022 1.2918965
0.77368712 -4.6177154 1.2885519
0.76818407 -4.6298428 1.2874851
0.78759295 -4.6157522 1.2777418
0.7938391 -4.6131973 1.2882802
0.78243643 -4.6145396 1.2859472
0.80250233 -4.6242204 1.2746909
0.80016893 -4.6091652 1.2932255
0.80694717 -4.6149487 1.2860303
0.82114381 -4.6119976 1.2892874
0.8297081 -4.6115632 1.2876989
0.8339867 -4.6128063 1.2813462
0.83491921 -4.606009 1.2818061
0.83478326 -4.6062574 1.275287
0.84490234 -4.6067142 1.2902451
0.86555833 -4.6050253 1.2827731
0.86387956 -4.6097212 1.2845247
0.87094277 -4.6032 1.280226
0.87653899 -4.5963478 1.2890294
0.87493831 -4.6017447 1.2796605
0.89659309 -4.605022 1.2895936
0.89665759 -4.5904636 1.2771425
0.91036761 -4.6014142 1.2903386
0.90453589 -4.5989399 1.2821265
0.91218334 -4.5927849 1.2922897
0.91478699 -4.5924101 1.2829643
0.92991704 -4.6001492 1.2877567
0.92679673 -4.5872579 1.2778752
0.93937606 -4.5952015 1.2936416
0.94075686 -4.5911756 1.2827973
0.95276695 -4.5919232 1.2874534
0.95470834 -4.5790324 1.2854367
0.9641968 -4.5788565 1.2912294
0.96687949 -4.5909352 1.2782468
0.98134822 -4.5817871 1.2901611
0.98597825 -4.5764551 1.281183
1.001281 -4.5824103 1.2831898
1.0013742 -4.5779018 1.2768028
1.011584 -4.5672278 1.2811779
1.0175582 -4.5815854 1.2882756
1.0126861 -4.570343 1.2933137
1.0324683 -4.5635681 1.2899216
1.0302318 -4.5737114 1.2853755
1.0337859 -4.5675764 1.287412
1.0443555 -4.5733762 1.2772485
1.0468374 -4.5609465 1.2910603
1.0603391 -4.5596132 1.2775509
1.0558456 -4.5645843 1.2871754
1.0649631 -4.5657406 1.2860901
1.0784535 -4.5673165 1.2892547
1.0790397 -4.5601559 1.2822598
1.0846618 -4.5596023 1.2806296
1.0868897 -4.5476727 1.2874368
1.1045694 -4.5585742 1.2789505
1.1042836 -4.54529 1.2832273
1.113832 -4.5559058 1.2784876
1.11719 -4.5593987 1.2936257
1.1270366 -4.5537629 1.282329
1.1265054 -4.5453854 1.2884028
1.1448867 -4.5498905 1.291419
1.1464304 -4.5401807 1.2801054
1.1409771 -4.5512176 1.2878456
1.1538913 -4.5463943 1.2860068
1.1736106 -4.5302558 1.2917486
1.1648411 -4.5407662 1.2892483
1.1803464 -4.528089 1.2745973
1.1911094 -4.5384126 1.2749088
1.1970085 -4.5252457 1.2793031
1.1916085 -4.5389643 1.2905133
1.1922801 -4.5206537 1.2756476
1.2159655 -4.5271492 1.2889119
1.2083349 -4.5254459 1.2895505
1.2284423 -4.5171738 1.2934152
1.2267084 -4.5155253 1.2918119
1.2307141 -4.5289874 1.2780828
1.232217 -4.5132833 1.275407
1.2390665 -4.5131521 1.2807748
1.246225 -4.5134563 1.2776678
1.2577755 -4.5054922 1.2791914
1.2605338 -4.5031857 1.2773662
1.2684239 -4.5035214 1.287377
1.2695758 -4.5178127 1.2774142
1.291364 -4.4983191 1.2940376
1.2970142 -4.5068798 1.2906144
1.3010588 -4.4977522 1.2920252
1.3113717 -4.4934378 1.2874279
1.3190062 -4.5085864 1.2812403
1.312006 -4.5028872 1.2930185
1.3218962 -4.4919457 1.2910218
1.3333075 -4.4845519 1.2895833
7.5347171 2.9753981 0.104104
7.5408721 2.9753571 0.10930161
7.5332594 2.9853594 0.10986353
7.52773 3.0054359 0.10583898
7.5111046 3.0259209 0.10103579
7.3419175 2.9623663 0.16440085
7.3356071 2.9856427 0.16604041
7.3284078 2.9929709 0.17417257
7.3335714 3.0050194 0.17149204
7.3230238 3.0073543 0.15825595
7.3176599 3.0262227 0.1645131
7.3128433 3.0237231 0.16034371
7.1301827 2.9745615 0.24329139
7.1339588 2.983489 0.24069427
7.1320734 2.9966922 0.24553573
7.118474 2.9994304 0.22684427
7.1205621 3.0199938 0.24119903
7.1242762 3.0175078 0.23265767
7.1161084 3.0243495 0.22594602
6.9321551 2.9709232 0.29902008
6.9281464 2.9699826 0.31309226
6.9303813 2.9884326 0.29446378
6.9284334 3.0022488 0.30868194
6.9217563 3.0039754 0.3018811
6.9124684 3.0079646 0.29834267
6.9080086 3.0225167 0.30760738
6.9048438 3.0433331 0.30750632
6.7237654 2.9762256 0.36265939
6.7264934 2.9807413 0.36707303
6.722496 2.9786124 0.36204758
6.723897 2.996603 0.36641756
6.7193565 3.0009701 0.37957931
6.7161746 3.0075445 0.37690467
6.7071977 3.03161 0.36630997
6.6914072 3.0305698 0.37006372
6.6920648 3.0492649 0.3787345
6.5106859 2.9710183 0.44625601
6.5205903 2.9859176 0.44521084
6.5179715 2.9876742 0.43930441
6.499754 3.0095768 0.44189802
6.4964981 3.017036 0.43311694
6.4975996 3.0241237 0.43934354
6.4918504 3.0322115 0.44279081
6.4834137 3.0355175 0.44095588
6.4843693 3.047241 0.44873875
6.3187714 2.983711 0.51354444
6.3122387 2.9742193 0.50109589
6.3055515 2.9987705 0.51446134
6.2978072 3.0048535 0.5005042
6.3041444 3.0168827 0.4993763
6.2930622 3.0098319 0.49663985
6.2931871 3.0280716 0.51192933
6.2795267 3.0447633 0.50625068
6.2693009 3.0372326 0.51482803
6.2772284 3.0548844 0.50608462
6.103766 2.9789705 0.57256889
6.0967093 2.9829299 0.57310325
6.0971918 3.0043545 0.56939989
6.0910282 3.0021992 0.58299667
6.0908957 3.0105574 0.57984531
6.238203 3.1157038 0.51320851
6.2340655 3.1217308 0.5037095
6.2452049 3.1183105 0.50214267
6.2306538 3.1288898 0.50429136
6.224668 3.1316338 0.51534408
6.2299266 3.1543257 0.50424325
6.2139935 3.1541076 0.50860196
6.2185831 3.1585305 0.50589126
6.2194567 3.1809602 0.51253712
6.2139153 3.1874394 0.49905896
6.2052107 3.1968403 0.49856997
6.1975207 3.2064264 0.51540208
6.2003193 3.2114871 0.50011384
6.1815391 3.2263439 0.5067113
6.184896 3.2195737 0.50736523
6.1792932 3.2424335 0.5020296
6.1825771 3.2537436 0.50780028
6.1702085 3.254039 0.50932467
6.1751165 3.2596157 0.5046156
6.1666589 3.2640707 0.49772891
6.164711 3.2842526 0.51159233
6.162262 3.2811882 0.50639725
6.1566329 3.3053787 0.49762455
6.135704 3.2952566 0.5150764
6.1413608 3.3129714 0.49713224
6.1276588 3.3295751 0.51342833
6.1286097 3.333967 0.51242137
6.1353192 3.3305061 0.50310272
6.1235414 3.3564813 0.51076013
6.1070428 3.3585386 0.51427823
6.1036453 3.3631999 0.50939035
6.1140995 3.3699763 0.51285654
6.0993462 3.3756995 0.51193786
6.095809 3.3850818 0.51232839
6.0897112 3.4047201 0.50187111
6.0856576 3.4152687 0.49946165
6.2420511 3.5034368 0.44523114
6.2531343 3.5111339 0.44666022
6.2348866 3.5317006 0.44552806
6.2242842 3.5404274 0.43792331
6.2371879 3.5504279 0.44645643
6.2251916 3.5555654 0.43324894
6.2166495 3.5506446 0.43725434
6.2071762 3.5668931 0.44213811
6.2180815 3.5817623 0.43816295
6.1985178 3.5773087 0.43624571
6.1965322 3.5898278 0.44196746
6.1879678 3.5983126 0.44667998
6.18082 3.6134448 0.44325945
6.1925282 3.6228817 0.43987301
6.17662 3.630141 0.43780109
6.1692324 3.6303353 0.43218756
6.1686254 3.6469307 0.43298122
6.1720119 3.6590083 0.44135812
6.1602702 3.6669588 0.43594614
6.1445413 3.6803248 0.43742907
6.1468835 3.6766965 0.44278672
6.1349349 3.6895077 0.447992
6.1476874 3.7001867 0.43969911
6.1370072 3.7076018 0.43221968
6.1229286 3.724148 0.44338346
6.1267662 3.7183585 0.44613233
6.1249781 3.7370257 0.43687436
6.103972 3.7441552 0.43109894
6.111331 3.7446306 0.44468594
6.093266 3.7544765 0.44305804
6.0966721 3.7717762 0.42922837
6.0854235 3.7822509 0.43964314
6.2392564 3.889899 0.36451411
6.2447581 3.8929517 0.37591147
6.2427683 3.9070852 0.37531009
6.2319303 3.9102271 0.38038146
6.2238288 3.916764 0.37558958
6.2264571 3.9274895 0.36940384
6.2032981 3.9307806 0.37517747
6.2137141 3.9412253 0.36228845
6.2024899 3.9603066 0.37819758
6.1974239 3.9533818 0.3760874
6.1827612 3.9656565 0.373853
6.1806202 3.9688377 0.36596885
6.1898651 3.995446 0.3635231
6.1784964 3.9966447 0.37553185
6.1721869 3.9951835 0.36539775
6.1610737 4.0218039 0.3773171
6.1637626 4.0107303 0.36386308
6.1522131 4.0355496 0.37219688
6.1477628 4.0346346 0.37096268
6.1392097 4.0541553 0.37416223
6.1285343 4.0645261 0.38100266
6.1356125 4.0582819 0.36239812
6.1147947 4.0668197 0.36178336
6.1115193 4.0895386 0.37375695
6.1202407 4.0915093 0.37566623
6.0988164 4.0879402 0.3756007
6.1092992 4.1126456 0.37587434
6.0863161 4.1113997 0.37238815
6.24754 4.2367711 0.31175175
6.2314854 4.2339697 0.30973563
6.2386184 4.2461257 0.30953443
6.2325792 4.2510056 0.29454094
6.2279239 4.2607245 0.29954523
6.2226415 4.2728367 0.29873601
6.2093205 4.2793512 0.31137338
6.197897 4.2901335 0.31192553
6.2063956 4.2971034 0.30867493
6.1951561 4.306807 0.29567766
6.180418 4.3075771 0.29410082
6.1726956 4.3181806 0.30102059
6.1829443 4.3418164 0.31140304
6.1729803 4.345325 0.29797974
6.1680107 4.3501019 0.3055982
6.1480331 4.3555326 0.29666016
6.1472344 4.37359 0.30557606
6.1390615 4.3661842 0.29662231
6.1314287 4.393249 0.30599466
6.140533 4.3950582 0.29643482
6.1166282 4.4081254 0.29901829
6.1111345 4.3994784 0.30358636
6.1125493 4.4271002 0.30317995
6.1043339 4.4307904 0.29768029
6.1026835 4.435555 0.30836412
6.0886402 4.4463983 0.29589343
6.2376013 4.5535579 0.24524027
6.2433562 4.56779 0.22627658
6.2201457 4.5804806 0.22581814
6.2262955 4.5883794 0.23861793
6.2228732 4.5984893 0.23594271
6.2020221 4.6092329 0.2360864
6.2057271 4.6075306 0.23532683
6.189014 4.6237645 0.22974057
6.1867886 4.6245117 0.2404108
6.1752353 4.6373897 0.23342493
6.1711993 4.653461 0.23406114
6.1641617 4.6616416 0.24023499
6.1581478 4.6729779 0.23041421
6.1516643 4.6768417 0.23981589
6.157968 4.6836734 0.23065989
6.1415849 4.6960568 0.24358916
6.1453333 4.6985593 0.22616652
6.1283102 4.7107749 0.23633714
6.125689 4.7272034 0.23862296
6.1137261 4.7185297 0.24516433
6.1147656 4.7322817 0.23916361
6.0964293 4.745471 0.232739
6.1042547 4.7591333 0.22905503
6.2305589 4.8686786 0.17298499
6.2377796 4.8753772 0.16283296
6.2158322 4.8922143 0.17649588
6.2268023 4.899334 0.16410227
6.2203374 4.9159765 0.17537428
6.204031 4.9165564 0.17453437
6.1899986 4.9317427 0.1764888
6.1824951 4.9345503 0.16367322
6.1889791 4.9456153 0.17553364
6.1690264 4.9511113 0.17255235
6.1653776 4.9612174 0.17475322
-2.6665421 -3.8698735 1.3251035
-2.6619508 -3.8637528 1.3178763
-2.6548293 -3.8703516 1.3123237
-2.6535029 -3.8716841 1.3136473
-2.6525574 -3.8735178 1.312184
-2.6437027 -3.8696167 1.3169729
-2.640029 -3.8908005 1.3243771
-2.6321247 -3.8769517 1.3120766
-2.6222501 -3.8947639 1.3262752
-2.6177683 -3.8939383 1.3099496
-2.6130173 -3.8891757 1.3108739
-2.6108663 -3.905221 1.3216499
-2.5959373 -3.8995497 1.3095508
-2.586556 -3.9179618 1.3198351
-2.5958459 -3.9208434 1.3119941
-2.5865941 -3.9202907 1.3117548
-2.5725482 -3.9214895 1.3140252
-2.5710933 -3.9202144 1.3138299
-2.5619338 -3.9345005 1.3195003
-2.5585704 -3.9297457 1.309667
-2.5515277 -3.9256856 1.3282591
-2.5435557 -3.9449253 1.314461
-2.5448029 -3.9346924 1.3099818
-2.5381441 -3.9405391 1.3107305
-2.5411961 -3.9411418 1.3122299
-2.532084 -3.9579642 1.3179066
-2.5232065 -3.9462171 1.3260018
-2.5120535 -3.9584963 1.3189811
-2.5210907 -3.9671025 1.3212762
-2.5044527 -3.9578366 1.3119203
-2.4976432 -3.9670246 1.3102107
-2.4922366 -3.9737422 1.3128399
-2.4806232 -3.9672129 1.3092731
-2.4934843 -3.9795365 1.3234229
-2.4855917 -3.9804282 1.3205254
-2.4761949 -3.9777293 1.3243533
-2.4611166 -3.991679 1.3234686
-2.4579382 -4.0000067 1.3138369
-2.4617758 -4.0029078 1.3191237
-2.4433134 -3.9947121 1.3171933
-2.4542019 -4.0052524 1.3095839
-2.4467955 -4.0159373 1.3187585
-2.4367552 -4.0205641 1.3179557
-2.4302766 -4.0236125 1.3283155
-2.4296436 -4.0243335 1.3212614
-2.4119034 -4.0212283 1.3203766
-2.4103305 -4.0286198 1.3090047
-2.4096377 -4.0184126 1.3127596
-2.398572 -4.0376277 1.3170604
-2.4022145 -4.0439696 1.3129959
-2.3877828 -4.0467949 1.3218224
-2.3809559 -4.0478125 1.3233877
-2.3849497 -4.0443935 1.3237417
-2.3697414 -4.0401049 1.324455
-2.3641691 -4.0607963 1.3278471
-2.3656459 -4.0493655 1.3177365
-2.3480031 -4.061985 1.3236188
-2.3417275 -4.0595388 1.3230845
-2.3516924 -4.0716591 1.3267035
-2.337352 -4.0730586 1.3273412
-2.3270714 -4.0656686 1.3085064
-2.3279598 -4.0770974 1.3119986
-2.3272784 -4.0781708 1.3222468
-2.3062384 -4.0896921 1.3201127
-2.3044806 -4.0813007 1.3206084
-2.2993262 -4.0800509 1.3158478
-2.3042779 -4.0868278 1.3217732
-2.2833426 -4.0930033 1.313442
-2.2829375 -4.0948224 1.3162799
-2.2789085 -4.1079841 1.3209996
-2.2742376 -4.0965528 1.3163832
-2.2683971 -4.1117029 1.3236035
-2.2590597 -4.1118679 1.3130078
-2.2594697 -4.1166945 1.3141407
-2.2420096 -4.1254687 1.3269066
-2.2440493 -4.1147995 1.3241557
-2.2308452 -4.1147966 1.3178535
-2.2317114 -4.1195779 1.3085936
-2.2209044 -4.1296782 1.3207244
-2.2272549 -4.1414776 1.3228951
-2.2088814 -4.1343393 1.3196906
-2.2151201 -4.1470976 1.3245219
-2.214134 -4.13626 1.3123659
-1.6734699 -3.154587 1.7245344
-1.6633307 -3.1574569 1.7251085
-1.6604222 -3.1481233 1.7195055
-1.6602615 -3.1513469 1.7170509
-1.6463996 -3.1612027 1.7329522
-1.5545784 -2.999243 1.7895463
-1.5580722 -2.9960649 1.7897985
-1.5593921 -3.0002925 1.8003023
-1.5439136 -2.9965422 1.8011529
-1.5436007 -2.9975936 1.795938
-1.5354407 -2.9940424 1.798493
-1.5410906 -3.0047557 1.8005197
-1.5261635 -3.0169678 1.7942151
-1.5168362 -3.0134294 1.7870159
-1.5299605 -3.0204427 1.792284
-1.5271807 -3.0072677 1.7950504
-1.5154672 -3.0217738 1.7831836
-1.5034986 -3.0217898 1.7892724
-1.5010233 -3.0105205 1.8012888
-1.4976943 -3.0231345 1.7944252
-1.4995773 -3.0317879 1.7932785
-1.4989023 -3.0302935 1.783578
-1.4961978 -3.0380769 1.7838193
-1.4797951 -3.0207415 1.7897469
-1.4705886 -3.0407417 1.790803
-1.4761109 -3.0421762 1.7871703
-1.4788641 -3.0361145 1.7911619
-1.4734812 -3.0423045 1.7972617
-1.4620064 -3.0502422 1.7967492
-1.4585125 -3.0390768 1.7857352
-1.4618794 -3.0540237 1.7881746
-1.44639 -3.0525277 1.7942091
-1.4405984 -3.0525618 1.7945549
-1.4345626 -3.0604312 1.794325
-1.4425964 -3.0433347 1.7961777
-1.4295713 -3.056004 1.7986729
-1.420176 -3.0556734 1.789301
-1.4267863 -3.054209 1.7958043
-1.427294 -3.0655222 1.796429
-1.4083114 -3.0575967 1.7902722
-1.4203399 -3.0572958 1.7912158
-1.4099264 -3.0657666 1.7956969
-1.3934755 -3.0727093 1.782179
-1.3966763 -3.0778828 1.7828213
-1.4001042 -3.0753593 1.7825836
-1.3816766 -3.0840831 1.7916938
-1.3807509 -3.0676866 1.7831464
-1.3891946 -3.0821779 1.7980688
-1.3711323 -3.0814579 1.7836775
-1.3724425 -3.0860384 1.7992053
-1.3599069 -3.0869334 1.7970214
-1.3664249 -3.0817039 1.7883483
-1.3684592 -3.0843153 1.794708
-1.3640087 -3.0944216 1.7978638
-1.3589132 -3.0922532 1.7855066
-1.3540528 -3.0959568 1.7863832
-1.3400795 -3.1030376 1.7856079
-1.3346511 -3.1028671 1.7922866
-1.3342975 -3.1089427 1.8016251
-1.3283328 -3.1006391 1.7883166
-1.3268375 -3.1041131 1.7960402
-1.3275236 -3.0984216 1.7909148
-1.3168801 -3.0990827 1.7850933
-1.3198744 -3.0996151 1.7910748
-1.2997102 -3.1193759 1.8011281
-1.3119007 -3.118603 1.7893749
-1.303212 -3.1081862 1.7924322
-1.2952962 -3.1166732 1.797545
-1.2806989 -3.1091413 1.7984613
-1.2767607 -3.1199818 1.7895544
-1.2861285 -3.113667 1.7990401
-1.2677703 -3.1323807 1.7960784
-1.2745348 -3.1247959 1.7943102
-1.2671185 -3.1245532 1.7938585
-1.273718 -3.1284964 1.7954886
-1.2502618 -3.1289828 1.7997282
-1.2585562 -3.1251361 1.7962147
-1.243791 -3.1377313 1.7860388
-1.2439106 -3.1400898 1.785213
-1.2431113 -3.1428728 1.795359
-1.2312165 -3.1393893 1.7936258
-1.2298336 -3.1419153 1.794979
-1.2314099 -3.1355765 1.7857107
-1.214752 -3.1461945 1.798473
-1.2185434 -3.1477871 1.7890737
-1.2207023 -3.1503017 1.8009634
-1.2186193 -3.1454914 1.7984692
-1.2000474 -3.1502984 1.7851431
-1.2116491 -3.1596105 1.7912159
-1.204074 -3.1525111 1.7962564
-1.1863507 -3.1579072 1.7865254
-1.1903582 -3.1663129 1.7960069
-1.1930102 -3.1606903 1.7935599
-1.1849282 -3.162807 1.7822214
-1.1840816 -3.173115 1.7910105
-1.172632 -3.1699843 1.7989991
-1.1039106 -2.9926898 1.8611696
-1.1033072 -2.9976249 1.8525712
-1.096028 -2.9985714 1.8563565
-1.0826737 -2.9963548 1.8689307
-1.0842767 -3.0008295 1.857792
-1.0756087 -2.9937284 1.8599247
-1.077457 -2.9936986 1.8693511
-1.0817502 -3.0100083 1.8583255
-1.0773796 -3.0098951 1.8586503
-1.064218 -3.0027585 1.8637584
-1.0630658 -2.9967086 1.8513217
-1.0474044 -3.0142395 1.8554989
-1.0603392 -3.0086777 1.8602728
-1.0494868 -3.0139501 1.8688004
-1.0460582 -3.0050161 1.8543847
-1.0337662 -3.0116069 1.8685955
-1.0393393 -3.024241 1.8643557
-1.0354842 -3.0253651 1.8653201
-1.0226526 -3.0263181 1.8679055
-1.0294942 -3.0183105 1.8591295
-1.0112256 -3.0133541 1.8578997
-1.0053917 -3.0169415 1.8606288
-1.0153786 -3.0176716 1.8504045
-1.0005897 -3.0317585 1.8563862
-0.99727124 -3.0266287 1.8527744
-0.98836654 -3.0334203 1.8640386
-0.98524904 -3.0300009 1.8641295
-0.98636943 -3.0269439 1.8645512
-0.98652345 -3.0352755 1.8654691
-0.98409009 -3.0346699 1.8558376
-0.97043079 -3.0400198 1.8525999
-0.97799945 -3.0437615 1.8672059
-0.96283692 -3.041718 1.8625073
-0.95789695 -3.0291152 1.8651412
-0.96697336 -3.0374258 1.8543186
-0.95965964 -3.0410655 1.8581121
-0.94107997 -3.0458231 1.8667266
-0.94240737 -3.0359387 1.859794
-0.94331121 -3.0504482 1.8659198
-0.94329536 -3.0467656 1.854035
-0.93290913 -3.0536671 1.8581785
-0.92575878 -3.0523825 1.8599522
-0.92400068 -3.0601828 1.8651358
-0.92693925 -3.047292 1.8642821
-0.90724218 -3.0477288 1.8564723
-0.9183659 -3.045105 1.8663712
-0.90569431 -3.048156 1.8528547
-0.90440631 -3.0567913 1.850559
-0.89004928 -3.0505888 1.8550845
-0.88956463 -3.0686307 1.8646172
-0.88096297 -3.0605488 1.868567
-0.88821614 -3.0695806 1.8551137
-0.87369376 -3.06112 1.855167
-0.87398618 -3.0598657 1.8694116
-0.87513047 -3.063184 1.8645141
-0.86408293 -3.0618973 1.8635292
-0.8631348 -3.0722117 1.8607761
-0.85570133 -3.0655134 1.8506646
-0.85056192 -3.0687346 1.8680264
-0.84089524 -3.0757496 1.8686109
-0.84169424 -3.0784431 1.8585361
-0.83854187 -3.0726717 1.8606826
-0.82884103 -3.0766616 1.8525366
-0.83908522 -3.0852292 1.8668855
-0.83508319 -3.0792284 1.8591511
-0.8159771 -3.0864687 1.8539326
-0.81785417 -3.0770516 1.8596222
-0.82248276 -3.0844934 1.8532273
-0.81722128 -3.0910895 1.8648219
-0.81459641 -3.0923147 1.8506066
-0.81138551 -3.0786362 1.8548965
-0.79824764 -3.0861044 1.8661509
-0.80296177 -3.0881722 1.8546022
-0.79582042 -3.0847864 1.8556666
-0.79432851 -3.0817027 1.8639067
-0.78056943 -3.0838184 1.8660753
-0.77202731 -3.0921185 1.8588237
-0.77779406 -3.0893559 1.8652872
-0.76995432 -3.0856423 1.8663052
-0.77051842 -3.1036158 1.8672429
-0.76529628 -3.1026919 1.8629977
-0.75578266 -3.0929456 1.8524171
-0.75501323 -3.0922298 1.8608952
-0.74579096 -3.0886912 1.8538796
-0.73550278 -3.1079807 1.8510622
-0.73697299 -3.0978324 1.8672376
-0.73627329 -3.1034651 1.8562154
-0.72282374 -3.099189 1.8690522
-0.72290915 -3.1113992 1.8666931
-0.72197515 -3.1085012 1.8674449
-0.72010207 -3.1047099 1.8501986
-0.70247275 -3.1157358 1.8637711
-0.71542263 -3.1103241 1.8591253
-0.69989306 -3.1000237 1.859078
-0.6913777 -3.10377 1.8607956
-0.68567836 -3.1133232 1.8537093
-0.68380225 -3.1065147 1.8620323
-0.69294697 -3.1105959 1.8556672
-0.68925345 -3.1191034 1.8581216
-0.66791767 -3.1110191 1.864498
-0.66582882 -3.1254056 1.8556831
-0.66098493 -3.1265075 1.8568541
-0.66256726 -3.1249061 1.8644421
-0.6687941 -3.112123 1.86333
-0.65506673 -3.1151736 1.8594646
-0.65962058 -3.1168759 1.8670334
-0.65125936 -3.1210537 1.8623918
-0.63457394 -3.1187298 1.8546442
-0.6442523 -3.1170673 1.859358
-0.63147497 -3.1184249 1.8531189
-0.63232005 -3.1220512 1.8534504
-0.62197876 -3.1251924 1.8536305
-0.63046533 -3.1342762 1.8563567
-0.61136258 -3.1339481 1.8528045
-0.61337078 -3.1242552 1.8671341
-0.5992431 -3.1234803 1.8606879
-0.59754544 -3.1387095 1.8509839
-0.60048813 -3.1216199 1.8645178
-0.59117728 -3.1385763 1.8606224
-0.59715152 -3.1271245 1.8562713
-0.58936357 -3.1408885 1.8691895
-0.58124298 -3.1286824 1.8598562
-0.57294118 -3.1293359 1.8623229
-0.58191204 -3.1352608 1.865995
-0.57443386 -3.127569 1.8602314
-0.57262504 -3.1301262 1.8561078
-0.55726129 -3.1353633 1.8576143
-0.55160046 -3.147922 1.8570633
-0.55240458 -3.13555 1.8604026
-0.537103 -3.1335335 1.8560344
-0.54615158 -3.1481116 1.8587371
-0.54228073 -3.1389525 1.8544741
-0.52774215 -3.1458764 1.8503801
-0.53073585 -3.146157 1.8611773
-0.5300563 -3.1433463 1.8604764
-0.51513934 -3.143115 1.8580222
-0.52434498 -3.1519094 1.8511287
-0.51204318 -3.1394334 1.8524683
-0.50029129 -3.1521528 1.8669652
-0.50519907 -3.1539631 1.8642581
-0.49447405 -3.1492157 1.8677464
-0.50104541 -3.1449921 1.8611606
-0.49187872 -3.1506257 1.8684121
-0.48680517 -3.1436501 1.8561378
-0.47093338 -3.1603925 1.8674226
-0.47576159 -3.1466169 1.8596811
-0.46304294 -3.1464472 1.8638817
-0.45721686 -3.1583762 1.8612887
-0.47005039 -3.1629555 1.8667003
-0.44838601 -3.1568458 1.8510194
-0.44942784 -3.1644149 1.8607976
-0.44698054 -3.1629603 1.855505
-0.45111799 -3.156745 1.8652781
-0.44800311 -3.149863 1.8627204
-0.43716177 -3.1515174 1.8641071
-0.43503472 -3.1624086 1.8599504
-0.42064825 -3.1649909 1.8566383
-0.42206028 -3.166158 1.8620657
-0.42606452 -3.1645701 1.8635761
-0.40465629 -3.1657305 1.8518527
-0.41892815 -3.1523464 1.8532102
-0.40342093 -3.1609292 1.8566662
-0.39320552 -3.1580646 1.8669753
-0.39321616 -3.1565015 1.8647979
-0.39578381 -3.168514 1.8615917
-0.39696389 -3.1628175 1.8681135
-0.38229996 -3.1671531 1.8526659
-0.37094733 -3.1573205 1.8566582
-0.37416661 -3.1759126 1.862839
-0.37587473 -3.1575177 1.8684537
-0.36930555 -3.1578169 1.8680413
-0.36137807 -3.1670315 1.859628
-0.34999385 -3.1704547 1.8546551
-0.34829983 -3.178313 1.8518152
-0.34878251 -3.1731644 1.8575264
-0.35247073 -3.1736219 1.8694916
-0.32963645 -3.1638424 1.8576722
-0.34224904 -3.1671379 1.8562306
-0.33086872 -3.178081 1.8567357
-0.33330697 -3.1751616 1.8561683
-0.33012974 -3.1701028 1.8558282
-0.30736443 -3.1815472 1.8667935
-0.31301174 -3.1660385 1.8548498
-0.30363122 -3.1732681 1.8555555
-0.29708999 -3.1654129 1.8619117
-0.30483699 -3.1656795 1.8683057
-0.30061826 -3.167546 1.8649685
-0.28821823 -3.1664598 1.8588189
-0.27725929 -3.1784289 1.862203
-0.28579468 -3.1772723 1.8689772
-0.27489692 -3.1773753 1.8612747
-0.26433864 -3.1791506 1.8625861
-0.26281446 -3.171011 1.8598583
-0.23719737 -2.9904079 1.9180102
-0.24717194 -2.9952025 1.9367933
-0.23078993 -2.9921844 1.9357432
-0.22801341 -2.9893885 1.933254
-0.22857359 -2.9986341 1.9322718
-0.23528294 -3.0013628 1.9197354
-0.2186078 -2.9970694 1.9287641
-0.21515794 -2.9863217 1.9180923
-0.21941009 -2.9894593 1.9260414
-0.20235036 -2.995517 1.9225198
-0.20801815 -2.9964387 1.9324633
-0.20319712 -2.9915185 1.9179676
-0.19959256 -2.9944005 1.9268394
-0.19703767 -2.9986904 1.9188505
-0.19697167 -2.9877255 1.921954
-0.17788745 -2.9876552 1.9226608
-0.17133926 -2.995096 1.9279869
-0.17576195 -3.003273 1.924381
-0.17085618 -2.9998891 1.9179518
-0.15800098 -3.0036328 1.9257733
-0.16866691 -2.997232 1.9329758
-0.149389 -2.9901981 1.9253951
-0.14460655 -3.0037484 1.9352236
-0.15095204 -2.9989326 1.9210472
-0.14528593 -2.99824 1.918115
-0.13651602 -3.0026529 1.9355264
-0.14703907 -3.0047078 1.9257646
-0.13223578 -2.9953756 1.9280872
-0.12103808 -3.0053287 1.9340495
-0.11626931 -3.0066175 1.9365181
-0.12367877 -3.002764 1.9256316
-0.12388556 -3.0038242 1.9220171
-0.11167271 -3.0042942 1.9250848
-0.10963118 -2.995302 1.9331949
-0.10176576 -3.0048366 1.922218
-0.096832275 -2.9897945 1.927043
-0.094487257 -2.9894686 1.9300221
-0.081903853 -2.9985332 1.9225363
-0.086997591 -3.0005941 1.9252946
-0.086128831 -3.0020804 1.9269555
-0.082791314 -2.9951706 1.9326553
-0.070340127 -2.9926624 1.9174745
-0.061503258 -3.0021365 1.9219975
-0.069598526 -2.9937642 1.9356804
-0.069583632 -3.0017216 1.9199907
-0.06054543 -3.0089417 1.9194992
-0.046682101 -2.9980123 1.9194838
-0.049839571 -2.9986959 1.9305482
-0.040482741 -3.0086691 1.9196903
-0.048367426 -3.0019703 1.9274786
-0.034591228 -2.9961307 1.9223034
-0.035115052 -3.0020368 1.9197575
-0.030819584 -3.0033028 1.9278525
-0.022001078 -2.9968615 1.9244292
-0.019499624 -2.9946024 1.9331514
-0.012687855 -3.0075026 1.9347513
-0.0063674492 -3.0107369 1.9273719
-6.2396735e-05 -3.0013266 1.9193949
-0.0026929334 -3.0067573 1.9215242
0.0038185818 -3.0042706 1.9304262
-0.0018815263 -2.9922056 1.925236
0.007243243 -3.0048625 1.9342021
0.013821995 -2.9974222 1.9219583
0.0084958216 -3.0053618 1.9362066
0.019746253 -2.9949982 1.9327585
0.019718919 -3.0020211 1.9364488
0.021291388 -3.0069222 1.9369377
0.035484478 -3.0097167 1.9268638
0.041700453 -2.9993403 1.9313805
0.050045665 -3.0066509 1.9183992
0.047292881 -3.00386 1.9174923
0.059349846 -2.9961431 1.9239318
0.060372788 -3.0060461 1.9178094
0.069151931 -3.0054736 1.9237392
0.072179191 -2.9978495 1.9200184
0.071758211 -2.994451 1.9292548
0.075027518 -2.9936786 1.9335643
0.078785509 -3.0029118 1.9350475
0.072469547 -3.0101271 1.9268696
0.090670139 -2.9931958 1.9313377
0.0958893 -3.0032153 1.9185473
0.10020136 -3.0053763 1.9334186
0.090952843 -2.9907124 1.918326
0.095581643 -2.9914675 1.9237388
0.10614005 -2.9933932 1.9367031
0.11297757 -2.9999375 1.9329871
0.10905124 -3.0074105 1.9299589
0.10943417 -2.9953232 1.9176073
0.13130014 -2.9937491 1.917944
0.12498803 -2.9981718 1.93511
0.12314382 -3.0015726 1.9221482
0.12850891 -3.0048585 1.9269118
0.14874507 -3.0015895 1.9262195
0.15388834 -2.9978886 1.9246465
0.14444417 -3.0078259 1.9210163
0.14796399 -2.9951217 1.9307044
0.14776753 -2.9905403 1.9327762
0.16454262 -2.9897718 1.9267864
0.1689658 -2.991333 1.9222157
0.1737254 -3.0034018 1.9330614
0.17565063 -3.0015101 1.9203397
0.18461385 -2.9984486 1.9241596
0.17834027 -2.9993455 1.93107
0.19137402 -2.9992936 1.921497
0.18283446 -2.9928803 1.9217968
0.19066444 -2.9871411 1.9346045
0.20818208 -2.9857922 1.9317919
0.2077712 -2.9918616 1.9295402
0.20137013 -2.9977012 1.9255135
0.21039797 -3.0029738 1.9291985
0.21027111 -2.9905138 1.9345499
0.21742208 -2.9932828 1.9227319
0.22839259 -2.9865172 1.9297799
0.22627307 -2.9909093 1.9366367
0.23458017 -2.9880326 1.9296582
0.24318656 -3.0015166 1.9281641
0.24460027 -3.0016732 1.9277585
0.24320093 -2.9864311 1.9210172
0.23954931 -3.00178 1.9281642
0.2518706 -2.9922903 1.9297606
0.2478765 -2.9871163 1.923533
0.26923329 -2.99898 1.9342467
0.25877154 -2.9840615 1.9314302
0.27535728 -2.9954503 1.92392
0.29530695 -3.1702003 1.851316
0.29203168 -3.1730266 1.8525782
0.30726182 -3.1786253 1.8533646
0.30208579 -3.1698089 1.8690681
0.31016785 -3.1688294 1.8690923
0.30539638 -3.1797135 1.8582696
0.32222062 -3.1787758 1.8522782
0.31281674 -3.180665 1.8540748
0.33412594 -3.1771994 1.8504359
0.48351517 -4.6794014 1.3137398
0.49658805 -4.6640611 1.3107172
0.4847194 -4.6764364 1.3244734
0.49411207 -4.6780219 1.3122299
0.50429016 -4.6692224 1.3283952
0.51017094 -4.6767802 1.3251265
0.51607478 -4.6735477 1.310554
0.53115493 -4.6579289 1.3164934
0.54024273 -4.6561508 1.320111
0.53112608 -4.6575003 1.326756
0.53836948 -4.6647935 1.308825
0.55022413 -4.6655402 1.3255714
0.55905509 -4.6646819 1.3092704
0.56164128 -4.6609559 1.3107028
0.5719828 -4.6535754 1.3202441
0.57848859 -4.6668377 1.3215281
0.58172452 -4.660718 1.3253361
0.59038699 -4.666039 1.3240455
0.6049875 -4.6487923 1.3238059
0.60320461 -4.667181 1.3214811
0.60806555 -4.6648445 1.3111181
0.61499423 -4.6571703 1.3192538
0.6186682 -4.6471806 1.3274847
0.62603986 -4.6611199 1.3186693
0.63484275 -4.6512313 1.3164527
0.65318567 -4.6613498 1.3201836
0.65281141 -4.6547437 1.3092346
0.65624398 -4.6459851 1.3121558
0.65838462 -4.6491356 1.3115059
0.6802845 -4.6405773 1.3116401
0.67985821 -4.6536646 1.3132747
0.6890676 -4.6463294 1.3217385
0.68641138 -4.6418242 1.3193372
0.69198471 -4.6364512 1.3221335
0.70874137 -4.6487775 1.3139458
0.70328009 -4.649262 1.3147583
0.72154832 -4.63662 1.3212863
0.72886622 -4.6470442 1.3156729
0.73910391 -4.6418247 1.3260002
0.72869027 -4.6412015 1.3239681
0.7384094 -4.6474996 1.3279215
0.74976176 -4.6310811 1.3182744
0.74957639 -4.6438112 1.3121868
0.7669884 -4.6374583 1.3105181
0.76719517 -4.6408386 1.31556
0.77921271 -4.636168 1.3191451
0.77204126 -4.6397157 1.3143907
0.79139638 -4.6224308 1.3182216
0.78513658 -4.6213923 1.3262721
0.80920243 -4.6372499 1.3139373
0.81123465 -4.6298695 1.3142872
0.81721878 -4.6176162 1.3100284
0.81355417 -4.6320267 1.312004
0.82380044 -4.6155024 1.3192873
0.83237648 -4.625246 1.3221368
0.84599268 -4.629446 1.3085938
0.84319246 -4.6272902 1.3104309
0.85563612 -4.6122499 1.3084717
0.85190904 -4.6099386 1.326461
0.85623091 -4.6100292 1.3274934
0.86821634 -4.6145544 1.3147982
0.88054985 -4.6195598 1.3132389
0.888623 -4.6146927 1.3161427
0.89866996 -4.6060414 1.314436
0.8959986 -4.615274 1.321841
0.89617485 -4.6173487 1.3238926
0.90280634 -4.6086802 1.3269378
0.91127324 -4.6140237 1.3238518
0.91777921 -4.6095476 1.3218967
0.92227268 -4.6072011 1.3186611
0.92779684 -4.5993199 1.3097023
0.940624 -4.6055532 1.3145305
0.95188987 -4.6101608 1.3230088
0.94605786 -4.591166 1.3189131
0.95851725 -4.6012864 1.3243502
0.95837981 -4.597672 1.3264692
0.98029208 -4.5938663 1.3160038
0.98524761 -4.5880318 1.3189335
0.98711538 -4.6021276 1.3250688
0.98702604 -4.5981646 1.3122709
1.0036992 -4.5951104 1.3260658
1.0114117 -4.58566 1.3123295
1.0039502 -4.591373 1.3126794
1.0249654 -4.5893455 1.3107083
1.0218828 -4.581284 1.3172925
1.0242354 -4.5797839 1.3261575
1.0487049 -4.5827932 1.3174858
1.0427068 -4.5872674 1.3132973
1.0596367 -4.5762916 1.3136524
1.0626998 -4.5718212 1.316601
1.0729629 -4.5770922 1.3212255
1.0770189 -4.5810628 1.313913
1.0873364 -4.5789051 1.319491
1.0780019 -4.5621409 1.3256913
1.0866941 -4.5748658 1.3185388
1.1019684 -4.5716429 1.3114631
1.1061056 -4.570353 1.3199459
1.1015689 -4.5614614 1.3225138
1.1128416 -4.5620384 1.3146074
1.1244673 -4.565949 1.3097123
1.1190394 -4.5659904 1.3180785
1.1382338 -4.5683689 1.3209971
1.1501135 -4.5668197 1.3245873
1.1475691 -4.5609937 1.323447
1.1512227 -4.5528612 1.328078
1.1677215 -4.5558386 1.3144196
1.1571425 -4.5410609 1.3205297
1.1750441 -4.5571995 1.314001
1.1755111 -4.5484428 1.3253556
1.1880696 -4.5544362 1.3112518
1.1957307 -4.5522308 1.3155489
1.1917555 -4.5372024 1.3159016
1.2106967 -4.5366631 1.3162285
1.2132258 -4.5450349 1.3207977
1.2146122 -4.5361176 1.3119063
1.2206274 -4.5370641 1.3184359
1.2329817 -4.5349493 1.3181328
1.2314436 -4.5412912 1.3200715
1.2433746 -4.5335212 1.3091382
1.2466578 -4.5195465 1.3105742
1.2558347 -4.5242615 1.3125695
1.2693063 -4.5193005 1.3279383
1.2631282 -4.5217443 1.3221827
1.2772745 -4.5280032 1.3263823
1.2759876 -4.519218 1.3178174
1.2858068 -4.5107565 1.3266158
1.3021531 -4.5162778 1.3158294
1.2981938 -4.5096717 1.316993
1.3161706 -4.517467 1.3242093
1.3032116 -4.5083089 1.3236747
1.311686 -4.5163012 1.3166901
1.3221533 -4.5171475 1.3129231
7.7561831 2.9991491 0.10239402
7.5683694 2.9601636 0.16870067
7.5704203 2.9665639 0.16275616
7.5560904 2.9765158 0.1666076
7.5501709 3.0011764 0.16788831
7.5564127 3.0111253 0.16277388
7.554565 3.0198686 0.15226188
7.5366096 3.0374558 0.15069216
7.3563232 2.9716198 0.23163833
7.3672175 2.9854634 0.22506768
7.3442454 2.997858 0.22968094
7.3562016 2.9998662 0.2346205
7.3510313 3.0080531 0.23541258
7.3399024 3.0260525 0.23561443
7.3326106 3.0222898 0.22994073
7.1522274 2.9767923 0.28997189
7.1611743 2.9855382 0.30193552
7.159595 2.9805303 0.30096763
7.1364326 2.9945066 0.29409125
7.1479158 3.0035098 0.2907958
7.1328144 3.0136867 0.28963816
7.1423125 3.0199807 0.3002378
7.1367364 3.0452793 0.28877911
6.9583969 2.9695477 0.35136685
6.9538903 2.9845765 0.35367206
6.943697 2.9977977 0.35240039
6.9472346 3.0040972 0.34989631
6.9427223 3.0129628 0.3524116
6.9372287 3.022825 0.35893661
6.9248457 3.0283432 0.36450383
6.929153 3.0429473 0.35029307
6.7395864 2.9752254 0.41871336
6.7334156 2.9819255 0.4162029
6.7357726 2.9880562 0.42211425
6.7344184 2.9938195 0.43336508
6.7353559 3.0135412 0.42815384
6.7150087 3.0209668 0.41956452
6.7121449 3.0280592 0.43016908
6.7117825 3.0338514 0.42096981
6.5460892 2.9735172 0.49391511
6.5379024 2.9794195 0.48552394
6.5354919 2.9926918 0.49578735
6.5352025 3.0039337 0.48334962
6.5323906 3.0016863 0.48764715
6.5154767 3.0222511 0.4883182
6.5098014 3.0279336 0.49932733
6.5189018 3.0374618 0.48838395
6.4994001 3.0483315 0.49516118
6.3396406 2.9829562 0.56465042
6.321631 2.9878263 0.55610788
6.3302684 2.988646 0.56435329
6.3105021 2.991204 0.55676222
6.3209872 3.0176346 0.55131006
6.3190217 3.0254271 0.55451351
6.301342 3.020493 0.54919064
6.3043208 3.0340831 0.5604648
6.2982965 3.0409863 0.55218756
6.3013167 3.052613 0.56570661
6.1213865 2.9770882 0.63117099
6.1144776 2.9899349 0.62639606
6.1190143 2.9955697 0.63362318
6.1117845 3.0056012 0.61459672
6.096952 3.010293 0.63319498
6.0966549 3.0172071 0.63078582
6.0995498 3.0306413 0.61464852
6.0971098 3.0312667 0.62331319
6.0859323 3.050092 0.63009852
6.0864654 3.056174 0.61973411
6.249053 3.1411312 0.56126773
6.2421412 3.1587191 0.55340672
6.230442 3.1650014 0.56265861
6.2259583 3.1682231 0.55342603
6.222436 3.1807933 0.56037498
6.2174993 3.1972599 0.56573385
6.2101417 3.2008262 0.55602849
6.2066345 3.2061694 0.55845565
6.2117801 3.2245634 0.55122149
6.2036986 3.2277312 0.56158864
6.2052412 3.2291918 0.5635969
6.194591 3.2481234 0.55448908
6.1960678 3.2597506 0.56296557
6.1867847 3.271301 0.56597197
6.1882572 3.2637479 0.552863
6.1766663 3.2756896 0.54754108
6.1704221 3.2847168 0.55711216
6.1744609 3.2946923 0.56335938
6.1609144 3.3142805 0.55933982
6.1601219 3.3102672 0.5498336
6.1496849 3.3122876 0.55313969
6.1612439 3.3281617 0.56673521
6.143683 3.3300285 0.56332242
6.1345868 3.3471398 0.56283063
6.1284847 3.3502631 0.56616271
6.129262 3.3663473 0.55281973
6.1247058 3.3807511 0.55989367
6.1297083 3.3837693 0.54833919
6.1209459 3.3978291 0.54777563
6.1081524 3.3956962 0.55460757
6.1058407 3.4077375 0.55487531
6.106823 3.4159617 0.56243902
6.1013894 3.4312608 0.56329787
6.0925307 3.442111 0.55270278
6.0831685 3.4515193 0.55667228
6.0771265 3.4463758 0.54817367
6.2418013 3.5545619 0.49924701
6.2493362 3.5594721 0.49108577
6.2253046 3.5603273 0.48845169
6.2206974 3.573108 0.49515876
6.2229099 3.5883076 0.48538795
6.225378 3.5892322 0.49532863
6.2153978 3.6094775 0.49206224
6.2062645 3.6056306 0.4911468
6.2065239 3.6171999 0.49114668
6.1907406 3.6275172 0.49751735
6.1864467 3.6432395 0.49039218
6.1995001 3.6514409 0.49947581
6.1843805 3.6605668 0.50071996
6.186615 3.6700535 0.48605698
6.1755443 3.6667333 0.49791279
6.1746907 3.6908736 0.48201948
6.1637659 3.6900382 0.49770468
6.1495624 3.7050858 0.50088322
6.1544318 3.7054214 0.48697817
6.1392889 3.7150147 0.49474463
6.1505051 3.7253668 0.4895947
6.1345835 3.7338374 0.48401451
6.1277342 3.7322652 0.49893567
6.122117 3.7580161 0.49472624
6.1218247 3.757797 0.49858618
6.1133761 3.7618375 0.49798325
6.1090226 3.7800779 0.48794892
6.1003428 3.7892518 0.48437348
6.0948291 3.788444 0.49255216
6.0953984 3.7976542 0.48174959
6.0837226 3.8032529 0.49273187
6.2467699 3.9183295 0.41733846
6.2442002 3.9317617 0.41810638
6.2365394 3.9447854 0.41607973
6.2246571 3.9427369 0.42529598
6.2166224 3.9574723 0.43002176
6.227973 3.9530981 0.42446446
6.2092767 3.9652996 0.41956496
6.2069936 3.9772553 0.42534876
6.1928763 3.9950602 0.43184128
6.1879449 3.9864807 0.41543853
6.1939836 4.0063667 0.4254114
6.1909027 4.0091381 0.42011437
6.1885781 4.029716 0.41914612
6.1642151 4.0238914 0.42744234
6.1690559 4.0355234 0.42179453
6.1586103 4.0440097 0.42310083
6.1625957 4.0593157 0.42794463
6.1416698 4.0578661 0.41608793
6.1465154 4.0678391 0.43338749
6.1378417 4.078433 0.43346673
6.1327534 4.1006293 0.42479897
6.1376257 4.1053209 0.43027747
6.1171894 4.113276 0.42771655
6.1157727 4.122468 0.43072116
6.1026406 4.1221128 0.41675618
6.1038485 4.1369362 0.42268357
6.1063509 4.1413813 0.41533092
6.0936852 4.150548 0.41795048
6.244997 4.2566071 0.35568675
6.2376022 4.2734952 0.36174059
6.2302742 4.2909784 0.36143634
6.2342658 4.2990298 0.35727736
6.2237244 4.2923522 0.35253504
6.2106099 4.3099775 0.36845407
6.2004876 4.3202014 0.35549542
6.1963887 4.3173766 0.34884581
6.1982045 4.3428092 0.35813469
6.192656 4.3413429 0.368092
6.1897149 4.3611207 0.34923151
6.1707845 4.3594432 0.35855946
6.177896 4.3763885 0.35667935
6.164691 4.3832893 0.35416761
6.167315 4.3856239 0.35630351
6.1451845 4.4008317 0.3673982
6.1389613 4.4119172 0.36005899
6.1397676 4.4049153 0.36124536
6.1339121 4.4257531 0.35922316
6.1373339 4.4270782 0.36710194
6.1307006 4.4315104 0.36613467
6.125195 4.4430718 0.35487378
6.1090059 4.4478164 0.35195097
6.1109242 4.4654398 0.36733022
6.0903192 4.4717836 0.35645393
6.2438769 4.5938654 0.28591737
6.2363224 4.6042953 0.28417924
6.2214165 4.6016626 0.28687438
6.227685 4.6193185 0.30185139
6.2119193 4.6265512 0.28960612
6.2040205 4.6333179 0.29325408
6.1951418 4.6407585 0.29993322
6.1949902 4.6582012 0.28283542
6.1919041 4.663765 0.29484826
6.184185 4.6749387 0.28470033
6.1855774 4.6738582 0.29637799
6.1627078 4.691618 0.28978652
6.1580877 4.7008786 0.29187262
6.1561513 4.702827 0.28293332
6.1491795 4.7154408 0.29255462
6.1499505 4.7265983 0.30027974
6.1343575 4.7353325 0.28679147
6.1254315 4.7303829 0.30210051
6.1193962 4.748826 0.29433745
6.1253614 4.7460418 0.28912118
6.1211672 4.771153 0.29420647
6.1086383 4.7799101 0.28844276
6.1095066 4.7905746 0.28334033
6.2408204 4.9024267 0.22530951
6.2346482 4.9174805 0.21759728
6.2180858 4.9198685 0.23247056
6.2292361 4.9332385 0.22751527
6.2068858 4.9442697 0.22905645
6.1998329 4.955864 0.22049631
6.2050042 4.9600348 0.22061634
6.184948 4.9666338 0.21732172
-2.6661079 -4.1000786 1.2845323
-2.6603179 -4.1070409 1.2775823
-2.6472166 -4.1088948 1.2821009
-2.6454709 -4.1196418 1.2927818
-2.6470797 -4.117115 1.2826693
-2.6326959 -4.1242914 1.2789881
-2.6382282 -4.1199064 1.2942628
-2.6320906 -4.118751 1.2802882
-2.6283655 -4.1301703 1.2778912
-2.6177733 -4.1402955 1.2941902
-2.6130266 -4.1346393 1.2865142
-2.5992551 -4.1489296 1.2956073
-2.5924284 -4.1558599 1.2865702
-2.5810781 -4.1467915 1.2905015
-2.5790417 -4.1450839 1.2806667
-2.5871127 -4.1547494 1.2873549
-2.57886 -4.1557093 1.2821195
-2.5753276 -4.1562991 1.2817224
-2.5657647 -4.1589365 1.2935812
-2.5585938 -4.1767592 1.278982
-2.5551188 -4.1756177 1.293698
-2.539315 -4.1864924 1.2777745
-2.5344131 -4.1763334 1.2785635
-2.5385432 -4.1806221 1.2920557
-2.5187371 -4.1886778 1.2908822
-2.5287609 -4.1906123 1.2836617
-2.5120914 -4.1901069 1.2790915
-2.5006526 -4.1918879 1.2775338
-2.5096059 -4.2099285 1.276933
-2.5066955 -4.2066269 1.2820954
-2.4983795 -4.2056832 1.2919772
-2.4753425 -4.2147741 1.2945535
-2.4882243 -4.2248058 1.2908504
-2.4803121 -4.2248163 1.2864119
-2.4589028 -4.2308731 1.2774631
-2.4586623 -4.2328124 1.2901167
-2.4456375 -4.2239447 1.2868041
-2.4571779 -4.229506 1.2852314
-2.4502714 -4.2298932 1.2891301
-2.4439609 -4.2332478 1.2798347
-2.4324832 -4.2541685 1.2949789
-2.431119 -4.2579398 1.2845199
-2.4271736 -4.2604847 1.2875082
-2.4069266 -4.2610149 1.2939577
-2.4111135 -4.2660379 1.2778128
-2.4042444 -4.2567267 1.2831838
-2.404717 -4.2603025 1.2808689
-2.3884976 -4.2613349 1.2964309
-2.3938463 -4.2813821 1.2950355
-2.3752913 -4.281045 1.2937071
-2.3660271 -4.2751603 1.2948712
-2.3616142 -4.2738466 1.2956691
-2.3676558 -4.294528 1.2773184
-2.3507042 -4.2809076 1.2818259
-2.3472986 -4.2974234 1.2846907
-2.3400333 -4.2930241 1.2802383
-2.3273923 -4.2950568 1.2955736
-2.3370616 -4.3068337 1.2932315
-2.3311646 -4.3099275 1.294189
-2.3266582 -4.3004394 1.2788223
-2.3034759 -4.3076649 1.2926704
-2.2991247 -4.3164597 1.2911533
-2.2939715 -4.3172827 1.2922683
-2.2871642 -4.3271461 1.2903088
-1.5888418 -2.9858313 1.8254206
-1.5765163 -2.9960344 1.8179293
-1.56864 -2.9996047 1.8116852
-1.5654253 -2.9988568 1.8169357
-1.5645497 -2.998229 1.8223554
-1.5627135 -2.9991164 1.8205177
-1.5562408 -3.0028474 1.8147005
-1.5559171 -3.0082581 1.8233263
-1.5571074 -3.0145507 1.8143581
-1.5371797 -3.0200756 1.8187476
-1.5392084 -3.0203254 1.8138959
-1.5364126 -3.0124354 1.8210589
-1.5211051 -3.020858 1.806864
-1.5320386 -3.0102577 1.8156233
-1.5177187 -3.0229766 1.8072112
-1.5179762 -3.0180573 1.8201061
-1.5200683 -3.0308666 1.8114589
-1.5079746 -3.0275562 1.8195839
-1.5072522 -3.0296431 1.8235934
-1.4954951 -3.0360126 1.824249
-1.4993454 -3.0286241 1.8268203
-1.4880445 -3.0426557 1.8194408
-1.4895778 -3.0455992 1.8257923
-1.4853029 -3.0436983 1.8248918
-1.472266 -3.051703 1.813414
-1.4676381 -3.044193 1.8089912
-1.4701124 -3.0430064 1.8138891
-1.4612312 -3.0539606 1.8242214
-1.4642221 -3.048429 1.8145846
-1.4632006 -3.0553806 1.8206904
-1.4615204 -3.0504253 1.8162911
-1.4572664 -3.0584152 1.8199601
-1.4403889 -3.052187 1.8227801
-1.437157 -3.0659359 1.8095891
-1.4348228 -3.0709021 1.8104762
-1.4239635 -3.0554984 1.8209494
-1.4375243 -3.0668294 1.8146797
