# .PCD v0.7 - Point Cloud Data file format
VERSION 0.7
FIELDS x y z
SIZE 4 4 4
TYPE F F F
COUNT 1 1 1
WIDTH 1512
HEIGHT 1
VIEWPOINT 0 0 0 1 0 0 0
POINTS 1512
DATA ascii
-2.6566694 -3.0435963 1.9495963
-2.6690435 -3.049298 1.9466741
-2.6517029 -3.0611446 1.9475965
-2.644377 -3.0517433 1.9403343
-2.6465933 -3.0538204 1.9470043
-2.6371665 -3.0680943 1.9441464
-2.6324766 -3.0675116 1.9371138
-2.6260777 -3.0717044 1.9330534
-2.6273875 -3.0833621 1.9387572
-2.6205451 -3.0806909 1.945155
-2.6309068 -3.0853455 1.9372529
-2.6276925 -3.0866373 1.9473819
-2.6073952 -3.0948567 1.9493911
-2.6061702 -3.1000235 1.9445226
-2.6122024 -3.0916853 1.941292
-2.5915596 -3.0982039 1.9474967
-2.5937696 -3.1043217 1.937987
-2.5830071 -3.1083345 1.9479812
-2.5962999 -3.1179566 1.9500089
-2.583884 -3.1250405 1.9383928
-2.5850651 -3.1267958 1.945801
-2.5741432 -3.1296511 1.9355904
-2.5730875 -3.116529 1.9408271
-2.5700173 -3.1265068 1.944558
-2.5718107 -3.1268468 1.9402819
-2.5568295 -3.1308789 1.9331356
-2.5556388 -3.1414614 1.9435145
-2.5439527 -3.1456263 1.9335169
-2.5422676 -3.1474345 1.9375278
-2.6599691 -3.3117297 1.8871603
-2.6476519 -3.3111882 1.8895749
-2.6479216 -3.3040898 1.8927463
-2.6383965 -3.3203058 1.8926461
-2.6436293 -3.317827 1.886168
-2.6451263 -3.3215215 1.8829439
-2.6308944 -3.3146203 1.8992753
-2.6238034 -3.3309183 1.888606
-2.6263285 -3.3399258 1.8973471
-2.6188459 -3.3316481 1.8878493
-2.6073475 -3.3440578 1.8881673
-2.6152923 -3.3487706 1.8927531
-2.6008177 -3.3383787 1.8881574
-2.6031663 -3.3430924 1.8910589
-2.6056101 -3.3576751 1.8801464
-2.5945268 -3.3583961 1.8892397
-2.5866628 -3.3695312 1.8889283
-2.5824623 -3.3582265 1.8960062
-2.5689259 -3.3741038 1.8977579
-2.5666432 -3.3671603 1.8914616
-2.5738535 -3.373385 1.8964237
-2.5607407 -3.3722265 1.8803344
-2.5630372 -3.3812704 1.8982918
-2.5499244 -3.3773451 1.8951839
-2.553905 -3.3805506 1.8811351
-2.5487933 -3.3973656 1.8900007
-2.6504586 -3.5458686 1.840441
-2.6563387 -3.5601802 1.8367267
-2.6551354 -3.5656624 1.8407508
-2.6321754 -3.5535743 1.8353274
-2.6355066 -3.5734136 1.8472816
-2.6338706 -3.5648625 1.84399
-2.6283185 -3.5833349 1.8352438
-2.624804 -3.573427 1.8340055
-2.6243923 -3.5722365 1.8331373
-2.6180241 -3.5906768 1.8390237
-2.6027853 -3.579654 1.8348248
-2.6061821 -3.5994797 1.840032
-2.5932882 -3.6030757 1.8434677
-2.5963652 -3.6086907 1.8426951
-2.5848606 -3.6026208 1.84578
-2.5813966 -3.5999041 1.8411058
-2.5812192 -3.6166294 1.841642
-2.569783 -3.6148398 1.8357623
-2.5595801 -3.6176426 1.8347415
-2.55024 -3.619087 1.8389424
-2.5550089 -3.6303074 1.837821
-2.5439715 -3.6299446 1.8405217
-2.5477221 -3.6417127 1.8432671
-2.6588755 -3.8000836 1.7931123
-2.6397316 -3.7936435 1.783573
-2.6374974 -3.8087792 1.7803705
-2.6399324 -3.8087826 1.784055
-2.6218262 -3.8023994 1.7931349
-2.6295943 -3.810868 1.7830105
-2.6183782 -3.8150568 1.7950329
-2.6029561 -3.8290792 1.7794194
-2.60865 -3.8171339 1.7877461
-2.6116383 -3.8340142 1.7878748
-2.5918763 -3.8362839 1.7916917
-2.5913448 -3.8247161 1.7856591
-2.5803475 -3.8362255 1.7881938
-2.5725479 -3.8354864 1.7944211
-2.5810587 -3.8419626 1.79072
-2.5604844 -3.8415337 1.782231
-2.5700297 -3.8552206 1.7932266
-2.5675473 -3.8588223 1.7938659
-2.5606737 -3.8534606 1.7901088
-2.5454683 -3.8564341 1.7931225
-2.5501292 -3.8649979 1.7975098
-2.6371176 -4.0400653 1.7461822
-2.6437585 -4.0279684 1.7378926
-2.6278596 -4.0334387 1.7339633
-2.6257279 -4.0527925 1.7271713
-2.6272924 -4.0369492 1.7444142
-2.6173408 -4.0560336 1.7315686
-2.6163883 -4.058023 1.7387122
-2.5947914 -4.0585308 1.7348011
-2.5969465 -4.0692306 1.7314923
-2.5960829 -4.069994 1.743188
-2.590827 -4.077003 1.7450546
-2.5859745 -4.0762911 1.7427194
-2.5694067 -4.0853238 1.7386069
-2.5767632 -4.0778728 1.7388262
-2.5709066 -4.0776401 1.7385663
-2.5678022 -4.0931144 1.7428919
-2.5575383 -4.0932999 1.7288898
-2.5401258 -4.0975571 1.7380335
-2.5466194 -4.0896435 1.7401234
-2.6382406 -4.2709813 1.6941694
-2.6361077 -4.2684531 1.6957549
-2.632103 -4.2667613 1.6816744
-2.6104283 -4.2741957 1.6821755
-2.6128609 -4.2746854 1.6937336
-2.6150694 -4.2750225 1.6891227
-2.5975325 -4.2779641 1.6926278
-2.595665 -4.2963552 1.6795297
-2.5877945 -4.3030534 1.6857485
-2.590775 -4.3019686 1.683447
-2.5716608 -4.2964106 1.687802
-2.5675766 -4.314683 1.6783773
-2.5619018 -4.314919 1.6943281
-2.5503025 -4.3194547 1.6865201
-2.5581973 -4.3124013 1.6818897
-2.5545287 -4.3135409 1.6805809
-2.5354662 -4.3231325 1.6799812
-2.6307859 -4.5036569 1.6337131
-2.6210735 -4.4956403 1.6352998
-2.6251371 -4.4966083 1.6415962
-2.6114972 -4.5044713 1.6370679
-2.613497 -4.5142641 1.6378757
-2.6049163 -4.5044007 1.6420472
-2.6003799 -4.5089626 1.625275
-2.5836463 -4.5274482 1.6391391
-2.5915382 -4.5282998 1.6354386
-2.5807338 -4.5361276 1.6257129
-2.570524 -4.5274267 1.625827
-2.5556583 -4.5352955 1.6376435
-2.559201 -4.533515 1.632169
-2.5564423 -4.5443864 1.6425003
-2.5382068 -4.5435553 1.6266983
-2.6335363 -4.7092657 1.5934912
-2.6300757 -4.7280593 1.5902832
-2.6233823 -4.7164316 1.5922226
-2.6028194 -4.7190127 1.5769351
-2.6059523 -4.737112 1.5774353
-2.5988054 -4.731329 1.5902429
-2.5915396 -4.7370129 1.5787795
-2.5924523 -4.7325764 1.5926856
-2.5788343 -4.7517242 1.5793
-2.5748799 -4.7589836 1.5903169
-2.5667224 -4.7535472 1.5880053
-2.5608482 -4.7512436 1.5905852
-2.558177 -4.7688446 1.5884687
-2.5535614 -4.7724867 1.5874374
-2.6352882 -4.936502 1.5410452
-2.6252117 -4.9494786 1.5350029
-2.6223223 -4.9418082 1.5269159
-2.6108913 -4.9416738 1.5268947
-2.6055491 -4.9545493 1.5313462
-2.5935872 -4.9501047 1.5321493
-2.5906034 -4.9641409 1.5419906
-2.5899262 -4.9589462 1.537728
-2.566664 -4.9577293 1.5394474
-2.5655131 -4.9785504 1.5410988
-2.5653887 -4.976697 1.5329318
-2.5607326 -4.9716682 1.5354701
-2.5421135 -4.9906578 1.5293516
-2.5315766 -4.9851279 1.5270303
-5.5413785 -3.5392976 1.3311774
-5.5240602 -3.5483344 1.3362
-5.5350814 -3.558742 1.3286388
-5.5152726 -3.5668364 1.3244032
-5.5150542 -3.579747 1.3272146
-5.512567 -3.5853169 1.3330183
-5.5163136 -3.582721 1.3202355
-5.5084453 -3.5948465 1.3219876
-5.4904823 -3.5994599 1.3266662
-5.4997606 -3.6104016 1.3269315
-5.4802818 -3.6111357 1.3205395
-5.4808927 -3.6195104 1.3328538
-4.5079956 -3.0005763 1.619521
-4.5120225 -2.9887624 1.6287991
-4.5002761 -3.0017223 1.6328889
-4.5057096 -3.0171986 1.6191242
-4.4853306 -3.0214355 1.6156635
-4.4977255 -3.0228288 1.6277789
-4.4883599 -3.0312948 1.6229751
-4.4743066 -3.0340853 1.6149168
-4.4799795 -3.0424542 1.6338046
-4.4720354 -3.0565014 1.631991
-4.4717684 -3.0512042 1.633478
-4.4618497 -3.0541241 1.6330867
-4.4626446 -3.0694962 1.6260365
-4.4593406 -3.0745096 1.6298059
-4.4497929 -3.0833602 1.6156282
-4.443697 -3.0888309 1.626341
-4.445477 -3.0891697 1.6148655
-4.4320521 -3.0996981 1.6268716
-4.2680097 -2.9889114 1.666279
-4.2638936 -3.0054584 1.6683952
-4.2615829 -3.0060072 1.6820626
-4.2577763 -3.0209153 1.6790584
-4.254353 -3.0209045 1.6669244
-4.2579718 -3.0218849 1.676013
-4.2578125 -3.0376213 1.6824813
-4.2518229 -3.0315742 1.6697029
-4.2351122 -3.0316284 1.6828038
-4.2298684 -3.0425878 1.6715885
-4.2326102 -3.0525103 1.6661271
-4.225441 -3.0625083 1.6700972
-4.2161469 -3.0743957 1.679491
-4.2131772 -3.066685 1.6799434
-4.2132034 -3.0797675 1.6663675
-4.2053556 -3.0806937 1.6777663
-4.2084107 -3.0856938 1.6793778
-4.2049894 -3.0889459 1.6729794
-4.1943383 -3.0997372 1.672464
-4.0349174 -2.9941342 1.7164246
-4.0425258 -2.990731 1.7268839
-4.0355873 -3.0044332 1.7132642
-4.0246711 -3.0131245 1.7136707
-4.024353 -3.0231373 1.7276952
-4.0235748 -3.0174761 1.7145385
-4.0163646 -3.0282745 1.7263509
-3.9977477 -3.0264444 1.7190524
-3.9975116 -3.045517 1.7143852
-4.0036659 -3.0382712 1.7248039
-3.9903281 -3.0516057 1.7312882
-3.9825258 -3.0567358 1.7268236
-3.9842565 -3.059123 1.7142988
-3.979599 -3.0547972 1.7187189
-3.9745271 -3.0743644 1.7187563
-3.9754231 -3.0773726 1.7300794
-3.9694679 -3.0773971 1.7162223
-3.9716926 -3.0830395 1.729808
-3.9612081 -3.0926881 1.7299274
-3.9553831 -3.0927417 1.7228935
-3.9591315 -3.1037152 1.7281197
-3.956388 -3.1111522 1.7138045
-3.7860587 -2.9844589 1.772189
-3.780457 -2.9973121 1.770972
-3.7904277 -3.0093827 1.7757585
-3.7803538 -3.0066464 1.7631017
-3.7789493 -3.0222602 1.775979
-3.7713945 -3.0244112 1.7687669
-3.7702467 -3.0203979 1.7774526
-3.7689722 -3.034888 1.7716256
-3.7547243 -3.0374625 1.7803597
-3.7552426 -3.0416369 1.7671854
-3.7500689 -3.0518761 1.7660922
-3.7360075 -3.0607047 1.7774501
-3.7431557 -3.0637026 1.7820356
-3.7455103 -3.0608325 1.7746497
-3.7405143 -3.060771 1.776937
-3.7226334 -3.0773754 1.7823538
-3.7319577 -3.07706 1.7770586
-3.7125888 -3.0797055 1.7625421
-3.7190394 -3.0923457 1.7707142
-3.716749 -3.0897543 1.7799687
-3.7076256 -3.1062467 1.7642351
-3.6995881 -3.1129422 1.7649181
-3.7001855 -3.111058 1.7678422
-3.6961904 -3.1158073 1.7788697
-3.531641 -2.9946861 1.82469
-3.5329049 -3.0049329 1.829623
-3.5287449 -3.008805 1.8200862
-3.5298731 -3.017617 1.8131133
-3.5255113 -3.0171955 1.8187032
-3.5129702 -3.0188067 1.8120815
-3.5111678 -3.015625 1.8141586
-3.5050921 -3.0287433 1.814725
-3.4983265 -3.026804 1.8223547
-3.50863 -3.0452213 1.8304076
-3.507899 -3.0513813 1.8195875
-3.490845 -3.0429969 1.8234749
-3.4888513 -3.0546505 1.8284384
-3.4763875 -3.0516381 1.8295325
-3.4908898 -3.068476 1.8159845
-3.4797955 -3.076992 1.825756
-3.4753158 -3.0679317 1.823634
-3.4687526 -3.0770283 1.8133125
-3.461616 -3.0835991 1.8298433
-3.4668431 -3.0847201 1.8128637
-3.4640102 -3.0893636 1.8146251
-3.4519908 -3.1012132 1.8296663
-3.4560776 -3.0953362 1.8179427
-3.4351938 -3.1012692 1.8141147
-3.4332092 -3.1059852 1.8183261
-3.4247658 -3.1238942 1.8188928
-3.283252 -2.9911704 1.8628892
-3.287328 -2.9864321 1.873144
-3.2817192 -2.9988654 1.861681
-3.279573 -3.0008402 1.8739443
-3.2744002 -3.0043039 1.8664054
-3.2674596 -3.0200768 1.8718517
-3.2654715 -3.0242712 1.8680042
-3.2552004 -3.0319235 1.8630465
-3.2487509 -3.02194 1.8781898
-3.2380836 -3.0278685 1.8802347
-3.2468433 -3.0399373 1.8693604
-3.2411046 -3.0402687 1.8678231
-3.2251046 -3.0391839 1.8784455
-3.2405612 -3.0401521 1.8716798
-3.2237482 -3.060153 1.8660313
-3.214468 -3.0574253 1.8691852
-3.2197349 -3.0569274 1.872714
-3.2088432 -3.0703835 1.8731537
-3.202903 -3.0816212 1.8681344
-3.201813 -3.0864289 1.8617383
-3.1986721 -3.0842402 1.867819
-3.186399 -3.0805626 1.878108
-3.1956568 -3.0851414 1.8740156
-3.1942861 -3.0894396 1.8734826
-3.1796751 -3.1011939 1.8774706
-3.170706 -3.1079433 1.8687021
-3.1785772 -3.1042411 1.8649411
-3.1629131 -3.1139352 1.8722279
-3.1668031 -3.1219831 1.8727751
-3.1557064 -3.1132414 1.8730062
-3.1509995 -3.1256657 1.879912
-3.0226917 -2.9936039 1.9244792
-3.0017936 -2.9914532 1.9194373
-3.004982 -2.9922574 1.9145647
-3.0086973 -3.0027823 1.9223998
-3.008419 -3.0086765 1.927941
-2.9969032 -3.0067861 1.921634
-2.9891427 -3.0135822 1.9300762
-2.9940894 -3.028625 1.9149081
-2.978483 -3.0369339 1.9129126
-2.9826398 -3.0249052 1.9229182
-2.9798849 -3.0264578 1.912879
-2.9620609 -3.0313027 1.9292116
-2.9692733 -3.0435328 1.9289552
-2.9613521 -3.0436807 1.9223832
-2.9655905 -3.0477583 1.9141203
-2.9442816 -3.0645344 1.9119456
-2.9492741 -3.0577698 1.9271663
-2.9458184 -3.0601778 1.91153
-2.9375255 -3.0712111 1.9117646
-2.931222 -3.0706387 1.9282022
-2.9349072 -3.0715544 1.9272549
-2.9286258 -3.0788956 1.9256248
-2.9260061 -3.077704 1.9159207
-2.9236369 -3.0928519 1.9302191
-2.9078343 -3.0965047 1.9245839
-2.9002888 -3.1031208 1.9263109
-2.8949125 -3.0990074 1.9189347
-2.8943095 -3.0957222 1.9132769
-2.8893373 -3.1084332 1.9207059
-2.8841248 -3.1191363 1.9128218
-2.8824692 -3.1178255 1.92813
-2.8817551 -3.1145399 1.9201995
-2.8826654 -3.1329472 1.9175568
-2.8732743 -3.1333034 1.9238564
-2.7386987 -2.9992836 1.9800913
-2.7408326 -2.9847627 1.9642843
-2.7212343 -2.9892006 1.9766628
-2.7290068 -2.9973769 1.9763924
-2.7224319 -3.0049279 1.9674706
-2.7084227 -3.0116189 1.9718999
-2.7222922 -3.0210121 1.9616876
-2.7008481 -3.0140553 1.9788024
-2.7073293 -3.012378 1.9615457
-2.6964478 -3.0256846 1.967962
-2.6992617 -3.0196767 1.969524
-2.6953392 -3.0399892 1.9694418
-2.6872184 -3.0448956 1.9687501
-2.6867142 -3.0417717 1.9637049
-2.686475 -3.0362754 1.9749259
-2.6751523 -3.0409777 1.963267
-2.679395 -3.0437629 1.9660199
-2.6738448 -3.0493226 1.9795291
-2.6711745 -3.065587 1.9785091
-2.665756 -3.0551994 1.9679698
-2.6539156 -3.0718601 1.9672201
-2.6405082 -3.0688376 1.9699334
-2.6471779 -3.0819397 1.9715102
-2.6345341 -3.0787873 1.9799746
-2.6269302 -3.0796514 1.9776932
-2.6281002 -3.0934532 1.9744613
-2.620924 -3.0957637 1.9721901
-2.6309898 -3.0967951 1.9680995
-2.6275411 -3.0994327 1.9714781
-2.6051073 -3.1009328 1.9689724
-2.6132078 -3.0948796 1.9735283
-2.6020529 -3.0997109 1.9648223
-2.6081796 -3.1155088 1.9667245
-2.5927243 -3.1229651 1.9754831
-2.5887995 -3.127125 1.9670756
-2.5871513 -3.1167674 1.9685582
-2.5887296 -3.1235514 1.9714164
-2.5725741 -3.1247237 1.9769228
-2.5805042 -3.1267755 1.9634656
-2.5650506 -3.1307266 1.9721758
-2.5720978 -3.1471164 1.9706011
-2.554584 -3.1366944 1.9678507
-2.5657713 -3.1567476 1.9729519
-2.5550513 -3.145699 1.9742403
-2.5555677 -3.1550841 1.9750063
-2.5444865 -3.1671844 1.9697613
-2.5319178 -3.1652317 1.9613575
-2.6577144 -3.3226697 1.9258963
-2.6565599 -3.3214133 1.9215004
-2.6488576 -3.329087 1.9167603
-2.6524396 -3.328196 1.9192312
-2.6375916 -3.3341851 1.9157184
-2.6254885 -3.3357599 1.9157411
-2.6282792 -3.3310182 1.9303945
-2.6297762 -3.3512013 1.919239
-2.6105022 -3.344717 1.919553
-2.6164682 -3.3500824 1.9253834
-2.6108327 -3.3444395 1.9285059
-2.6111491 -3.3622818 1.9166051
-2.5958564 -3.3570664 1.9207449
-2.6052988 -3.3600833 1.9294829
-2.5922654 -3.3729069 1.915933
-2.5827394 -3.378288 1.9245027
-2.5731857 -3.3711252 1.9215024
-2.5689735 -3.3701298 1.9220002
-2.5759118 -3.3745363 1.9126573
-2.5625312 -3.3895893 1.9216174
-2.5633149 -3.3836927 1.9198823
-2.5609715 -3.3828037 1.9239601
-2.5505235 -3.3913181 1.9169019
-2.5559309 -3.393976 1.9304692
-2.5525951 -3.4083068 1.9148482
-2.6586831 -3.5531337 1.8679711
-2.6601007 -3.5579741 1.8813832
-2.6445136 -3.5633235 1.8794066
-2.6484234 -3.5803373 1.8766327
-2.6416709 -3.5687015 1.8624084
-2.6259532 -3.5825858 1.8776766
-2.6319654 -3.5788679 1.8774232
-2.6138947 -3.5894482 1.872238
-2.6228769 -3.5901871 1.8679709
-2.6182868 -3.5923464 1.8729427
-2.6093128 -3.5894763 1.8719611
-2.5977066 -3.5930068 1.869857
-2.5926833 -3.6059384 1.8661141
-2.5896313 -3.6077733 1.8690612
-2.5893483 -3.6078541 1.8673409
-2.5832846 -3.6172211 1.8754261
-2.5819476 -3.6176093 1.8709121
-2.5608587 -3.6249404 1.8794935
-2.5649502 -3.6262732 1.8710049
-2.5533037 -3.6280403 1.8640187
-2.5566804 -3.6258624 1.8635575
-2.541034 -3.6371129 1.8632133
-2.5474865 -3.6483796 1.8735783
-2.648509 -3.8005903 1.816238
-2.6355252 -3.7987707 1.8119473
-2.6442566 -3.8159418 1.8219093
-2.6248975 -3.8168354 1.8150955
-2.6300476 -3.8217044 1.8245559
-2.6266108 -3.8157346 1.8162817
-2.6116576 -3.8231928 1.8298316
-2.6036856 -3.839107 1.8291434
-2.6161695 -3.8244593 1.8207817
-2.6089926 -3.8413537 1.8247234
-2.5914454 -3.8335328 1.8189684
-2.5817297 -3.8380494 1.8187431
-2.5762992 -3.8566241 1.8250495
-2.5809019 -3.8611715 1.8141577
-2.5723133 -3.8562059 1.8220845
-2.5742593 -3.8531456 1.8196617
-2.5644746 -3.8604794 1.8134537
-2.5611348 -3.8651931 1.8149966
-2.5584781 -3.8677483 1.8148452
-2.5441782 -3.868489 1.82145
-2.5459318 -3.8770504 1.8195186
-2.63956 -4.0434008 1.7672019
-2.6470573 -4.0477142 1.7694426
-2.628243 -4.0420127 1.770756
-2.6203156 -4.0531101 1.7806481
-2.6244559 -4.0515461 1.7772058
-2.6110139 -4.0655947 1.7700278
-2.603775 -4.0617065 1.7817259
-2.5949881 -4.0605688 1.7744516
-2.6063473 -4.0705442 1.7700115
-2.5910969 -4.0676904 1.7805778
-2.5777729 -4.0777626 1.770486
-2.5872562 -4.080986 1.7797811
-2.5744939 -4.091054 1.7784703
-2.5604129 -4.0988588 1.7697465
-2.5564349 -4.0964737 1.7662635
-2.5558941 -4.1063209 1.7724005
-2.5425267 -4.0946088 1.7660866
-2.5374558 -4.0997944 1.764563
-2.5396543 -4.1020293 1.7767091
-2.6280746 -4.2795987 1.7258419
-2.6239069 -4.2847958 1.7180356
-2.6298256 -4.2851806 1.7306268
-2.6264441 -4.2785125 1.7167628
-2.6043684 -4.2834787 1.7186989
-2.6110113 -4.2901864 1.7266173
-2.6011319 -4.3020782 1.7282776
-2.5851107 -4.3063326 1.7252308
-2.5953982 -4.3112502 1.7205714
-2.5872042 -4.3041067 1.7172421
-2.566859 -4.309341 1.7247907
-2.567872 -4.3163877 1.7308333
-2.5566864 -4.3153381 1.7201736
-2.5529044 -4.3168974 1.7198557
-2.5429814 -4.3223763 1.7182374
-2.5511172 -4.3404984 1.7135688
-2.5313299 -4.3347464 1.7206571
-2.6277218 -4.5062437 1.677628
-2.6290772 -4.5069213 1.6828172
-2.615087 -4.505425 1.6787739
-2.6044209 -4.5096092 1.6731113
-2.6062012 -4.5208368 1.6640091
-2.6019335 -4.5269146 1.6795548
-2.5883207 -4.5352507 1.6771313
-2.5950208 -4.5397091 1.6728107
-2.5833337 -4.5383544 1.673941
-2.5763106 -4.5432673 1.6643877
-2.5621939 -4.5327883 1.674153
-2.5615973 -4.5499635 1.666925
-2.5558064 -4.559453 1.6648685
-2.554054 -4.5445857 1.6822942
-2.5379591 -4.5578127 1.67215
-2.6252818 -4.7223639 1.6300731
-2.6224971 -4.7304859 1.6328042
-2.6221306 -4.731638 1.6147078
-2.6060796 -4.747437 1.6215888
-2.6088934 -4.7425523 1.6271702
-2.6012552 -4.7498956 1.6268352
-2.5838466 -4.7429914 1.6329205
-2.5936611 -4.7566509 1.6331033
-2.5855269 -4.7549176 1.6317314
-2.579962 -4.7634535 1.6207014
-2.5645363 -4.7713614 1.6179525
-2.5616784 -4.7630954 1.6307639
-2.5560844 -4.7810788 1.6260972
-2.5485816 -4.7696323 1.6292957
-2.6251869 -4.9587088 1.5715297
-2.6249731 -4.955822 1.5795705
-2.6050889 -4.962163 1.5781518
-2.5991144 -4.9649591 1.5667006
-2.592952 -4.9662676 1.5806007
-2.5881562 -4.9686623 1.5695734
-2.5943856 -4.9822869 1.5742375
-2.5833588 -4.9797153 1.5707576
-2.5795155 -4.9782157 1.572875
-2.560334 -4.9758844 1.5700103
-2.5579488 -4.9858408 1.5727142
-4.5142856 -2.9826109 1.6607521
-4.5252562 -2.9903655 1.6611394
-4.506597 -3.0048602 1.6561501
-4.5163908 -3.0014622 1.6621335
-4.5143442 -3.0255995 1.6575142
-4.4989529 -3.0159814 1.6634796
-4.5064225 -3.0212777 1.6678139
-4.4860826 -3.025851 1.672235
-4.4922986 -3.0515022 1.6618302
-4.4805398 -3.0429699 1.6603049
-4.4801631 -3.0514681 1.6589574
-4.4687042 -3.0551257 1.6561801
-4.4768496 -3.0643215 1.6652272
-4.469975 -3.0675178 1.6639854
-4.457109 -3.0728829 1.6649134
-4.448853 -3.0870805 1.6617608
-4.4546227 -3.0929806 1.6596074
-4.4560499 -3.102783 1.6591702
-4.2939324 -2.9918296 1.7074517
-4.2814813 -3.0043764 1.7024567
-4.2705469 -3.0008147 1.715235
-4.280952 -3.010071 1.7106216
-4.2741256 -3.0117583 1.7030717
-4.258244 -3.0308652 1.7185794
-4.2635961 -3.021409 1.7149699
-4.2480111 -3.0280085 1.7034042
-4.2555709 -3.0446985 1.7121738
-4.245276 -3.0471447 1.7173709
-4.2354097 -3.0509257 1.7085229
-4.2453403 -3.0664468 1.7131237
-4.2402573 -3.055233 1.7072757
-4.2223878 -3.0786316 1.7181549
-4.2291241 -3.0794201 1.7133248
-4.2234011 -3.0885515 1.7153594
-4.2221627 -3.0872674 1.7128164
-4.2045255 -3.0946398 1.7096338
-4.2184458 -3.0938213 1.7157153
-4.0474796 -2.9915621 1.7533853
-4.0475783 -2.9988883 1.7651298
-4.0365167 -3.0004189 1.7672894
-4.0408463 -3.0011497 1.7665932
-4.0310163 -3.0083022 1.7684224
-4.0302987 -3.0264897 1.7553813
-4.0144038 -3.023262 1.7591212
-4.0164661 -3.0231116 1.7500513
-4.0210643 -3.0296478 1.7595091
-4.0088367 -3.0344365 1.7556795
-4.0105195 -3.0487082 1.7645938
-4.0026116 -3.0472655 1.7518466
-4.0029511 -3.0589564 1.7632265
-4.001123 -3.05918 1.759528
-3.9799836 -3.0737848 1.7543237
-3.9770072 -3.0718908 1.7565724
-3.9870639 -3.0783288 1.7676835
-3.9733732 -3.0910637 1.7645738
-3.9687445 -3.092639 1.7605506
-3.9746501 -3.1062367 1.7573556
-3.9643779 -3.1057756 1.7654999
-3.9651833 -3.1016724 1.760692
-3.8062377 -3.0020394 1.7978787
-3.788563 -3.0047901 1.8123481
-3.7945793 -3.0106909 1.8177999
-3.7857926 -3.0179126 1.8107266
-3.7947495 -3.0194962 1.8027905
-3.7725883 -3.0117018 1.8076884
-3.7735291 -3.0235994 1.8165741
-3.778486 -3.0257311 1.8174191
-3.7666302 -3.0419266 1.8042759
-3.766623 -3.0432713 1.8007808
-3.7514162 -3.0425127 1.8023144
-3.7471018 -3.0482707 1.8064172
-3.7483108 -3.0642438 1.8099331
-3.7440608 -3.0556364 1.8115354
-3.7468765 -3.0601995 1.8168563
-3.7376211 -3.0668225 1.8152679
-3.7434607 -3.0786147 1.8070724
-3.720407 -3.0795994 1.8020295
-3.7165012 -3.0929718 1.8060699
-3.7257314 -3.0905871 1.8140382
-3.7184491 -3.0972536 1.8080317
-3.7096262 -3.1038709 1.801528
-3.7166932 -3.1159697 1.8043058
-3.700237 -3.1080983 1.8009399
-3.5537915 -3.0021453 1.8463402
-3.5505726 -2.9962087 1.8622677
-3.5489349 -3.0004137 1.8516338
-3.5354862 -3.0058744 1.8652399
-3.5270731 -3.0117457 1.8506924
-3.5346131 -3.0111711 1.8637422
-3.5341778 -3.0276453 1.8553323
-3.5197418 -3.019635 1.8655055
-3.5118029 -3.0430372 1.8487743
-3.5210793 -3.0343359 1.8651031
-3.5137146 -3.0519292 1.8473828
-3.5090294 -3.0504959 1.8605683
-3.5084097 -3.0516241 1.854512
-3.4984174 -3.0635099 1.8479526
-3.494812 -3.0711958 1.8604733
-3.4857471 -3.0706415 1.8585144
-3.4836259 -3.0738788 1.8650209
-3.4699075 -3.0869141 1.8644717
-3.4660094 -3.076251 1.8654481
-3.4788353 -3.0791118 1.8600477
-3.4753261 -3.0988622 1.8619702
-3.4695299 -3.0981889 1.8502361
-3.4505417 -3.1011639 1.8622776
-3.457603 -3.0984213 1.8473316
-3.4512172 -3.1163552 1.8495919
-3.4523036 -3.1095128 1.8572925
-3.2916036 -2.9943573 1.8947227
-3.2883115 -3.0000722 1.8959051
-3.285562 -3.0061982 1.9126188
-3.2818298 -3.0094664 1.9113338
-3.2834914 -3.0135477 1.8951544
-3.2832243 -3.0161626 1.9044985
-3.2746849 -3.0241256 1.8957115
-3.2740972 -3.0234931 1.894505
-3.2684495 -3.0208242 1.9001964
-3.260535 -3.0235982 1.8975559
-3.2449133 -3.0337744 1.9044034
-3.2399421 -3.0448458 1.910149
-3.2537818 -3.0373619 1.8943756
-3.2509017 -3.0503461 1.8999352
-3.2293 -3.0491991 1.906009
-3.2238715 -3.0519981 1.8940573
-3.2290926 -3.0704772 1.8987262
-3.2230942 -3.0725951 1.9086055
-3.2182963 -3.0732975 1.9057252
-3.2078004 -3.0703242 1.9046367
-3.2199388 -3.0759747 1.8979322
-3.2052236 -3.0809052 1.9047099
-3.2047563 -3.0839334 1.9035197
-3.2000563 -3.0883455 1.9138873
-3.1897905 -3.0954268 1.909938
-3.1934445 -3.1013563 1.9077197
-3.189044 -3.1167903 1.9115465
-3.1799684 -3.1105154 1.8977736
-3.1810074 -3.1237381 1.9078104
-3.1649203 -3.1307669 1.9053266
-3.0317671 -2.9978509 1.9497792
-3.0236511 -2.9907331 1.9457086
-3.0287516 -3.0074694 1.9430979
-3.0150366 -3.0038331 1.9605571
-3.0109479 -3.0142646 1.955411
-3.0108027 -3.0126898 1.9488051
-3.0128698 -3.0110607 1.9512292
-2.9911041 -3.0247085 1.944386
-3.0031056 -3.0237536 1.9487717
-2.9850645 -3.0310764 1.950574
-2.9895012 -3.0277655 1.9533401
-2.9775662 -3.0405252 1.9474643
-2.9696958 -3.0425777 1.9490873
-2.9644303 -3.0551136 1.9585752
-2.9617 -3.047765 1.9618548
-2.9641099 -3.0444813 1.9509262
-2.9531198 -3.0674808 1.9458377
-2.9596999 -3.0529366 1.9513069
-2.9531174 -3.0746217 1.9619303
-2.9421432 -3.0624993 1.9494243
-2.9493611 -3.0790529 1.9444169
-2.9338074 -3.0879169 1.9508313
-2.9441233 -3.0731614 1.9593688
-2.9328108 -3.0773976 1.9595404
-2.9320045 -3.0831659 1.9512242
-2.927913 -3.0956128 1.9503495
-2.9147441 -3.1013439 1.9506271
-2.9066582 -3.0979352 1.9495947
-2.9130974 -3.1122298 1.9510171
-2.9089077 -3.1198421 1.948696
-2.897218 -3.1189694 1.9539491
-2.8905301 -3.1268463 1.95446
-2.8974221 -3.129348 1.9538422
-2.895771 -3.1248519 1.9530981
-2.8739426 -3.1238697 1.9506893
-2.749104 -3.000145 2.008018
-2.736655 -2.9903772 1.9956207
-2.7439232 -2.9968612 1.9907178
-2.7322183 -2.994128 1.9955997
-2.7390854 -3.011554 1.9969429
-2.7282686 -3.0216451 2.003226
-2.7321932 -3.009409 2.0056934
-2.7156017 -3.0284312 2.0097146
-2.7196226 -3.0301738 2.002281
-2.7043824 -3.0344656 1.9998722
-2.7115457 -3.0296228 2.002248
-2.7094615 -3.03652 1.9982392
-2.6997693 -3.0348797 1.9915879
-2.6949747 -3.0457342 1.9915055
-2.685293 -3.0476608 1.9978272
-2.6742628 -3.0429809 1.9978815
-2.6769443 -3.0464413 1.9939902
-2.6771529 -3.0575311 1.9948889
-2.6733353 -3.0568683 1.9978513
-2.6769462 -3.0651968 2.0003221
-2.6629605 -3.0649254 1.9914304
-2.6665936 -3.066812 1.9994298
-2.6542306 -3.0832539 1.9928523
-2.6485136 -3.0791538 1.999197
-2.6428738 -3.0896299 2.007386
-2.6509073 -3.0933392 2.0040193
-2.638881 -3.0839984 2.0009513
-2.6307411 -3.0991399 1.990546
-2.6216972 -3.0947428 2.0045505
-2.6296859 -3.0982409 1.9939674
-2.6151986 -3.1120427 2.0073905
-2.6095979 -3.1137722 2.0026557
-2.6159925 -3.1074383 2.0052023
-2.6089597 -3.1196926 1.9955658
-2.595577 -3.1106172 1.9991637
-2.5940003 -3.1138904 2.0027573
-2.5957851 -3.129458 1.9993905
-2.5806329 -3.1212113 2.0045748
-2.575881 -3.1282516 1.9978427
-2.5771196 -3.1476164 1.9912933
-2.5689361 -3.1368349 1.9946167
-2.5673244 -3.1447988 1.9998791
-2.5704424 -3.1435087 1.9951376
-2.5710089 -3.1595421 2.0017982
-2.5612071 -3.1465542 2.0011842
-2.547802 -3.1563563 2.0009413
-2.5507984 -3.1723149 2.0087686
-2.5371568 -3.1574979 2.0084746
-2.538326 -3.1623108 2.004766
-2.6474619 -3.324369 1.9572257
-2.6616905 -3.3311846 1.952167
-2.6525908 -3.3407853 1.9427519
-2.6382234 -3.3379056 1.9582279
-2.6485922 -3.339999 1.9612656
-2.6322956 -3.3367021 1.9608799
-2.6366076 -3.3444169 1.9542749
-2.6211574 -3.3595498 1.9552877
-2.6178749 -3.3454676 1.9546878
-2.614881 -3.356986 1.9528391
-2.6155908 -3.3608375 1.9441103
-2.5957491 -3.3635707 1.9522866
-2.600961 -3.3618627 1.9545766
-2.595583 -3.370451 1.943454
-2.5947237 -3.3740771 1.9539394
-2.5908217 -3.3860805 1.9514166
-2.5873003 -3.3870749 1.9448671
-2.570379 -3.3973036 1.9468665
-2.5724399 -3.3889391 1.9466232
-2.5750954 -3.4022753 1.9585298
-2.5595946 -3.401021 1.9502474
-2.5528178 -3.4046295 1.9428869
-2.5578597 -3.3981597 1.9608834
-2.5406065 -3.411027 1.9539338
-2.5344708 -3.4077549 1.9469937
-2.6537194 -3.5810647 1.9035927
-2.6593938 -3.5799861 1.9109062
-2.6516123 -3.5867212 1.911607
-2.6418264 -3.5802567 1.9042815
-2.6322784 -3.581193 1.9072223
-2.6308188 -3.5913785 1.8950135
-2.6176367 -3.5995419 1.9027854
-2.6118097 -3.5975072 1.9006096
-2.607981 -3.6029842 1.9091427
-2.6110969 -3.6070955 1.9045172
-2.6011479 -3.5993557 1.9059032
-2.606508 -3.6222878 1.9120854
-2.6045496 -3.6224408 1.8952432
-2.5818853 -3.617816 1.9085689
-2.5865417 -3.6286561 1.9046551
-2.5882518 -3.6230547 1.8942454
-2.582166 -3.6292944 1.8993548
-2.5683031 -3.6347351 1.9101745
-2.5566111 -3.641381 1.8991857
-2.5563807 -3.6361814 1.9077469
-2.560771 -3.6460762 1.9077023
-2.5437703 -3.6463802 1.9083732
-2.5405824 -3.6497796 1.9125311
-2.6450455 -3.8149724 1.8568608
-2.6451416 -3.8106413 1.8620629
-2.6291463 -3.8130891 1.8564856
-2.6235554 -3.8345249 1.8482807
-2.6328502 -3.8271766 1.8582397
-2.6313198 -3.83322 1.8651506
-2.6207733 -3.8441219 1.8608518
-2.6216605 -3.8445082 1.8502417
-2.602587 -3.8529923 1.8629042
-2.6028376 -3.8433926 1.8557365
-2.5989251 -3.8525507 1.846337
-2.5825913 -3.8471417 1.8649782
-2.5810504 -3.8510787 1.8648736
-2.5850816 -3.8547716 1.8470279
-2.5773129 -3.873111 1.8602177
-2.5595801 -3.8752773 1.8510437
-2.5549314 -3.8722591 1.85464
-2.5545764 -3.8754952 1.8615148
-2.5448265 -3.8850303 1.8635625
-2.5424092 -3.8801935 1.8588597
-2.5471544 -3.8968265 1.8486406
-2.6473873 -4.0450926 1.7993786
-2.6426539 -4.0547795 1.7978934
-2.63802 -4.053895 1.8163348
-2.6312265 -4.0706439 1.8000487
-2.611238 -4.075068 1.8052008
-2.6204185 -4.0802555 1.816968
-2.6059976 -4.0705056 1.8090881
-2.6046968 -4.0764284 1.8152548
-2.6013432 -4.0853615 1.8098326
-2.5826874 -4.0844722 1.8113436
-2.5942457 -4.0831599 1.8107265
-2.5869741 -4.1027837 1.804122
-2.5811827 -4.1034484 1.8020933
-2.5769448 -4.1029997 1.8069988
-2.5689883 -4.1082473 1.811156
-2.5558743 -4.1083651 1.8137929
-2.5509884 -4.1197577 1.8098394
-2.5539773 -4.1155491 1.8036146
-2.6327686 -4.2788863 1.764014
-2.6347723 -4.2842269 1.7570251
-2.6352599 -4.2868404 1.7549759
-2.6163592 -4.2879028 1.7569222
-2.6240582 -4.3088989 1.7618157
-2.6137805 -4.3113875 1.7507616
-2.5985923 -4.311655 1.7580557
-2.5992417 -4.3045487 1.7688193
-2.5972493 -4.3183017 1.7517703
-2.5792053 -4.3207936 1.7625009
-2.5873809 -4.3258586 1.7586515
-2.5670655 -4.3189178 1.7531595
-2.573734 -4.3384609 1.768743
-2.5624468 -4.3251042 1.7669452
-2.5492082 -4.3454533 1.7678237
-2.5510709 -4.341536 1.7498776
-2.543983 -4.3484473 1.7553198
-2.6276205 -4.5095973 1.7034292
-2.6222308 -4.5273504 1.709511
-2.6338849 -4.5130911 1.716731
-2.6148033 -4.5330443 1.7025082
-2.619566 -4.5387235 1.7188396
-2.6098156 -4.537118 1.7192332
-2.6044765 -4.5302768 1.7165796
-2.6009302 -4.5362535 1.7171652
-2.5765002 -4.5501547 1.7052478
-2.5700114 -4.5430346 1.7099904
-2.5780752 -4.5475993 1.7047133
-2.5699382 -4.5530844 1.705374
-2.5557141 -4.55654 1.7039759
-2.5542653 -4.5672345 1.7062981
-2.5470343 -4.5690179 1.7066054
-2.5434666 -4.5673819 1.7121739
-2.6337578 -4.7364583 1.6601439
-2.6322033 -4.7387457 1.6538613
-2.6100581 -4.7429495 1.6573064
-2.5998251 -4.747015 1.6714917
-2.6048443 -4.765501 1.6647238
-2.5951357 -4.7622108 1.6560729
-2.5847614 -4.7710629 1.66756
-2.5757799 -4.7648373 1.671937
-2.5844712 -4.7777567 1.6581063
-2.5728502 -4.77349 1.6694784
-2.5556557 -4.7716432 1.665047
-2.5623996 -4.7748699 1.6620086
-2.5554211 -4.7825847 1.6584375
-2.5449924 -4.786705 1.6544621
-2.6312954 -4.9740129 1.6075668
-2.6131999 -4.9668627 1.6156913
-2.6037502 -4.9759912 1.6185976
-2.6028082 -4.9827962 1.611354
-2.5974841 -4.9849567 1.6148062
-2.5859857 -4.9821639 1.6061312
-2.5831101 -4.9888506 1.6228998
-2.5846608 -4.9889593 1.6200287
-4.5429564 -2.9882805 1.7125882
-4.531631 -2.989958 1.7124616
-4.5279608 -3.0021858 1.6969941
-4.5272808 -3.0172083 1.6986641
-4.5167065 -3.0115213 1.6938136
-4.5210867 -3.0179005 1.7002279
-4.5150814 -3.0183115 1.6964034
-4.4987307 -3.0422101 1.7011373
-4.5070953 -3.0376928 1.7032713
-4.5024638 -3.0461738 1.7045143
-4.4915099 -3.0510831 1.6965079
-4.487978 -3.0688548 1.7131661
-4.4845638 -3.0671527 1.7039329
-4.4766083 -3.0689754 1.7060074
-4.4669743 -3.0844378 1.700093
-4.462182 -3.0885031 1.6941179
-4.4709663 -3.0907948 1.6940446
-4.4635668 -3.1009765 1.6963792
-4.2918706 -2.9925747 1.7561983
-4.2977409 -2.9947739 1.7471646
-4.2823601 -3.0102863 1.7595103
-4.2949767 -3.0065427 1.7403672
-4.2909274 -3.0236692 1.7492031
-4.2761025 -3.0171335 1.7424871
-4.2791948 -3.0252657 1.7465734
-4.2681932 -3.0329161 1.7528533
-4.2631588 -3.0336704 1.7430941
-4.2581887 -3.0513532 1.7494001
-4.2508759 -3.0612304 1.7591515
-4.2504025 -3.0611682 1.7527153
-4.2389541 -3.0699236 1.7567729
-4.2351522 -3.0755029 1.7505742
-4.2304845 -3.0812478 1.7532436
-4.2369728 -3.0763915 1.7484368
-4.2301693 -3.0788596 1.7414805
-4.2192707 -3.0945666 1.7528503
-4.222084 -3.1094873 1.7494364
-4.0581002 -2.9883049 1.8009709
-4.0645118 -2.9992466 1.8019204
-4.0611634 -2.9939888 1.7888848
-4.0442438 -3.0015647 1.7930405
-4.0432587 -3.0096288 1.7975578
-4.0484643 -3.017324 1.802265
-4.0309925 -3.0158145 1.7977573
-4.0383196 -3.0318162 1.7967041
-4.0325956 -3.0412431 1.8058608
-4.0154934 -3.0378151 1.8060073
-4.0217972 -3.0512912 1.7978506
-4.0232253 -3.0553656 1.804432
-4.0036964 -3.0602865 1.8019456
-3.997195 -3.0724907 1.7975515
-4.0065303 -3.0679202 1.790756
-3.9913399 -3.0727737 1.8019216
-3.9914351 -3.0843821 1.8002474
-3.9960299 -3.0875518 1.7882161
-3.9816701 -3.0892394 1.7923968
-3.9781458 -3.0980747 1.8056383
-3.9744673 -3.097472 1.7910308
-3.9789376 -3.1025629 1.7979698
-3.8038886 -2.9922547 1.8522692
-3.8044162 -2.9996567 1.853307
-3.8093307 -3.0006831 1.8445183
-3.8010333 -3.0108166 1.8364731
-3.8015625 -3.0053501 1.8424106
-3.7837589 -3.0287912 1.8507633
-3.7779789 -3.022193 1.8430076
-3.7880111 -3.0363991 1.8519892
-3.7847941 -3.0312626 1.8471404
-3.7761774 -3.0349405 1.8427614
-3.7806144 -3.0408511 1.8341017
-3.757411 -3.051481 1.8433751
-3.7531624 -3.0512242 1.8369515
-3.7576952 -3.0668762 1.8457178
-3.7502658 -3.0672712 1.8452681
-3.7568917 -3.0740838 1.846689
-3.7551575 -3.079345 1.8400139
-3.7411716 -3.0788741 1.8444324
-3.7381968 -3.0794299 1.8392813
-3.7400634 -3.0956194 1.8357402
-3.7263019 -3.1005042 1.8515706
-3.7211928 -3.1064508 1.8420472
-3.7268031 -3.1124215 1.8380508
-3.7188296 -3.1072054 1.8436666
-3.5532632 -2.9936473 1.8808117
-3.5571337 -2.996002 1.88973
-3.559576 -3.0009251 1.8986332
-3.5486867 -3.0161717 1.8932474
-3.5533721 -3.0127606 1.8925399
-3.5432014 -3.0155406 1.8808708
-3.5365651 -3.0288906 1.8895391
-3.5340912 -3.0214703 1.8974768
-3.5211339 -3.0440063 1.8846534
-3.5321662 -3.042922 1.88225
-3.517576 -3.0494516 1.8934023
-3.5125 -3.0440443 1.8871838
-3.5184989 -3.0452793 1.8810204
-3.5155878 -3.0598319 1.8845824
-3.4980557 -3.0632832 1.8965216
-3.501224 -3.0607848 1.8906413
-3.4960549 -3.0758774 1.8963655
-3.4822104 -3.0727305 1.8944585
-3.4804213 -3.080868 1.8949584
-3.4714491 -3.0842857 1.8814789
-3.4848733 -3.0973682 1.8864008
-3.4671385 -3.0896368 1.8816549
-3.4756153 -3.1121733 1.8805927
-3.4702487 -3.1160741 1.8898908
-3.4613135 -3.1067255 1.8806443
-3.4604323 -3.1248345 1.8987973
-3.3012471 -2.9915521 1.933419
-3.3006909 -2.9990454 1.9294099
-3.3020351 -3.0090601 1.9421463
-3.3028731 -3.0144193 1.9363418
-3.297184 -3.0175264 1.9423255
-3.2865665 -3.0072291 1.9409053
-3.2806888 -3.0097458 1.9418074
-3.2758667 -3.03124 1.9436612
-3.2817402 -3.0281498 1.9397103
-3.2768536 -3.0285358 1.9424905
-3.2738078 -3.0382786 1.932869
-3.2628002 -3.0516536 1.9403811
-3.2557955 -3.0505679 1.9424998
-3.256048 -3.0545218 1.9438746
-3.2420986 -3.0569947 1.9267519
-3.2421591 -3.0530643 1.9445299
-3.2436335 -3.067477 1.9443889
-3.2241995 -3.0612948 1.9273453
-3.2229054 -3.0652199 1.9379778
-3.2255561 -3.0884981 1.9328041
-3.22542 -3.092977 1.9424617
-3.2148993 -3.0907011 1.9433124
-3.2168601 -3.0856798 1.9298108
-3.2166958 -3.1051762 1.9369115
-3.1951506 -3.094995 1.9460895
-3.1907218 -3.1091528 1.943742
-3.1885087 -3.1090693 1.93152
-3.1864305 -3.1138427 1.9300123
-3.1813893 -3.1216192 1.929106
-3.1857097 -3.1163497 1.9294416
-3.036612 -2.9988122 1.9764789
-3.0366266 -2.9913182 1.9836336
-3.0357845 -3.0101078 1.980312
-3.0284381 -3.0130618 1.9819899
-3.0139852 -2.9988058 1.9783388
-3.0103481 -3.0044622 1.985014
-3.0090528 -3.012253 1.9762504
-2.9999735 -3.0223198 1.9871852
-3.0123961 -3.0317054 1.9748093
-3.0057192 -3.0297775 1.9921625
-2.9987006 -3.0417101 1.975065
-2.9913056 -3.0378454 1.9897155
-2.9967499 -3.0373325 1.9898245
-2.9855101 -3.0536733 1.9912219
-2.9725864 -3.0597668 1.9911118
-2.9833081 -3.0464354 1.9895756
-2.9673486 -3.056026 1.9844731
-2.9601471 -3.0607612 1.9735227
-2.9620049 -3.0621483 1.9773995
-2.9562328 -3.0810935 1.9874108
-2.9531016 -3.0772617 1.9896905
-2.9470625 -3.0702815 1.9800301
-2.946367 -3.0929987 1.9750717
-2.9455564 -3.0887346 1.9779556
-2.9433429 -3.0958114 1.978923
-2.9412336 -3.0978801 1.9773933
-2.920655 -3.1082656 1.9904379
-2.925173 -3.0957315 1.9829067
-2.9206357 -3.1093428 1.9781417
-2.9122162 -3.1214757 1.9785786
-2.9137793 -3.1147766 1.9869888
-2.9130571 -3.1263435 1.9865141
-2.9019897 -3.1215258 1.9874517
-2.895875 -3.120214 1.9767764
-2.8868709 -3.1410112 1.9831415
-2.8968935 -3.1440272 1.9915489
-2.8884401 -3.1507983 1.9736758
-2.8869367 -3.1464269 1.9924359
-2.8729587 -3.1418636 1.9816775
-2.8637402 -3.1532314 1.9828732
-2.874079 -3.1505191 1.9748485
-2.8560023 -3.1514468 1.9793315
-2.8583944 -3.1656752 1.9927009
-2.8598435 -3.1781626 1.9914443
-2.8519621 -3.1660249 1.9734471
-2.8377101 -3.1682949 1.9764839
-2.8350451 -3.1865025 1.9767936
-2.8302479 -3.1876025 1.9855127
-2.8266847 -3.1991267 1.9828269
-2.8338745 -3.1858397 1.9927989
-2.8198631 -3.1873047 1.9895027
-2.8138707 -3.1951118 1.9892918
-2.80339 -3.2097349 1.9788597
-2.7995343 -3.2102373 1.979941
-2.7969298 -3.2072935 1.9771547
-2.7923169 -3.2145391 1.9760867
-2.804662 -3.2235661 1.9807937
-2.7966917 -3.2322476 1.9883764
-2.7799966 -3.2218239 1.9884049
-2.7859821 -3.2230532 1.9856838
-2.7819903 -3.2347395 1.985455
-2.7812891 -3.2449081 1.9813704
-2.7607934 -3.2490754 1.9866074
-2.7707245 -3.2538724 1.9752806
-2.7595689 -3.2605555 1.9908299
-2.751194 -3.247122 1.9830596
-2.7438817 -3.2505352 1.9901822
-2.7518573 -3.2704852 1.9925363
-2.7322445 -3.2582526 1.9892212
-2.7325981 -3.2765238 1.9885778
-2.7356675 -3.2753263 1.9801425
-2.7189603 -3.2779567 1.9854267
-2.7263322 -3.2846255 1.9904252
-2.7084618 -3.2857654 1.9745023
-2.7219129 -3.2802944 1.9757653
-2.6998093 -3.2909994 1.9743246
-2.7054708 -3.2989478 1.9933271
-2.7040045 -3.299433 1.9762297
-2.7001786 -3.304872 1.9752084
-2.6996627 -3.3152368 1.9797534
-2.679785 -3.3132479 1.9893265
-2.6883373 -3.3191345 1.9800938
-2.6716001 -3.3169811 1.98801
-2.6698592 -3.3215506 1.9785981
-2.6640358 -3.3241696 1.9784623
-2.6569443 -3.3292892 1.9914204
-2.6512883 -3.3446794 1.9802223
-2.6466246 -3.3432176 1.9923249
-2.6390531 -3.34255 1.9827678
-2.6524978 -3.3459914 1.986619
-2.6413925 -3.3541851 1.9762254
-2.6407084 -3.3555667 1.9837053
-2.6292524 -3.364852 1.977092
-2.6298747 -3.3570421 1.9896563
-2.6199038 -3.3680604 1.9833422
-2.6100636 -3.3766434 1.9756424
-2.6072602 -3.3642321 1.9762801
-2.6156499 -3.3718238 1.9821004
-2.5919318 -3.3765163 1.9923027
-2.5977657 -3.3793304 1.9827716
-2.5997434 -3.3957214 1.9887481
-2.5921094 -3.3961163 1.9770377
-2.5769908 -3.3897474 1.9797304
-2.5684803 -3.3886986 1.9739145
-2.5674002 -3.4023819 1.9807557
-2.5726295 -3.410933 1.9826822
-2.5655534 -3.4013941 1.9806821
-2.5578346 -3.4049628 1.9747455
-2.5442908 -3.4095368 1.9877652
-2.5405395 -3.4246733 1.9816129
-2.5463142 -3.4265208 1.9827051
-2.6619706 -3.5816715 1.940365
-2.6532512 -3.59041 1.9346825
-2.6418338 -3.5953865 1.9336644
-2.6362271 -3.5840366 1.942572
-2.6437743 -3.602674 1.9465308
-2.6293895 -3.598999 1.9436244
-2.6169999 -3.6123736 1.9407381
-2.6105416 -3.6169777 1.9368602
-2.6110585 -3.6026087 1.9414216
-2.6177225 -3.618798 1.9277046
-2.6032894 -3.6195691 1.9385976
-2.6045246 -3.6166322 1.9444692
-2.5914373 -3.6272948 1.9290744
-2.5793629 -3.6373725 1.928733
-2.5783761 -3.6400242 1.9334502
-2.5734253 -3.6333234 1.9455316
-2.5713758 -3.6392703 1.9279206
-2.5722077 -3.6438015 1.9293804
-2.5569124 -3.6538968 1.9288772
-2.5570505 -3.6557093 1.9358455
-2.5509009 -3.6481462 1.9456967
-2.553853 -3.6668811 1.9421316
-2.5509288 -3.6575966 1.9315437
-2.6541827 -3.8211491 1.8878442
-2.6467612 -3.8291092 1.891785
-2.6346176 -3.8372014 1.886045
-2.6303873 -3.8283319 1.8979694
-2.6237628 -3.8453872 1.8889669
-2.6156735 -3.8522451 1.893466
-2.6080823 -3.8443441 1.8997427
-2.6135175 -3.8554013 1.8971653
-2.6090965 -3.8545239 1.8994286
-2.6082354 -3.8558397 1.8945447
-2.5979571 -3.8547442 1.8895078
-2.5847068 -3.8715782 1.8802195
-2.5875106 -3.861625 1.8865403
-2.5760496 -3.872803 1.8854243
-2.5726588 -3.8827229 1.890939
-2.5582657 -3.8899252 1.8932748
-2.5593681 -3.8749132 1.8871826
-2.5541892 -3.8907185 1.8936969
-2.5515826 -3.8874896 1.8847449
-2.5467076 -3.8887916 1.8981254
-2.5467114 -3.9052129 1.8962427
-2.6378021 -4.0568032 1.8344929
-2.6318936 -4.0737352 1.8529888
-2.6396592 -4.0646186 1.8439254
-2.6285357 -4.077528 1.8485527
-2.6118922 -4.0814667 1.8495808
-2.6129079 -4.0919352 1.8492167
-2.6000106 -4.0826569 1.8366356
-2.600594 -4.0962086 1.8508638
-2.5901244 -4.0903277 1.8473628
-2.5862689 -4.0898981 1.8510058
-2.5842912 -4.099956 1.8496332
-2.5773916 -4.1097908 1.8350264
-2.5719912 -4.1130805 1.8532264
-2.575649 -4.1109424 1.8421987
-2.5546749 -4.1178603 1.8509067
-2.5526674 -4.1114998 1.8528123
-2.551019 -4.1179523 1.8476545
-2.5419466 -4.1307034 1.8525949
-2.6405659 -4.3043365 1.8003916
-2.6405251 -4.2943511 1.7989187
-2.6368363 -4.3081183 1.7910137
-2.6145148 -4.3007216 1.7968924
-2.6067951 -4.3136649 1.803091
-2.6008701 -4.3160114 1.7950302
-2.6059678 -4.3231344 1.8036451
-2.6023521 -4.3140054 1.8022068
-2.5968261 -4.3289886 1.7978938
-2.5764527 -4.3206649 1.8043993
-2.5711341 -4.334806 1.8064644
-2.571347 -4.3349133 1.8022108
-2.5730278 -4.3373442 1.7878776
-2.5626085 -4.3434701 1.80462
-2.5463054 -4.3478985 1.7920899
-2.5437989 -4.3524294 1.8008754
-2.5493481 -4.3480902 1.8061917
-2.6442425 -4.5341763 1.7576159
-2.6223705 -4.5329127 1.7443606
-2.6248064 -4.5373225 1.7430573
-2.6207318 -4.5424666 1.7512325
-2.6145868 -4.5338807 1.7429118
-2.6126902 -4.5530376 1.7557638
-2.6051221 -4.5478435 1.7460841
-2.5808063 -4.5524182 1.7555621
-2.5890152 -4.560564 1.7440867
-2.568434 -4.5603418 1.7405196
-2.5625312 -4.5631361 1.7424301
-2.5585327 -4.5703855 1.7492931
-2.5677845 -4.5664029 1.7554257
-2.5583348 -4.564683 1.7400857
-2.5407047 -4.5831604 1.7569937
-2.6258156 -4.7561069 1.711731
-2.6234069 -4.7579517 1.7019737
-2.6106727 -4.761838 1.7112768
-2.6084552 -4.7602954 1.6960605
-2.597708 -4.7645392 1.7046846
-2.610523 -4.7692528 1.6941231
-2.6014223 -4.7763453 1.6999122
-2.5854535 -4.7790723 1.7132746
-2.5833471 -4.7787371 1.7119389
-2.5765755 -4.7871642 1.6956986
-2.5728912 -4.7926745 1.7000939
-2.5677979 -4.7824159 1.7063314
-2.5524569 -4.786068 1.7123603
-2.5478079 -4.7941532 1.7035998
-2.5383699 -4.7981467 1.6942545
-2.6311471 -4.9735732 1.6571788
-2.6233966 -4.9747329 1.6633173
-2.6098518 -4.9865947 1.65036
-2.6029396 -4.9830251 1.6613595
-4.5316477 -2.996362 1.7389467
-4.5258431 -3.0050464 1.7460625
-4.5314546 -3.0241747 1.7350045
-4.5241156 -3.0156226 1.7360939
-4.5116353 -3.0192289 1.746828
-4.5111356 -3.0314016 1.7355908
-4.5031743 -3.0384181 1.7454635
-4.5105438 -3.0449576 1.7402461
-4.50209 -3.0590866 1.7393919
-4.5010018 -3.0676994 1.7406838
-4.4991922 -3.057658 1.7361305
-4.4891176 -3.0660155 1.7492397
-4.4919176 -3.0841966 1.749562
-4.4857674 -3.0792601 1.7447715
-4.4785185 -3.0860732 1.7427043
-4.4805274 -3.096626 1.7347877
-4.3137794 -2.9922993 1.791416
-4.2972903 -2.990541 1.7825724
-4.3060102 -3.0045946 1.7859055
-4.2955761 -3.0018342 1.7869253
-4.2838416 -3.0215478 1.7842804
-4.2966518 -3.0154781 1.7795657
-4.2763448 -3.0365095 1.7829514
-4.2757068 -3.0356998 1.7975494
-4.279851 -3.0319598 1.7916037
-4.2660542 -3.0545552 1.7813687
-4.2601657 -3.054723 1.7905521
-4.2628841 -3.0625908 1.7875218
-4.2544379 -3.0633759 1.7964604
-4.2626505 -3.0779326 1.7941757
-4.249835 -3.0849688 1.798188
-4.239656 -3.0890381 1.7942746
-4.2341833 -3.0970309 1.7953284
-4.2453165 -3.088625 1.7831848
-4.2418437 -3.1086109 1.7807682
-4.2243085 -3.099056 1.7817371
-4.0601811 -2.9922872 1.8337572
-4.0638423 -3.0078802 1.8386345
-4.0505257 -2.9993083 1.8286896
-4.0482626 -3.0032384 1.8301452
-4.0482764 -3.0186508 1.8305156
-4.04427 -3.0281901 1.8327619
-4.0441689 -3.0365713 1.8329544
-4.0430064 -3.0404084 1.8274857
-4.0339794 -3.0451033 1.827958
-4.0273614 -3.0366023 1.8239061
-4.0197663 -3.0451398 1.8369483
-4.0253873 -3.0615327 1.8400872
-4.0261235 -3.0688109 1.8374819
-4.0167961 -3.0780361 1.8366245
-4.0060058 -3.0714929 1.826027
-3.9948368 -3.0851691 1.8315567
-4.0014138 -3.082978 1.8343656
-3.9877906 -3.0838659 1.8389919
-3.9996281 -3.0999763 1.8245716
-3.9909856 -3.0937257 1.824295
-3.9863873 -3.1041455 1.8411175
-3.8153765 -2.9843221 1.8724219
-3.8147497 -2.9894385 1.8768287
-3.8167205 -3.009517 1.8776288
-3.8195412 -3.0031016 1.870585
-3.8129518 -3.0098219 1.8754716
-3.8008254 -3.0274317 1.88815
-3.8058827 -3.0157385 1.8855352
-3.7863061 -3.040211 1.8723986
-3.7811427 -3.0403767 1.8710949
-3.7762482 -3.0402875 1.884948
-3.774524 -3.0469015 1.8840578
-3.7867317 -3.0570798 1.883401
-3.7745254 -3.0534277 1.8880105
-3.7615116 -3.0568023 1.8843738
-3.7555344 -3.057801 1.8793495
-3.764663 -3.0708945 1.8820421
-3.7611058 -3.0732737 1.8817487
-3.7601562 -3.080312 1.8822979
-3.7523358 -3.0864303 1.8879904
-3.7458117 -3.0919046 1.8790748
-3.7454274 -3.0999129 1.8888425
-3.7259259 -3.1043944 1.873723
-3.7270739 -3.1009424 1.8875409
-3.7236052 -3.1087568 1.8832635
-3.5745144 -2.9896734 1.9285043
-3.5598669 -3.0090129 1.9206752
-3.56252 -3.0090981 1.9157279
-3.5654597 -3.0125432 1.9289974
-3.547843 -3.0124853 1.9213977
-3.5445268 -3.0102274 1.9335668
-3.5501194 -3.0319171 1.9229647
-3.5459373 -3.0384443 1.9331121
-3.5368676 -3.0304656 1.9319365
-3.5339735 -3.0433719 1.9281653
-3.5353496 -3.0407996 1.9234825
-3.516722 -3.0477731 1.9244583
-3.5259166 -3.0616 1.9303416
-3.5200515 -3.0625734 1.9177662
-3.5209103 -3.0701442 1.9302298
-3.5093617 -3.07862 1.9299258
-3.5056372 -3.076916 1.9329013
-3.4925079 -3.0752649 1.9143125
-3.4892244 -3.0887859 1.9286596
-3.4871097 -3.0836613 1.9150515
-3.4887593 -3.0841682 1.9289608
-3.475085 -3.0903101 1.9208359
-3.480428 -3.109916 1.9238174
-3.479881 -3.107933 1.9307529
-3.4719024 -3.1110919 1.9150388
-3.4714537 -3.126992 1.9157645
-3.3066933 -2.9929221 1.9683473
-3.3037419 -3.0003672 1.9622407
-3.2993727 -3.0088396 1.9675105
-3.3006501 -2.9995146 1.9627961
-3.2955291 -3.0161636 1.9624599
-3.2964921 -3.0234694 1.9608611
-3.285574 -3.0204563 1.9645295
-3.2916675 -3.0212409 1.9750479
-3.2908194 -3.0383985 1.9672686
-3.2856789 -3.0394654 1.968444
-3.2798061 -3.0447459 1.9779956
-3.2665882 -3.0512645 1.964743
-3.2594705 -3.0576098 1.9676533
-3.2670767 -3.0494347 1.9645176
-3.2593908 -3.0603473 1.9693562
-3.2520349 -3.0564384 1.9715064
-3.2462714 -3.0658329 1.9612812
-3.2368329 -3.0655489 1.974877
-3.2368698 -3.0686517 1.975915
-3.2446797 -3.0708547 1.9604797
-3.231308 -3.0914323 1.9643517
-3.2283781 -3.0830457 1.9662871
-3.2186947 -3.0918016 1.9664533
-3.2260945 -3.0924301 1.9793645
-3.2166238 -3.1096456 1.965927
-3.2023084 -3.1037841 1.9609566
-3.2058363 -3.1164448 1.9711436
-3.1995833 -3.1239591 1.9661605
-3.1997283 -3.1158082 1.9626148
-3.1988287 -3.119772 1.9614002
-3.1933584 -3.1346748 1.9641358
-3.1840098 -3.130965 1.95978
-3.1727197 -3.1418951 1.9711843
-3.181257 -3.1445549 1.9664699
-3.176877 -3.1420801 1.9690439
-3.1659281 -3.1496322 1.9619769
-3.1599438 -3.165061 1.966741
-3.1637661 -3.1585915 1.9684765
-3.1525652 -3.1566279 1.9628422
-3.1449041 -3.1781323 1.9777176
-3.1384513 -3.17854 1.9621576
-3.1292567 -3.173979 1.9747685
-3.1244118 -3.1825137 1.9609044
-3.1281567 -3.1839781 1.9688292
-3.1166098 -3.1854608 1.9636714
-3.1224825 -3.2003994 1.9753983
-3.1154163 -3.1937642 1.9761268
-3.10358 -3.1953685 1.9677491
-3.1100018 -3.2101951 1.965753
-3.102052 -3.2217896 1.9666644
-3.0992208 -3.2113669 1.9715738
-3.0919433 -3.2161913 1.9654437
-3.0920491 -3.2206185 1.9751723
-3.0860128 -3.2332444 1.9678236
-3.0720458 -3.2387834 1.9633729
-3.0832305 -3.2346611 1.9683582
-3.0626824 -3.2479448 1.9643469
-3.0613997 -3.2538702 1.9630935
-3.0684886 -3.2507021 1.9713694
-3.0575678 -3.2640743 1.9724001
-3.0457296 -3.2591116 1.9681967
-3.0489759 -3.2713742 1.963506
-3.0383463 -3.2682509 1.9787186
-3.0379822 -3.2636061 1.9656298
-3.024961 -3.269515 1.9713202
-3.0363846 -3.2911351 1.9654443
-3.0228167 -3.2767396 1.9705902
-3.0132544 -3.2855999 1.9741096
-3.0249393 -3.286094 1.96509
-3.0083427 -3.3002176 1.9669844
-3.0107095 -3.3070598 1.9781214
-2.9972737 -3.3017106 1.9612694
-2.9885225 -3.3103004 1.9718078
-2.9845531 -3.3231006 1.9712521
-2.9936666 -3.3274598 1.9690418
-2.9770839 -3.3278289 1.9694595
-2.9863713 -3.3192222 1.9685143
-2.9705069 -3.3256514 1.9629438
-2.9711173 -3.3283696 1.961108
-2.9607415 -3.3391011 1.9693707
-2.9684656 -3.3368149 1.9750073
-2.9650469 -3.3457148 1.9702024
-2.9584742 -3.350491 1.9610106
-2.9413574 -3.3559313 1.9632151
-2.9447906 -3.3551242 1.9652503
-2.9304285 -3.3623796 1.9711
-2.9356427 -3.3635733 1.9697332
-2.9217963 -3.3735592 1.9661077
-2.9135149 -3.368818 1.963928
-2.9270637 -3.3783693 1.9751743
-2.9123437 -3.3803189 1.9728575
-2.9119818 -3.3835294 1.9657851
-2.8964188 -3.3848534 1.9780743
-2.8900421 -3.3937516 1.9690546
-2.9014552 -3.4107804 1.9649664
-2.8908274 -3.39815 1.9777411
-2.8943443 -3.4154425 1.9734336
-2.8792224 -3.4236031 1.9632453
-2.8677201 -3.4082022 1.9618963
-2.878392 -3.431076 1.9750879
-2.8578122 -3.4239614 1.970415
-2.8595433 -3.4212222 1.96661
-2.8483415 -3.4276626 1.965553
-2.8448446 -3.4324751 1.9596629
-2.8503621 -3.433455 1.9608027
-2.839962 -3.4485669 1.9786248
-2.8367817 -3.4519613 1.9632
-2.8379033 -3.4450047 1.9636531
-2.8292079 -3.451323 1.9635389
-2.8218558 -3.4530954 1.9645761
-2.8213067 -3.4590762 1.9767466
-2.8054249 -3.4715817 1.9756683
-2.8133426 -3.4776845 1.9721546
-2.8023117 -3.4850953 1.9678268
-2.7971656 -3.4828339 1.9665111
-2.790874 -3.4949882 1.9740685
-2.7867551 -3.4887838 1.9622097
-2.7780554 -3.4885283 1.9612789
-2.7688973 -3.5044096 1.9779947
-2.7798479 -3.4977767 1.976896
-2.7697556 -3.4954386 1.9737679
