# .PCD v0.7 - Point Cloud Data file format
VERSION 0.7
FIELDS x y z
SIZE 4 4 4
TYPE F F F
COUNT 1 1 1
WIDTH 1582
HEIGHT 1
VIEWPOINT 0 0 0 1 0 0 0
POINTS 1582
DATA ascii
3.71437 2.9328942 1.3438063
3.7074375 2.9341061 1.3480948
3.701458 2.938848 1.351215
3.6940196 2.9460249 1.3480601
3.6906931 2.9645932 1.3497901
3.6899712 2.9669666 1.3455014
3.6959124 2.9696622 1.3523802
3.6906013 2.97949 1.3540747
3.671437 2.9797065 1.3545183
3.6712329 2.9729757 1.3560965
3.516885 2.8722665 1.4103146
3.5138555 2.8675561 1.4142932
3.5151076 2.8809552 1.4178549
3.5194733 2.8910124 1.4234402
3.5006771 2.8818467 1.4224461
3.5036039 2.8960698 1.4186835
3.5022354 2.9003518 1.4124805
3.4877388 2.9034476 1.4109749
3.4949303 2.9115114 1.4245611
3.482558 2.9035103 1.426298
3.4917576 2.9117055 1.4212666
3.4888818 2.9208584 1.4266219
3.4699781 2.9352572 1.4204791
3.4746294 2.9380226 1.4195018
3.464859 2.9259994 1.4244726
3.454088 2.9409177 1.4187859
3.4595478 2.9384887 1.4125062
3.4587975 2.9455912 1.4244533
3.4565351 2.9639199 1.4196005
3.4478524 2.953918 1.4218886
3.4408994 2.9571638 1.4275196
3.4289086 2.9615893 1.4174566
3.4422665 2.9711728 1.4169515
3.4294746 2.9694762 1.4143766
3.435699 2.982085 1.4149488
3.4268873 2.9880047 1.4256154
3.4123826 2.9834728 1.4290348
3.4115913 3.0022862 1.4147441
3.4027405 3.0029397 1.4139754
3.4090302 2.9990191 1.4184036
3.3976016 3.0122614 1.4212825
3.3917973 3.0176353 1.4237974
3.3959234 3.0204959 1.4111122
3.3795378 3.0347004 1.4119524
3.3805709 3.0392716 1.420629
3.3821695 3.03918 1.410459
3.374428 3.0487394 1.4109966
3.3700995 3.0416696 1.4255929
3.3714738 3.0499182 1.4160937
3.3720725 3.0486319 1.4179308
3.3570931 3.0600991 1.4282731
3.3449862 3.0699506 1.4192578
3.3553874 3.0681233 1.4283775
3.3530972 3.0741127 1.426982
3.1928284 2.9575257 1.4917302
3.2002203 2.9543765 1.4853928
3.1974361 2.9677076 1.4839127
3.1951833 2.9609385 1.4906669
3.1875207 2.9597785 1.4809792
3.1903524 2.963459 1.485321
3.1750154 2.976408 1.4764519
3.1700144 2.9815044 1.4927616
3.1759918 2.9812634 1.482578
3.1710827 2.9829996 1.4937232
3.1647723 2.9875529 1.4914445
3.1569173 3.0036004 1.4815615
3.162719 3.0009716 1.4805607
3.1470344 3.0002043 1.4883474
3.1380978 3.0158949 1.4905367
3.1394675 3.018544 1.4919745
3.1451728 3.0299888 1.4819353
3.1420031 3.0205717 1.4925724
3.1351368 3.0212772 1.478554
3.1180809 3.0412252 1.481863
3.112164 3.0390198 1.4853226
3.1239624 3.0331235 1.4804325
3.1058719 3.0371983 1.4885224
3.1067743 3.0497646 1.4914597
3.0954576 3.0575762 1.485708
3.1063242 3.0509453 1.4782318
3.0986223 3.0542142 1.4778326
3.0808754 3.0585134 1.4836544
3.0937595 3.080153 1.4858255
3.0726194 3.068949 1.4835944
3.0747821 3.0760465 1.4948137
3.0803986 3.0791669 1.4757981
3.0611188 3.0884273 1.4765251
3.0699232 3.1028268 1.4854916
3.0616589 3.0901523 1.477949
3.0476367 3.092593 1.4794611
3.0461326 3.1115866 1.4799333
3.0442233 3.1170938 1.4804019
3.0481298 3.1197517 1.4782132
3.1658514 3.2607253 1.4142431
3.1694973 3.2531409 1.4193721
3.1643562 3.2554574 1.4233425
3.1601937 3.2627842 1.4123005
3.1567519 3.2632117 1.4113911
3.1422706 3.2796772 1.4135464
3.1402404 3.2864285 1.4138874
3.1397161 3.2759898 1.4289731
3.139658 3.287962 1.4253231
3.1200626 3.2881663 1.4200945
3.1182721 3.2987742 1.4164256
3.1187921 3.297555 1.420764
3.1244347 3.3157272 1.4230168
3.1140416 3.3142757 1.428201
3.1126006 3.3139272 1.4094232
3.1102443 3.3236485 1.4227279
3.0900371 3.3158967 1.4184076
3.2185693 3.4704537 1.3529918
3.2135835 3.4714317 1.3614707
3.2049417 3.4773891 1.3457966
3.2110648 3.4861376 1.3563794
3.1935129 3.4799931 1.3613982
3.2002933 3.4840846 1.3602509
3.1893203 3.5023825 1.3533206
3.1835251 3.503845 1.3617164
3.178946 3.5075624 1.3555146
3.1676657 3.5156901 1.3572488
3.1720586 3.5085692 1.3509644
3.1573157 3.5212853 1.3611792
3.1710458 3.5101886 1.3528796
3.1490955 3.53005 1.3488632
3.157722 3.5372012 1.354244
3.2768416 3.6769083 1.2929784
3.2691305 3.6697431 1.2918522
3.2544825 3.6816423 1.2877504
3.2482243 3.6938283 1.2829347
3.2557578 3.6996062 1.2818223
3.2450192 3.6946549 1.2891715
3.2479897 3.6998456 1.2848259
3.241169 3.7036564 1.2849796
3.2260423 3.7104139 1.2805977
3.2268929 3.7107005 1.2789766
3.2131181 3.7095351 1.291751
3.2243576 3.7257705 1.2928087
3.2144647 3.7324762 1.281221
3.2004638 3.7380481 1.2772824
3.2016408 3.7362845 1.2945913
3.2016993 3.7489195 1.282426
3.1891007 3.7496684 1.2909355
3.1921506 3.7487464 1.2787476
3.1753478 3.7578537 1.2888155
3.1741569 3.7529743 1.2946761
3.1713386 3.7594883 1.2948842
3.1612887 3.7624171 1.2868481
3.1522903 3.7806337 1.2810453
3.1516981 3.7700369 1.2963493
3.1471612 3.7858107 1.2854316
3.1399271 3.7868426 1.2826983
3.1405215 3.7804821 1.2962705
3.1296194 3.8023834 1.2844847
3.1265233 3.7927003 1.2773775
3.1134889 3.8070507 1.280969
3.1063092 3.8038137 1.2866607
3.1193316 3.8157635 1.2908739
3.1043117 3.8239579 1.2889044
3.103483 3.8168092 1.2919458
3.0979524 3.8303788 1.286376
3.0814979 3.8219755 1.2774608
3.0823042 3.8394339 1.2778147
3.0766768 3.831264 1.2957073
3.0792575 3.8452773 1.2795614
3.0747249 3.851542 1.2934178
3.0537779 3.8559186 1.2796965
3.0585167 3.8586152 1.2935917
3.0474629 3.8515959 1.2913556
3.0544336 3.8690577 1.2776524
3.0444398 3.8663044 1.2932076
3.0288701 3.8724186 1.296056
3.0243793 3.8846672 1.2920669
3.0202367 3.876622 1.2956191
3.0139809 3.876497 1.2889035
3.0115731 3.8971856 1.2841789
3.003016 3.9022789 1.2795645
3.0007317 3.8974686 1.2933881
2.9923368 3.9069679 1.2959411
3.0016999 3.9088073 1.291712
2.977354 3.9060283 1.2804936
2.9885576 3.9130611 1.2911608
2.9826035 3.9209902 1.2898551
2.9726548 3.9301701 1.2962906
2.9662526 3.9184928 1.2783952
2.9531288 3.9298127 1.2769897
2.9552748 3.9379861 1.2964864
2.9528005 3.9292915 1.2869893
2.9441442 3.9376245 1.2828158
2.9380352 3.9407487 1.2963136
2.9276915 3.9449608 1.2828717
2.9261234 3.9458165 1.2923095
2.9152169 3.9661636 1.285531
2.9229991 3.9620135 1.2837944
2.9172113 3.956918 1.2862505
2.9135222 3.9641616 1.2959038
2.908422 3.9790196 1.2896155
2.902813 3.9768779 1.2905254
2.8877013 3.9915597 1.2956686
2.8884103 3.9856184 1.279844
2.8826115 3.9948244 1.2841475
2.8633652 3.9879599 1.2852298
2.8735511 3.9956915 1.2825904
2.8569531 3.9967141 1.2917395
2.858613 3.9974627 1.2917396
2.8427231 4.0200419 1.2949376
2.8364813 4.0230465 1.2889556
2.8439455 4.0259733 1.2768013
2.8323143 4.0193243 1.2953064
2.8258204 4.0189271 1.2838553
2.8234968 4.0382791 1.2776033
2.8254712 4.0439377 1.2804872
2.8085222 4.045342 1.2871113
2.8089283 4.0357122 1.290774
2.7984781 4.0533123 1.2912092
2.7880228 4.0405984 1.2902557
2.78076 4.047224 1.2883463
2.7875097 4.0669003 1.2854108
2.7820997 4.0605378 1.2918818
2.7751896 4.0732789 1.2940185
2.7568228 4.0692997 1.2915778
2.7521987 4.0729032 1.2908748
2.750453 4.0851722 1.2876623
2.755326 4.0834665 1.2909144
2.7438567 4.0769358 1.2878691
2.7328169 4.0855803 1.28822
2.7208185 4.0925975 1.2913145
2.7269056 4.0920062 1.2902111
2.7100515 4.091651 1.2788787
2.7196634 4.1100383 1.2964292
2.7114065 4.1157155 1.28615
2.7007039 4.1024318 1.2956319
2.6892929 4.1130705 1.293548
2.6946642 4.1142554 1.2859319
2.6832824 4.1296501 1.2879665
2.6888502 4.119689 1.2948347
2.6747634 4.1234193 1.2849176
2.6637661 4.1389308 1.2906138
2.6716602 4.1432886 1.2921683
2.6482165 4.1429634 1.2883307
2.6423182 4.1400919 1.2863997
2.6461358 4.1522336 1.2874219
2.63943 4.1586852 1.2953278
2.630635 4.1562347 1.280672
2.6342192 4.1681337 1.2776717
2.6198328 4.1713371 1.2809795
2.6123095 4.1661954 1.2842944
2.6148636 4.1758037 1.2794062
2.6031094 4.1790581 1.2951688
2.5929043 4.1846266 1.2869073
2.5988567 4.1900592 1.2920836
2.5828729 4.1850772 1.2857189
2.5879064 4.179162 1.2821314
2.5808408 4.1902299 1.2924266
2.5791144 4.1906652 1.2909622
2.5543826 4.2025018 1.2890508
2.5529537 4.2126088 1.2783558
2.5548348 4.2110682 1.2936348
2.5518227 4.2035761 1.2885423
2.5445683 4.211688 1.2854002
2.5290475 4.2115655 1.284081
2.518698 4.2212777 1.294178
2.5219789 4.2218471 1.2947663
2.5216675 4.2211795 1.2828373
2.5116463 4.2246184 1.287766
2.5001557 4.2291646 1.2809623
2.5067492 4.2381253 1.2807045
2.5026426 4.2348151 1.2953532
2.4938102 4.2543464 1.2789657
2.4798803 4.2524819 1.2871535
2.4828036 4.2609591 1.2916906
2.4644029 4.2649555 1.28242
2.4560945 4.2581058 1.2902069
2.4483697 4.2568221 1.2938225
2.4487109 4.2714005 1.2773821
2.4539762 4.260376 1.2820005
2.4324329 4.281837 1.2921008
2.4306271 4.2850895 1.2954204
2.4234653 4.2854114 1.2948089
2.4199114 4.2777104 1.2888784
2.4245405 4.2788448 1.2879796
2.413702 4.2874951 1.2876395
2.4135883 4.2937584 1.2770201
2.4012568 4.298223 1.2816963
2.3925364 4.30896 1.2775379
2.3873706 4.3108978 1.2789506
2.3868189 4.2972326 1.2784283
2.3763628 4.3077068 1.2777705
2.3692214 4.3169694 1.294055
2.3614643 4.3086329 1.2792674
2.3477719 4.3108845 1.2822514
2.3531761 4.3282619 1.290531
2.3382359 4.3314939 1.281728
2.3326714 4.3283677 1.2940516
2.3317788 4.3224993 1.2937827
2.3267231 4.3374476 1.2921304
2.411901 4.5043135 1.227214
2.4074943 4.5003567 1.2157539
2.4024251 4.515255 1.2302604
2.3936355 4.5083966 1.2131424
2.390054 4.5138512 1.2149969
2.3694518 4.5307202 1.2109578
2.4645519 4.685883 1.160602
2.4431837 4.6944027 1.1501526
2.454134 4.7080522 1.1505889
2.4448109 4.7026744 1.1627364
2.4338305 4.6996808 1.1520391
2.4242153 4.7185502 1.1540409
2.5091588 4.8865705 1.0813195
2.5023463 4.8842535 1.0846993
2.4984107 4.8846378 1.0902159
2.4763248 4.890707 1.0892924
2.4701951 4.8907413 1.0930115
2.479991 4.895937 1.0818367
2.5439463 5.0672798 1.0146213
2.5434837 5.0672956 1.0249189
2.5351639 5.0828753 1.0288374
2.5361419 5.0753884 1.0282483
2.5191169 5.0933757 1.0243654
-3.1237707 4.0288568 1.2135459
-3.1223719 4.0218129 1.2207828
-3.1354504 4.0194879 1.2106296
-3.1494462 4.0178423 1.2170607
-3.1397169 4.0128069 1.2252474
-3.1611562 3.9939322 1.2126848
-3.1635184 4.0016541 1.2165986
-3.1555769 3.9881208 1.2125628
-3.1637106 3.9826348 1.2175207
-3.054405 3.839967 1.2832421
-3.0667927 3.8283086 1.2771443
-3.0688531 3.8236442 1.2883859
-3.0836704 3.8314903 1.2816931
-3.088635 3.8109236 1.2777536
-3.0871623 3.8256631 1.293185
-3.097497 3.8045342 1.2941557
-3.1003883 3.8066075 1.2872707
-3.0993598 3.8021805 1.2912821
-3.1023607 3.7951722 1.2942446
-3.120398 3.7849934 1.2862155
-3.118994 3.787761 1.2908161
-3.1236815 3.7937968 1.2950479
-3.1371214 3.7903376 1.2914288
-3.137248 3.7872303 1.2915536
-3.1413081 3.7709057 1.290736
-3.1499305 3.769551 1.2931145
-3.1575761 3.7706032 1.2818992
-3.1521006 3.7579763 1.2905972
-3.1626074 3.7476346 1.2766345
-3.1701455 3.7445359 1.2768477
-3.1657066 3.7481151 1.2841909
-3.176661 3.7322748 1.2819394
-3.1833773 3.7282565 1.2806058
-3.1937065 3.7293673 1.2805493
-3.1839044 3.7316678 1.28856
-3.1949141 3.7305892 1.2796152
-3.2035389 3.7271025 1.296129
-3.2033727 3.7143226 1.2844296
-3.2145021 3.7162609 1.2868094
-3.219588 3.7158797 1.2905189
-3.2244546 3.7051504 1.2822434
-3.2219715 3.6886733 1.2825704
-3.2217336 3.6906803 1.2833291
-3.2428231 3.6875522 1.2896562
-3.2439628 3.6794138 1.2827485
-3.2370851 3.6854475 1.2792341
-3.2591462 3.6680322 1.2767123
-3.2646871 3.675952 1.2858969
-3.2619209 3.6579053 1.2815135
-3.2767687 3.6599293 1.2812498
-3.2679005 3.6622372 1.2947649
-3.2873015 3.6521721 1.2963182
-3.2863691 3.6474826 1.2844007
-3.2846715 3.6468353 1.2938849
-3.2966404 3.6301737 1.2797675
-3.2955105 3.6255083 1.2962278
-3.2978885 3.6238942 1.2798238
-3.3027821 3.6218455 1.295898
-3.3184843 3.6276627 1.2784907
-3.3185637 3.6237254 1.28768
-3.3189003 3.6137435 1.2837569
-3.3257151 3.6094413 1.2943554
-3.3309703 3.5911458 1.2848585
-3.3481364 3.5996153 1.2793151
-3.3358116 3.6011777 1.2817181
-3.3575981 3.5889249 1.2840707
-3.3629174 3.5793424 1.2894316
-3.364634 3.5699086 1.2773728
-3.3702703 3.569808 1.2957674
-3.373307 3.5746572 1.2948682
-3.3671479 3.5641928 1.2886374
-3.3849053 3.5519295 1.2827617
-3.3920577 3.5594206 1.2832545
-3.3887002 3.554749 1.2768886
-3.3908794 3.5473988 1.2767632
-3.3906491 3.5432522 1.2890704
-3.4080596 3.5387702 1.2964873
-3.4001024 3.5375483 1.2791697
-3.4041975 3.5156605 1.2864577
-3.4098911 3.5157003 1.283308
-3.4164774 3.5068564 1.2944139
-3.4292879 3.5052059 1.2779835
-3.4279673 3.5013471 1.2937784
-3.4461472 3.5057836 1.2896425
-3.4506862 3.4929714 1.2829039
-3.455344 3.4853141 1.2767736
-3.4476879 3.4851639 1.2909225
-3.4526081 3.4778819 1.288618
-3.454839 3.4714093 1.2892011
-3.4697754 3.4641407 1.294606
-3.4678545 3.4751768 1.2959559
-3.4748209 3.458287 1.2804509
-3.4782107 3.4475954 1.28589
-3.4857991 3.4435949 1.2805747
-3.4975166 3.4399197 1.2872636
-3.495966 3.4364443 1.2911181
-3.5005386 3.4454758 1.2796524
-3.5109556 3.4344311 1.2857412
-3.5036702 3.425993 1.2902007
-3.5157948 3.427449 1.2922418
-3.5225077 3.4156499 1.2901758
-3.5278637 3.4217012 1.2960837
-3.528718 3.409173 1.2961701
-3.5241263 3.3938599 1.2771332
-3.544843 3.3916259 1.2793047
-3.5388637 3.3957324 1.2828913
-3.5490229 3.3800492 1.2804065
-3.5506411 3.3787255 1.2917809
-3.5661635 3.3694563 1.2796277
-3.5572193 3.3728251 1.2938477
-3.5662272 3.3742366 1.2811922
-3.5772941 3.3550406 1.2795187
-3.5824461 3.3597324 1.290254
-3.5875046 3.3537509 1.29062
-3.591593 3.3517811 1.2937021
-3.593503 3.3405116 1.2858479
-3.5918193 3.343797 1.287274
-3.5926135 3.3301716 1.2923465
-3.6020262 3.3257244 1.2931265
-3.603585 3.3149147 1.2822584
-3.6109171 3.3197834 1.2777917
-3.6108973 3.3182652 1.2791256
-3.6125441 3.3162673 1.290154
-3.6234484 3.2938766 1.2802105
-3.6339796 3.2920561 1.293313
-3.6414216 3.2929771 1.2801684
-3.6367106 3.2802265 1.2953383
-3.6505666 3.2913191 1.2819183
-3.659343 3.2776299 1.2890929
-3.6473322 3.2670052 1.2905061
-3.6661823 3.2736652 1.2818432
-3.6694918 3.2649543 1.2767233
-3.6714604 3.2591991 1.2946732
-3.6623936 3.2471349 1.2953066
-3.6832628 3.2491276 1.2792
-3.6910224 3.2482593 1.2891014
-3.6919196 3.2366762 1.2913456
-3.6976395 3.2358041 1.2897824
-3.6967721 3.2307153 1.2796361
-3.7087233 3.2221901 1.2839777
-3.6992536 3.2193606 1.2800982
-3.6984398 3.2177596 1.2926331
-3.7027388 3.1987214 1.2845443
-3.7090805 3.1932745 1.2895292
-3.7147815 3.1914749 1.2816511
-3.7165818 3.1864254 1.2780554
-3.7284737 3.1849818 1.2880334
-3.7381136 3.1823134 1.2823023
-3.7293098 3.1650004 1.276652
-3.7506447 3.1602175 1.2876523
-3.7476308 3.169378 1.2810049
-3.7484891 3.1638186 1.2779448
-3.7568052 3.1584196 1.281041
-3.7532027 3.1511312 1.2838907
-3.7646079 3.1425862 1.2901479
-3.7638838 3.1366787 1.2765688
-3.7667482 3.1233096 1.2867653
-3.7796271 3.1247232 1.279519
-3.77823 3.1193566 1.2801914
-3.7824755 3.1170633 1.2813187
-3.7957132 3.102185 1.2768503
-3.7955911 3.1108422 1.2920729
-3.7985218 3.0955696 1.2871528
-3.7983487 3.0882788 1.2802064
-3.8153183 3.0939546 1.289984
-3.8060236 3.0847187 1.2791284
-3.8103004 3.0769756 1.2801844
-3.824373 3.0807033 1.287941
-3.8256848 3.0701704 1.2956239
-3.8263166 3.059727 1.2863123
-3.8258135 3.0603733 1.2874275
-3.8297715 3.0454617 1.2825111
-3.8384993 3.0519326 1.2876393
-3.8521397 3.0428815 1.2907997
-3.8527188 3.0411587 1.284965
-3.863513 3.0330212 1.2952296
-3.8651552 3.0248899 1.2830921
-3.8657339 3.0269613 1.2800295
-3.8585482 3.0119894 1.2917871
-3.8636723 3.0006461 1.2784605
-3.8781004 2.9940588 1.2911451
-3.8714056 3.0077596 1.2942891
-3.8896196 2.9969707 1.2892808
-3.8826978 2.9967718 1.2806042
-3.8926082 2.9802172 1.2955936
-3.8883455 2.9770839 1.2878401
-3.7433581 2.8626301 1.3436422
-3.7607942 2.8458951 1.3606359
-3.7612855 2.8405387 1.3480697
-3.7700121 2.834244 1.3495783
-3.7720578 2.8376997 1.3499236
-3.7614117 2.8320205 1.3493996
-3.7676141 2.8322904 1.3435221
-3.7788174 2.8236372 1.3428874
-3.7786899 2.8092217 1.3511451
-3.7835655 2.8032091 1.3617227
-3.7961874 2.7958641 1.3571918
-3.7992859 2.795049 1.3611802
-3.8053834 2.7977011 1.3450722
-3.8040397 2.7955785 1.347935
-3.8011801 2.7753541 1.3595243
-3.8179677 2.7697129 1.350711
-3.8152716 2.7817986 1.3474495
-3.8184457 2.766603 1.3608224
-3.6689801 2.6453798 1.4113592
-3.6643627 2.6534722 1.4148954
-3.6691604 2.6328428 1.4163904
-3.6784821 2.6330075 1.4223797
-3.6838078 2.6309602 1.4163361
-3.6852348 2.6341343 1.4134899
-3.6837916 2.6240385 1.4157451
-3.6907518 2.6210184 1.41769
-3.7065182 2.6045499 1.417057
-3.705539 2.6087554 1.4265703
-3.7111793 2.5930002 1.4102772
-3.7125621 2.5855422 1.427215
-3.7104013 2.5969589 1.4286669
-3.7067382 2.5827196 1.4154323
-3.7170787 2.5868125 1.4253043
-3.7134554 2.5731294 1.4235092
-3.7326713 2.5645335 1.4167825
-3.7296245 2.572614 1.4122049
-3.7246253 2.5485573 1.4163328
-3.7402523 2.5491021 1.4098455
-3.7463584 2.5476215 1.4127874
-3.5923221 2.4428368 1.4797471
-3.5976219 2.4295611 1.4770316
-3.6014626 2.4235418 1.4852762
-3.5985308 2.4307683 1.4828181
-3.60572 2.4251969 1.4918866
-3.6146972 2.4039814 1.4775736
-3.6103942 2.4093771 1.4765604
-3.6106617 2.4033289 1.4767151
-3.6067941 2.4052038 1.482644
-3.6094069 2.384515 1.4923267
-3.6290708 2.3849697 1.4879932
-3.6280541 2.3835053 1.4954098
-3.629746 2.3815742 1.4818375
-3.6231859 2.3659413 1.4805269
-3.6390769 2.3664789 1.4786848
-3.6458924 2.361392 1.4806718
-3.6470137 2.3639536 1.4931037
-3.6491411 2.3495865 1.4845415
-3.6511066 2.3424182 1.4829128
-3.6471362 2.3359616 1.4856585
-3.6534758 2.3331585 1.4939269
-3.6641419 2.3346825 1.4858032
-3.6673841 2.3178182 1.4808257
-3.5044558 2.2103574 1.5515832
-3.5024266 2.2109704 1.5616784
-3.5022328 2.2080498 1.5517777
-3.520045 2.2072833 1.5495342
-3.5254183 2.2076571 1.5580236
-3.5193472 2.1893263 1.5444493
-3.5148976 2.1982198 1.5495278
-3.5276957 2.18402 1.5569171
-3.5322182 2.182394 1.5509486
-3.5248578 2.180758 1.5532386
-3.5424678 2.1655395 1.5536475
-3.5355997 2.1754284 1.5595779
-3.5386295 2.1685822 1.5475011
-3.551553 2.1469882 1.5595747
-3.5467134 2.1430781 1.556944
-3.5533772 2.1482897 1.5609082
-3.5536082 2.1409943 1.558696
-3.548754 2.1439381 1.5472187
-3.5565035 2.1253886 1.5590538
-3.5702145 2.117223 1.5541956
-3.5616286 2.1144633 1.5590663
-3.5726266 2.1215811 1.5587771
-3.5776875 2.1086712 1.5565972
-3.5748181 2.1058331 1.5577829
-3.5798681 2.1108234 1.5600222
-3.5875421 2.0921314 1.5524414
-3.4279683 2.0015941 1.6088237
-3.413744 1.9936956 1.6268396
-3.4309907 1.9810084 1.6112869
-3.4363954 1.9775643 1.6125531
-3.4266515 1.9856532 1.6160485
-3.4320304 1.9656838 1.6116542
-3.4376917 1.9635869 1.6193471
-3.4455261 1.9672853 1.6092031
-3.432168 1.9488529 1.6090544
-3.436564 1.9456588 1.6152231
-3.448534 1.9416674 1.6104563
-3.4504013 1.9346664 1.6225804
-3.454246 1.9331785 1.6268106
-3.4536366 1.9290388 1.6123935
-3.4517543 1.9373891 1.6108662
-3.4663699 1.9231002 1.6141742
-3.465373 1.9258828 1.6201938
-3.4566762 1.923557 1.6147243
-3.458117 1.9173087 1.6156384
-3.4796994 1.9093771 1.6181784
-3.4751065 1.8921815 1.6215507
-3.4752736 1.8958176 1.6227496
-3.4833095 1.8983018 1.6272918
-3.4871089 1.884081 1.6125293
-3.4853184 1.8744216 1.610956
-3.4850483 1.8728188 1.6199361
-3.4814634 1.8748785 1.6165452
-3.491852 1.8682936 1.6156787
-3.4877036 1.8629202 1.6134174
-3.6696053 1.9465111 1.5417956
-3.6621115 1.9291986 1.5441256
-3.6712384 1.9343505 1.5549566
-3.6791589 1.934091 1.55314
-3.6825304 1.9326502 1.5419749
-3.6806569 1.915611 1.5460261
-3.6803496 1.9214463 1.553354
-3.6910551 1.9134638 1.5476246
-3.6851442 1.8976835 1.560197
-3.6800926 1.8886356 1.5522863
-3.6972952 1.8872342 1.5449586
-3.6998258 1.8960196 1.5454491
-3.7000194 1.8783637 1.5562261
-3.6893749 1.8754656 1.5518818
-3.7005396 1.8718677 1.5512387
-3.7028623 1.8728073 1.558702
-3.7011263 1.856711 1.55715
-3.7120552 1.8525592 1.5527688
-3.7087064 1.856961 1.5577639
-3.7127779 1.8490498 1.5588717
-3.7247529 1.8465643 1.5437424
-3.7240481 1.8441689 1.5425663
-3.7228458 1.8241938 1.5489057
-3.730859 1.8174698 1.5575224
-3.7232094 1.8221806 1.5477198
-3.7361958 1.807161 1.5440394
-3.7217114 1.8164622 1.5494486
-3.7287717 1.797412 1.5558959
-3.7402058 1.8042812 1.5519382
-3.7466376 1.7896422 1.545266
-3.7319541 1.7855841 1.5613089
-3.7523928 1.7847793 1.5601604
-3.7540002 1.7877185 1.5442444
-3.7492609 1.7651786 1.5468155
-3.7558975 1.7728152 1.5593121
-3.7523296 1.7699852 1.5420071
-3.7524347 1.7641519 1.5592251
-3.9384105 1.832926 1.4763318
-3.926755 1.833362 1.4918228
-3.9390492 1.8098565 1.4779068
-3.9380078 1.8235174 1.4851685
-3.9409161 1.7992157 1.4768646
-3.9449649 1.7957747 1.4767424
-3.9449222 1.7995343 1.4793264
-3.9423006 1.799111 1.4947964
-3.9471748 1.7847023 1.4926893
-3.9493463 1.7726277 1.4900053
-3.9542918 1.7682965 1.4821924
-3.9558368 1.7781559 1.480318
-3.9618831 1.7582483 1.4804438
-3.9618375 1.7619015 1.4797403
-3.9545226 1.7451583 1.4802476
-3.9755039 1.7468704 1.4828305
-3.9765995 1.7511216 1.4946929
-3.9751034 1.7404833 1.4916556
-3.9781296 1.7274517 1.4797363
-3.9832551 1.7347221 1.4812729
-3.9710569 1.7195125 1.484012
-3.9866636 1.7052158 1.4821478
-3.9841371 1.7073231 1.4859167
-3.9814768 1.7119184 1.4788829
-3.9795125 1.7062633 1.4806534
-3.9970329 1.7020539 1.489687
-3.9919627 1.6791682 1.488526
-3.9950223 1.6801902 1.4822843
-4.0011115 1.6805897 1.4885721
-3.9991119 1.6782596 1.4876947
-3.995568 1.6705159 1.4771754
-4.1838298 1.721223 1.4116442
-4.1794949 1.7249085 1.4200809
-4.1913834 1.713619 1.4186907
-4.1902976 1.706651 1.4172264
-4.1874328 1.7045116 1.417137
-4.1955266 1.709784 1.4197496
-4.184773 1.6943306 1.428975
-4.2002525 1.6951138 1.4241939
-4.1894364 1.6802146 1.42268
-4.1994896 1.6711695 1.4190233
-4.2000537 1.6707177 1.4200003
-4.1998549 1.6569949 1.4105136
-4.2112107 1.6537702 1.4155918
-4.2039485 1.6540095 1.4195592
-4.2181425 1.6394835 1.4272482
-4.2124176 1.6392257 1.4260737
-4.224072 1.6320752 1.4153131
-4.2264929 1.6317903 1.4112065
-4.2136865 1.6246588 1.4180746
-4.2223854 1.6098033 1.4217749
-4.2347331 1.6167047 1.4109038
-4.2260957 1.6061178 1.4121938
-4.2269363 1.6064796 1.4161458
-4.2226911 1.5963997 1.4262273
-4.2344694 1.5944139 1.4276763
-4.2385511 1.5804328 1.414764
-4.2437987 1.577069 1.4206009
-4.2397985 1.573548 1.4120559
-4.4171171 1.6298884 1.355999
-4.4304295 1.6147292 1.3572823
-4.420033 1.6094608 1.3513793
-4.4204984 1.6150604 1.3608049
-4.4196658 1.6020414 1.3565108
-4.4348722 1.5954816 1.3480585
-4.4399881 1.5993489 1.3435452
-4.4436469 1.581332 1.3509786
-4.4402089 1.5802566 1.3609792
-4.4309258 1.5653619 1.3533927
-4.4501786 1.5725414 1.3432838
-4.4391937 1.5686632 1.3442032
-4.4469166 1.5574278 1.3460451
-4.4405336 1.5479639 1.3596803
-4.4447169 1.5415614 1.3464934
-4.4531851 1.5421726 1.3529469
-4.4500971 1.5398788 1.3494707
-4.4515138 1.5161293 1.354184
-4.465488 1.5180115 1.3440311
-4.4694533 1.5113623 1.3451959
-4.4609962 1.5076369 1.3597556
-4.4626393 1.4970646 1.3566558
-4.4633541 1.5009286 1.348542
-4.4622183 1.4933263 1.3571886
-4.6467309 1.542509 1.2793741
-4.6452112 1.52628 1.2946875
-4.6572294 1.5352638 1.2939408
-4.6527143 1.5249468 1.2956809
-4.6634769 1.5227624 1.2855425
-4.6643834 1.4987113 1.2949973
-4.6641159 1.5052069 1.286972
-4.6692796 1.4921405 1.2946225
-4.6775336 1.4804316 1.2923882
-4.673893 1.4719218 1.2888055
-4.6815963 1.4802465 1.2818363
-4.6808186 1.4722189 1.2851483
-4.6847186 1.4542923 1.283957
-4.6693559 1.4629906 1.2789649
-4.6722441 1.4430271 1.2783072
-4.6852617 1.444249 1.2801204
-4.6888151 1.4278212 1.2949541
-4.6803851 1.4283031 1.283249
-4.6842947 1.4225953 1.2863656
-4.6904302 1.4225836 1.287506
-4.7001386 1.4169148 1.2835075
-4.6968074 1.3940609 1.2780204
-4.690155 1.3893349 1.2811489
-4.8857732 1.4350296 1.2132343
-4.8853598 1.4265537 1.2181903
-4.8855944 1.4270608 1.2109188
-4.884006 1.4260058 1.2137727
-4.8875747 1.4153633 1.2236645
-4.8828392 1.402784 1.2144073
-4.8949771 1.4060335 1.2117001
-4.8859653 1.4015291 1.2298884
-4.9009423 1.3823016 1.2117898
-4.9013968 1.371663 1.2155352
-4.8987136 1.3684219 1.2185085
-4.8976488 1.3675865 1.219834
-4.9116182 1.3684989 1.2284975
-4.9128499 1.3529724 1.2229395
-4.9112182 1.3558407 1.2135755
-4.8996849 1.3453987 1.2184712
-4.9173994 1.3247632 1.2134582
-4.9178114 1.3350744 1.2107854
-4.9200253 1.3123338 1.2157322
-4.9203281 1.3110543 1.2168903
-5.0993752 1.3623269 1.1553738
-5.0930071 1.3483436 1.1461633
-5.1053038 1.3422778 1.1447231
-5.1089268 1.3368577 1.154617
-5.0980978 1.3149372 1.1542422
-5.1166229 1.3264084 1.1502912
-5.1102424 1.3020139 1.152573
-5.1088648 1.2990465 1.152037
-5.1101499 1.2956947 1.1556338
-5.1064782 1.2938598 1.1448272
-5.1216388 1.2772872 1.1442094
-5.1120191 1.2689502 1.1567444
-5.1316004 1.2701744 1.150352
-5.1326118 1.269623 1.1456807
-5.1237192 1.2617385 1.1462326
-5.1351914 1.2371565 1.145402
-5.1306043 1.240773 1.1473256
-5.1237259 1.2275747 1.1534333
-5.3210192 1.2582502 1.0970569
-5.31112 1.2507675 1.0922881
-5.3120174 1.2499024 1.0781057
-5.3135219 1.2404245 1.0827476
-5.3224807 1.2331234 1.0957774
-5.317822 1.2265589 1.0954223
-5.3178239 1.2306248 1.0943513
-5.3372636 1.2249464 1.0958695
-5.3375235 1.2055726 1.0881777
-5.3358493 1.1947854 1.0944636
-5.3280568 1.1920487 1.0952421
-5.3303442 1.1809593 1.0959752
-5.3373904 1.1707109 1.0832826
-5.3386083 1.1606854 1.0885541
-5.3351736 1.1634179 1.0939691
-5.3386989 1.152516 1.0802662
-5.3425689 1.1433084 1.0780785
-5.5321226 1.1753374 1.0313776
-5.5355787 1.1695341 1.0190431
-5.5267162 1.1670699 1.0233775
-5.5315566 1.1540526 1.012434
-5.5356073 1.1403923 1.017862
-5.5389147 1.1413199 1.0205045
-5.5349035 1.1426532 1.0205871
-5.5456104 1.129034 1.0308697
-5.5508914 1.1134923 1.0177206
-5.5498638 1.1156728 1.022836
-5.5510139 1.0945047 1.0284644
-5.5525675 1.0915061 1.0160239
-5.5464449 1.0789852 1.0288558
-5.5559764 1.083228 1.0164095
-5.5564413 1.0650131 1.018044
-5.736867 1.1001887 0.96206313
-5.7292881 1.0855727 0.96144742
-5.7416158 1.0818111 0.95496035
-5.7436495 1.0743185 0.96068144
-5.738821 1.0693924 0.95633519
-5.7488661 1.0648448 0.95857507
-5.7532716 1.0602614 0.94557273
-5.7501063 1.0433073 0.94780803
-5.7540979 1.0383173 0.96204668
-5.7505245 1.0343477 0.94583309
-5.7453051 1.0168265 0.95744443
-5.7497697 1.0083963 0.96246558
-5.7548385 1.0091395 0.9517529
-5.7463827 0.98933905 0.96157753
-5.9382458 1.0273306 0.88822168
-5.9484367 1.005 0.88463861
-5.9563761 0.99972022 0.88450807
-5.9573064 0.99905092 0.89546162
-5.9559898 0.97582394 0.88946521
-5.9604225 0.97759306 0.88754135
-5.9610577 0.96599269 0.89614034
-5.9500699 0.95132828 0.88435513
-5.9540491 0.95298415 0.88136119
-5.9487295 0.94447333 0.88661671
-5.9535737 0.93151683 0.8864308
-5.9654756 0.92976844 0.89222777
-5.9609489 0.92146808 0.88106048
-6.1431327 0.94171625 0.83125508
-6.147799 0.93628198 0.8128283
-6.1584496 0.92776734 0.82449198
-6.1510119 0.91995877 0.81287831
-6.1549635 0.90446752 0.81492525
-6.1506882 0.88631493 0.82695496
-6.149395 0.89478821 0.81880248
-6.1628342 0.87971205 0.82602406
-6.1564469 0.87401682 0.81982952
-6.1642509 0.8541196 0.81366873
-6.1632099 0.85988975 0.82798904
-6.1656766 0.84228092 0.82547331
-6.1665573 0.83529663 0.82304281
7.2158642 -4.1163988 0.10261774
7.25422 -4.0580478 0.10009896
7.2801356 -4.0039096 0.10193537
7.3139992 -3.9461548 0.10014166
7.329464 -3.8942869 0.10157116
7.333447 -3.8923178 0.10153782
7.3619666 -3.8344996 0.10110345
7.3640699 -3.8313699 0.10283233
7.2027049 -3.7279894 0.16182961
7.2092409 -3.7254636 0.1660978
7.2253089 -3.7105944 0.16113731
7.2286634 -3.6971865 0.16791539
7.2319708 -3.691334 0.15727082
7.243639 -3.6772308 0.16199782
7.2374635 -3.6625879 0.16944832
7.2472577 -3.6597116 0.15149049
7.2460561 -3.644789 0.16481967
7.2488589 -3.6331213 0.15100262
7.253376 -3.6207106 0.16329922
7.2705898 -3.6269722 0.16806468
7.272058 -3.6023602 0.1576349
7.2685513 -3.5995736 0.15054162
7.2918086 -3.5986457 0.15922213
7.2844076 -3.5712013 0.15191971
7.3017187 -3.5750704 0.16916707
7.3064666 -3.5542693 0.1591903
7.2932425 -3.5397794 0.15402856
7.313333 -3.5475826 0.15041995
7.3195925 -3.5359502 0.16910024
7.3181338 -3.5121713 0.15139017
7.3214269 -3.5119774 0.16815616
7.3342757 -3.5003293 0.15756577
7.3400173 -3.490449 0.15775318
7.334425 -3.4729807 0.1552279
7.3415155 -3.4631979 0.15866959
7.34584 -3.45365 0.15274136
7.3601727 -3.4422946 0.15112515
7.3493295 -3.4358027 0.15152079
7.3548636 -3.4279912 0.153357
7.3590631 -3.406564 0.1687735
7.3655386 -3.406755 0.1541782
7.3687658 -3.3989947 0.16101851
7.3813882 -3.3903759 0.1675199
7.222683 -3.2935183 0.22754961
7.2128291 -3.2933636 0.22084297
7.2264028 -3.2737255 0.23344471
7.2340341 -3.2645805 0.2271554
7.2400355 -3.2510905 0.21710484
7.226418 -3.2368641 0.22460572
7.234623 -3.243221 0.22326739
7.2382302 -3.2278712 0.23146461
7.2472277 -3.2140489 0.21714239
7.263052 -3.2123444 0.22115244
7.2653632 -3.2025704 0.23302701
7.2614036 -3.187252 0.2349959
7.2707233 -3.1829479 0.22653627
7.2726307 -3.155586 0.21714856
7.2682347 -3.1467826 0.23117138
7.2737741 -3.1361423 0.22933485
7.2867999 -3.1418285 0.23104927
7.2984734 -3.1284254 0.21801496
7.2983298 -3.1105275 0.22869815
7.3038497 -3.101295 0.23097473
7.2933655 -3.0942264 0.232908
7.3147416 -3.0755785 0.22003596
7.3180723 -3.0720575 0.22133829
7.3129296 -3.0710621 0.21986648
7.3183846 -3.0588815 0.21705577
7.3178482 -3.0455663 0.23473704
7.3354611 -3.0236156 0.21657741
7.334774 -3.0143678 0.22166048
7.3410382 -3.0096254 0.23447454
7.3379717 -3.0037112 0.22634822
7.3371673 -2.9926147 0.23511152
7.5330272 -3.0556669 0.1660516
7.5213547 -3.0482442 0.15660778
7.5309696 -3.0302556 0.15796235
7.5390983 -3.0110884 0.16129452
7.5444016 -3.0167203 0.16773295
7.5473714 -3.0089874 0.1659072
5.8324499 2.2770038 0.87460232
5.8354173 2.266495 0.87417006
5.8244338 2.2834563 0.86899471
5.8304877 2.28795 0.87391108
5.8097429 2.2976573 0.87028819
5.8137183 2.3059447 0.87120897
5.8035817 2.3192182 0.8738873
5.8085513 2.3290226 0.86787683
5.8037257 2.3320537 0.86040896
5.803391 2.3398826 0.87193298
5.8051319 2.340096 0.87145621
5.7983437 2.36643 0.87234646
5.7911124 2.3649449 0.86207819
5.7786942 2.3726895 0.8681882
5.7911811 2.3828762 0.87589449
5.7800341 2.3802364 0.86378169
5.7697964 2.3906696 0.87684035
5.6075258 2.3367181 0.93651146
5.5940351 2.3335044 0.92621523
5.5930653 2.3532002 0.93565941
5.5836091 2.3578913 0.93723303
5.5936651 2.3590605 0.93706137
5.5846004 2.3762758 0.92732972
5.5852566 2.3843617 0.93727231
5.5720119 2.3882344 0.92933607
5.5664625 2.4042711 0.93069899
5.56879 2.3933926 0.93443877
5.5641646 2.4182773 0.92875051
5.5542946 2.4129143 0.93204564
5.5541172 2.4298363 0.92723769
5.5633731 2.4405668 0.93932682
5.5541921 2.4446294 0.92479575
5.5448284 2.442914 0.93969506
5.5457225 2.4651525 0.93489987
5.3636198 2.380754 0.99110717
5.3666058 2.3905852 0.99067467
5.370944 2.406074 0.99159724
5.3590121 2.4002788 0.98964268
5.3613811 2.4079654 0.99456817
5.3470349 2.4188375 0.98866326
5.3478703 2.4423392 1.0057412
5.3407845 2.4400442 0.99913871
5.3391571 2.4517808 1.0030828
5.3324189 2.4478173 1.0015318
5.3408747 2.4580965 1.0045547
5.3406224 2.4746819 0.98992634
5.3399267 2.4789367 1.0033088
5.3201437 2.4946001 1.0034229
5.3183956 2.4959843 1.0037549
5.3215623 2.5063841 1.0074953
5.3188143 2.5009918 1.0072781
5.3131337 2.5118966 0.99731165
5.3008399 2.5245669 0.99163216
5.1416473 2.4526417 1.0594498
5.1318398 2.4536088 1.065201
5.1250453 2.4577477 1.0601022
5.1236124 2.4646263 1.0718275
5.1155519 2.4751666 1.0717905
5.1275959 2.4874141 1.0657166
5.1199617 2.4862947 1.0626267
5.1160579 2.5059032 1.0667331
5.111927 2.5033176 1.054338
5.0978198 2.5119355 1.0672116
5.0980229 2.5157006 1.0620245
5.1011286 2.5330622 1.0706512
5.0899754 2.5270431 1.0562683
5.0937138 2.543015 1.0616202
5.0891671 2.5543604 1.0703735
5.0845737 2.561193 1.0642405
5.0738964 2.5638452 1.0698587
5.0801196 2.566057 1.067961
5.0704393 2.5676115 1.056358
5.0683537 2.5785422 1.066258
5.0591321 2.5931697 1.0728133
4.8963366 2.5081716 1.1345307
4.890655 2.5215328 1.1182235
4.8905816 2.5221553 1.1307933
4.8758502 2.5217645 1.1276181
4.869863 2.5403233 1.1241902
4.8777332 2.5517578 1.1363342
4.871212 2.552978 1.1236148
4.8627834 2.5680907 1.1253796
4.8627424 2.5647001 1.1310098
4.852592 2.5756805 1.124207
4.8489876 2.5758443 1.1315851
4.862186 2.5938184 1.1255091
4.8590674 2.5952196 1.1332453
4.8485088 2.6054003 1.1337854
4.8347659 2.6131134 1.1260835
4.8375859 2.6122258 1.1230206
4.8325405 2.628356 1.1343874
4.8347659 2.619606 1.134081
4.818747 2.6343729 1.1236035
4.8283486 2.6425567 1.1373305
4.8311381 2.6507127 1.1244506
4.8212967 2.6556528 1.122779
4.8053694 2.6610701 1.1357479
4.6516476 2.5679379 1.1970472
4.6441059 2.5760422 1.1944035
4.6288538 2.5905902 1.1841267
4.6305294 2.6037261 1.1832395
4.6235628 2.6027303 1.1868669
4.636281 2.6093676 1.1985308
4.6185126 2.6092682 1.1916534
4.6144624 2.6156292 1.1862118
4.6175232 2.6358287 1.1989955
4.6189032 2.623791 1.1904866
4.6132431 2.6472518 1.1937368
4.6039681 2.6467516 1.1986229
4.5920405 2.6545882 1.1915936
4.5898271 2.6676989 1.1912417
4.5867176 2.6574504 1.1834408
4.5872264 2.6635363 1.1958287
4.57939 2.6754789 1.201674
4.5846677 2.6870058 1.1874421
4.5844946 2.6852365 1.1869767
4.5770965 2.6884992 1.1880455
4.5811806 2.7097635 1.1861523
4.5685058 2.7054229 1.1973412
4.560708 2.7128334 1.189954
4.5658727 2.7217185 1.1892701
4.5506763 2.7311912 1.1919353
4.5476699 2.7248783 1.1942893
4.3949547 2.6369011 1.2670996
4.3903003 2.6552417 1.2601444
4.3714056 2.6571424 1.2650383
4.3720369 2.6553862 1.2668188
4.3737283 2.6614647 1.2634923
4.3735185 2.6786277 1.2494595
4.3644886 2.6717615 1.2564766
4.3680634 2.6938372 1.2660238
4.3509455 2.6845021 1.2586935
4.3564844 2.6959558 1.2587055
4.3443689 2.7005861 1.2619442
4.3401499 2.7042382 1.2574157
4.3489671 2.7126803 1.2486849
4.34267 2.7254469 1.2521006
4.3381443 2.7236068 1.2555023
4.3302846 2.7252669 1.24998
4.328383 2.7416158 1.2515094
4.3134904 2.7452667 1.2490376
4.3281364 2.7555354 1.2511593
4.3154435 2.7550874 1.2586684
4.3027549 2.7662761 1.2647467
4.3132958 2.7770069 1.2484213
4.2993002 2.7803245 1.2544873
4.2965655 2.7811222 1.2672746
4.2972383 2.7811811 1.2521818
4.3013039 2.7971747 1.2527143
4.2798395 2.7950699 1.2635664
4.2798958 2.8018839 1.2520454
4.277472 2.807164 1.2647743
4.1191545 2.7195554 1.3159471
4.1064901 2.7268982 1.3273953
4.1198964 2.7286274 1.3235716
4.0969691 2.7402148 1.317068
4.1000996 2.7329292 1.3253704
4.0960097 2.7501867 1.3277453
4.0968189 2.7553887 1.3201326
4.0981526 2.7630131 1.3244394
4.0903306 2.7545891 1.3295902
4.0909796 2.7676451 1.3140562
4.0843492 2.7643025 1.3289785
4.0839787 2.7720709 1.3255105
4.0750484 2.7770281 1.3180437
4.0622864 2.7828488 1.3164415
4.0630126 2.795599 1.3218365
4.0520334 2.8080659 1.3187767
4.0634217 2.8051567 1.3152122
4.0471892 2.807404 1.3135707
4.0552554 2.82566 1.3178091
4.0484643 2.8284035 1.3294127
4.0461321 2.8283634 1.3319886
4.0387139 2.8318071 1.3166527
4.0278196 2.8301828 1.3205994
4.0294509 2.8396666 1.3246976
4.0294724 2.853755 1.3158823
4.0148807 2.8607504 1.3138757
4.0172215 2.863028 1.3233072
4.0159898 2.8729746 1.3293384
4.0131092 2.8748975 1.3279837
4.0144591 2.8739469 1.323736
4.0074048 2.8745892 1.3138171
4.0029182 2.8917465 1.3217164
3.8498852 2.7909732 1.3872768
3.8341491 2.7865441 1.3918009
3.822504 2.7860932 1.3848046
3.8220363 2.7950156 1.3792005
3.8195543 2.8102512 1.3902758
3.8264964 2.8082359 1.3857057
3.8194621 2.807328 1.3774714
3.8110659 2.8117659 1.3827057
3.8184144 2.8331532 1.3830065
3.7958369 2.8340659 1.3948946
3.801151 2.8391676 1.3914229
3.7871127 2.8524055 1.3781772
3.7975912 2.8578777 1.379141
3.7810662 2.8467689 1.3836931
3.7789295 2.8570724 1.3781523
3.7878609 2.8582196 1.385273
3.7722147 2.8762419 1.386168
3.768327 2.8697844 1.3861887
3.769666 2.8745995 1.3822899
3.7712986 2.8807683 1.3940023
3.764812 2.8961899 1.3855208
3.7548466 2.9015193 1.384987
3.7516279 2.9012809 1.3846405
3.7493658 2.908478 1.387906
3.7516484 2.9175067 1.3962013
3.748383 2.9194422 1.3803757
3.7322311 2.9297147 1.3973099
3.7369668 2.9200895 1.3825295
3.7217159 2.935801 1.3873129
3.7225592 2.93715 1.3930191
3.7151077 2.9360244 1.3889067
3.7191672 2.9489529 1.3848894
3.7026858 2.9626896 1.3954043
3.7058506 2.9581983 1.3878933
3.7122738 2.9600308 1.3841932
3.706985 2.9626467 1.3972167
3.6858635 2.9731662 1.3953061
3.5544009 2.8537443 1.4434752
3.5355847 2.8616769 1.4572554
3.5415449 2.8745306 1.4471952
3.5332046 2.8840179 1.450826
3.520745 2.8816571 1.4622074
3.5242612 2.8869143 1.4621533
3.5182858 2.8794432 1.4524413
3.5247922 2.902509 1.4594012
3.5075917 2.9044073 1.4438221
3.5034077 2.9093125 1.4536135
3.4973066 2.9141583 1.4575802
3.4944623 2.904165 1.4445474
3.5053914 2.9241154 1.4594419
3.4862533 2.9197159 1.4589027
3.4907393 2.9268544 1.4510872
3.4865999 2.9415131 1.4436194
3.4823997 2.934207 1.4437761
3.4684806 2.9374254 1.4621003
3.4815149 2.9474678 1.4574298
3.4589632 2.9573579 1.4527771
3.4661963 2.9651852 1.4480888
3.4573891 2.9542134 1.4485309
3.4555426 2.9582222 1.4440533
3.4485838 2.9671519 1.4503114
3.4410791 2.984633 1.4588491
3.4457521 2.9820468 1.4571919
3.4429507 2.9793396 1.4433813
3.4402993 2.986799 1.447947
3.4359655 2.991385 1.4577192
3.4269545 2.9975188 1.452551
3.4132841 3.0149913 1.4503855
3.4149184 3.0077696 1.4524288
3.4169886 3.0228207 1.453668
3.4145744 3.015039 1.4590294
3.3984118 3.0238855 1.4570701
3.4107802 3.0215445 1.4477289
3.4014847 3.0405483 1.4508903
3.3983722 3.0410535 1.4567267
3.3798187 3.0413842 1.4423708
3.3910308 3.0568702 1.4493759
3.3770683 3.0428586 1.4490868
3.3809333 3.054661 1.4568149
3.3668354 3.0527198 1.454839
3.37397 3.072557 1.4603322
3.2267594 2.9528725 1.5148338
3.2174613 2.9571259 1.5173514
3.2188158 2.9562964 1.5141412
3.2033253 2.956574 1.5267103
3.213665 2.9625242 1.5148906
3.2096426 2.9639187 1.5138427
3.1926191 2.97559 1.5140754
3.1953003 2.9753721 1.5214083
3.1857035 2.9853084 1.5221038
3.1941245 2.9866383 1.5179462
3.1880324 2.9847231 1.5169783
3.1715302 2.9976032 1.5157803
3.1775398 2.9959378 1.5092753
3.1603327 3.002888 1.518576
3.1556888 3.0042903 1.5093606
3.1592185 3.0057888 1.5170795
3.1616948 3.0143886 1.5120149
3.1443973 3.0098007 1.5222836
3.1544268 3.0197527 1.5180457
3.1451454 3.0222695 1.5107002
3.1317005 3.0228434 1.5170079
3.1372817 3.0310712 1.5117704
3.1216586 3.0494702 1.5204474
3.1195245 3.0548303 1.5116607
3.1266849 3.0597205 1.519868
3.124624 3.052321 1.5251715
3.1102757 3.0515842 1.5146784
3.110857 3.0577424 1.5152065
3.101701 3.0581288 1.521302
3.1083009 3.0734389 1.5255351
3.0875492 3.079515 1.5259693
3.0930994 3.0753891 1.5102642
3.093406 3.0798635 1.5085967
3.0823834 3.0864327 1.507934
3.0825684 3.0843978 1.5078121
3.0709546 3.1045432 1.5159472
3.0646384 3.0945878 1.5190079
3.0678229 3.109467 1.5238954
3.0715299 3.1194496 1.5248436
3.061326 3.1202974 1.5167822
3.0553496 3.1246653 1.510483
3.0498013 3.1188607 1.5157504
3.048542 3.1176462 1.5211902
3.1774042 3.2654097 1.4439981
3.1736133 3.2621264 1.4453868
3.1696942 3.2715306 1.442637
3.1539044 3.2789259 1.445654
3.1611691 3.293819 1.4592787
3.1533148 3.2967377 1.4586202
3.1464028 3.2937777 1.4545499
3.1314232 3.2891724 1.4505938
3.1301384 3.3033557 1.4565858
3.134115 3.3006222 1.4571217
3.1235251 3.3193049 1.445475
3.1206427 3.3187408 1.4461318
3.1191428 3.3188083 1.451786
3.114887 3.3276424 1.460435
3.1136422 3.3283036 1.4595829
3.1060162 3.3256795 1.457262
3.0977254 3.3407183 1.4475999
3.2138953 3.4841588 1.3840519
3.2173724 3.4922805 1.3952241
3.206835 3.4889717 1.3793008
3.2168276 3.4996719 1.3777047
3.1951671 3.4920948 1.3911953
3.1941569 3.5076287 1.3804107
3.1987951 3.5035241 1.3941236
3.192076 3.5027981 1.3841678
3.1844985 3.5190749 1.3872646
3.1745939 3.5116963 1.3810833
3.1750209 3.5165923 1.3952316
3.1767993 3.5298064 1.3930185
3.1697438 3.5373306 1.38302
3.166759 3.5397007 1.3792522
3.1621718 3.5452704 1.3834442
3.2766709 3.6961579 1.3138084
3.2745798 3.6952693 1.3205243
3.2661953 3.6925399 1.3220716
3.2678485 3.7071173 1.3154601
3.2525923 3.696681 1.3170413
3.2511485 3.7115684 1.3190963
3.2438467 3.7131371 1.3299502
3.2343254 3.7125595 1.32392
3.2347994 3.7339122 1.3158588
3.2314992 3.735599 1.3289727
3.2323847 3.7311106 1.3271246
3.2285337 3.7296622 1.319832
3.2113924 3.744967 1.325261
3.2157919 3.7470689 1.3207259
3.193574 3.7590649 1.32122
3.1929307 3.7547734 1.3320743
3.1943364 3.7683432 1.3199773
3.18659 3.7575607 1.3227899
3.172807 3.7724278 1.3224496
3.1709566 3.7691762 1.3192978
3.1622138 3.7719982 1.3271664
3.1716168 3.7761636 1.3291031
3.1537211 3.788388 1.3218678
3.1612484 3.7902191 1.3322653
3.1442344 3.7950447 1.3301967
3.1477082 3.8044467 1.3193821
3.1420302 3.8004797 1.3176899
3.1442494 3.8139975 1.3207752
3.1292748 3.8189702 1.3142946
3.133954 3.8073366 1.3201371
3.1154752 3.8122101 1.3243837
3.1048591 3.8317432 1.3283848
3.1161735 3.8386428 1.320207
3.1002467 3.8383384 1.329464
3.0947111 3.8462944 1.3191582
3.087101 3.8430052 1.3138729
3.0886705 3.839325 1.3202468
3.0885415 3.8431568 1.3157721
3.071492 3.8573132 1.331911
3.067956 3.8614538 1.3320644
3.0702565 3.8724267 1.3127474
3.0567975 3.8781009 1.3286264
3.0473337 3.8804128 1.3270758
3.0496862 3.8721271 1.3208988
3.0412896 3.8836412 1.3183633
3.0425816 3.8928869 1.3282317
3.0385823 3.8890491 1.3301202
3.0209508 3.8904357 1.3315487
3.0188389 3.9001322 1.3228488
3.0128601 3.9116578 1.3140125
3.0070286 3.9108553 1.3318796
3.0018742 3.9019709 1.3311588
2.9925933 3.9090059 1.3284951
3.0017557 3.9237823 1.3132991
2.9847353 3.9155574 1.3253776
2.9851737 3.9340253 1.3224697
2.9754746 3.9339006 1.3314998
2.9676585 3.9415572 1.3176998
2.9612648 3.9325204 1.3293869
2.9661655 3.942929 1.3283981
2.9622242 3.9529366 1.3224126
2.9561443 3.9432259 1.3233564
2.9493377 3.949676 1.3271562
2.939862 3.9507365 1.3215613
2.9351842 3.9602304 1.323578
2.9225795 3.9756217 1.3199065
2.9270611 3.9667792 1.3319619
2.9205673 3.9755914 1.3275331
2.9202676 3.9834867 1.3299346
2.9116495 3.981765 1.3186193
2.9020367 3.9815905 1.3131938
2.8864331 4.0008297 1.3139476
2.8917673 3.9987621 1.3170493
2.8808959 3.9927242 1.3171167
2.884424 4.0075197 1.3225908
2.8699632 4.0152273 1.3193772
2.8718252 4.0129385 1.3232493
2.8657372 4.0096846 1.33187
2.8552146 4.0116644 1.3243297
2.8470883 4.0305653 1.3310196
2.847641 4.0253992 1.3134944
2.8427625 4.03018 1.3311756
2.8386326 4.0458512 1.3227642
2.8375986 4.0362129 1.3242975
2.8166265 4.0356703 1.3166168
2.8211234 4.0462399 1.3126417
2.8024008 4.0442505 1.3223844
2.8075452 4.0617571 1.3248866
2.8013046 4.0543308 1.3253903
2.7875185 4.064374 1.3208247
2.7804167 4.0605702 1.3271302
2.7757845 4.0774946 1.3142616
2.7688277 4.075901 1.313117
2.7734544 4.0788908 1.3183953
2.759609 4.0865316 1.3191997
2.7580774 4.0842972 1.3266504
2.7525654 4.0889745 1.3281959
2.7567906 4.1044354 1.3233405
2.7435129 4.0993004 1.3271592
2.7307334 4.1060295 1.3171289
2.7333832 4.1113119 1.3194109
2.722333 4.1176233 1.3147415
2.7184088 4.1226449 1.3246101
2.7133348 4.1179643 1.3136083
2.7135339 4.1251154 1.326395
2.6945319 4.1164179 1.3131032
2.7029757 4.1278958 1.3206522
2.6929595 4.1292925 1.3198336
2.6780829 4.1431098 1.3300595
2.6870198 4.1498518 1.3232019
2.665921 4.1449523 1.3178226
2.6670992 4.1547174 1.3149582
2.6636026 4.1462779 1.3133265
2.6499696 4.1584897 1.3232336
2.6453295 4.156631 1.3165196
2.653471 4.1615057 1.3173432
2.6483157 4.1605649 1.3258885
2.6307042 4.175354 1.332082
2.6322689 4.1810179 1.3283523
2.6240544 4.181375 1.3276321
2.6089773 4.1863952 1.3182882
2.6085157 4.17836 1.314993
2.6051848 4.1926007 1.3195504
2.6002169 4.1989856 1.3126192
2.5851512 4.1865125 1.3201373
2.5833666 4.2079682 1.3288461
2.5824003 4.2100616 1.3129383
2.5699744 4.2003412 1.3281521
2.5637372 4.2179885 1.3253701
2.573765 4.2132292 1.3192936
2.5630679 4.2192059 1.3145938
2.5430217 4.2305388 1.3182237
2.5396755 4.2243643 1.3124671
2.5408816 4.2190499 1.3294761
2.5351517 4.224503 1.3304013
2.5369349 4.2340097 1.3291799
2.527422 4.228394 1.3264571
2.5219963 4.2362003 1.3304276
2.5117798 4.2436228 1.3284671
2.498776 4.2469316 1.3181773
2.499691 4.2454062 1.3303024
2.4959016 4.2497029 1.330207
2.4957371 4.2565269 1.3203915
2.4898112 4.2704349 1.3217247
2.4808896 4.2644958 1.3249822
2.472888 4.2662282 1.3142258
2.4636605 4.2643404 1.3143409
2.4517055 4.2829247 1.3187584
2.443716 4.277195 1.3271023
2.4537613 4.284369 1.3152671
2.4335122 4.2783704 1.3184271
2.4253833 4.2944999 1.3224128
2.4371545 4.2963867 1.3297592
2.4191053 4.2982745 1.3275591
2.4223845 4.2971721 1.3159738
2.4089167 4.2940049 1.3226826
2.4046876 4.3075514 1.3240739
2.4005692 4.3150887 1.320628
2.4008636 4.3205876 1.3280394
2.389497 4.3220873 1.3192202
2.3862908 4.3292985 1.3210061
2.36624 4.3143454 1.315533
2.3701701 4.3171334 1.328567
2.3614423 4.3278465 1.3201174
2.3505096 4.3278179 1.3272023
2.3479872 4.3403058 1.3277655
2.3521688 4.3345528 1.3185287
2.3377373 4.3506746 1.3134913
2.3398552 4.3530884 1.3306233
2.418431 4.5170431 1.2610283
2.3988991 4.5170178 1.260237
2.4011483 4.5229535 1.2611884
2.3979199 4.5188351 1.2616317
2.3877208 4.5320091 1.2495008
2.3890674 4.5402756 1.2540623
2.3774943 4.5320497 1.2478406
2.4538953 4.7018065 1.1876982
2.4534049 4.7155256 1.1853293
2.4478726 4.7174053 1.2021289
2.4394674 4.7148576 1.1927413
2.426368 4.7190633 1.199976
2.5187147 4.9001813 1.1248968
2.5055306 4.8961124 1.1272694
2.4927852 4.908143 1.11949
2.4879041 4.9078236 1.13666
2.4875796 4.9022393 1.1222951
2.4810286 4.911953 1.1266202
2.5640643 5.0768175 1.0563459
2.5396616 5.0937347 1.0694532
2.5320535 5.0888076 1.0566186
2.535053 5.0973463 1.064604
2.5252821 5.0985594 1.0619581
-3.128417 4.0282145 1.2664721
-3.144506 4.0292306 1.2648227
-3.1483681 4.0321875 1.2593858
-3.1550543 4.0216465 1.2649058
-3.1560991 4.0113859 1.2566904
-3.1528127 4.0061688 1.2608105
-3.1748888 4.0036263 1.2582995
-3.1638515 4.0005584 1.2673227
-3.0675266 3.8598068 1.3262616
-3.0611198 3.8443117 1.3179901
-3.077353 3.8359642 1.3210496
-3.0837824 3.8371372 1.3295193
-3.0918553 3.8400517 1.3253479
-3.0853593 3.821877 1.3150454
-3.0933371 3.8282485 1.3188998
-3.089524 3.8234916 1.3219626
-3.1015851 3.822237 1.3269163
-3.1161511 3.8175924 1.3132429
-3.1216877 3.8167229 1.3310368
-3.1131847 3.8076141 1.317627
-3.1329472 3.8076203 1.3201687
-3.1296442 3.7865386 1.3281902
-3.1378653 3.7827199 1.3234398
-3.1502516 3.7907274 1.3248363
-3.1529343 3.7760808 1.3169333
-3.1517565 3.770565 1.3286095
-3.1475096 3.7782998 1.323375
-3.1583028 3.7767746 1.317847
-3.1627634 3.7550123 1.3158082
-3.1694238 3.7670465 1.3290266
-3.169488 3.7646055 1.3266245
-3.1870039 3.7507489 1.3275214
-3.1964924 3.7539465 1.3289881
-3.1907248 3.7500272 1.3228575
-3.2035546 3.728688 1.3264834
-3.2042813 3.7337832 1.3290037
-3.2133253 3.7283762 1.3236765
-3.2075977 3.7174206 1.3212489
-3.2273917 3.7272427 1.3214911
-3.2292182 3.7156365 1.3182071
-3.2378201 3.7091923 1.3169292
-3.2288177 3.7104516 1.3262489
-3.2389121 3.7074363 1.3232279
-3.2475336 3.6953955 1.3207561
-3.2422791 3.6957262 1.321421
-3.2533925 3.6805251 1.3316647
-3.2619791 3.6814685 1.3209919
-3.2558868 3.6733217 1.3238612
-3.2722154 3.6705573 1.3210577
-3.2682955 3.6711357 1.3311604
-3.2876532 3.6682758 1.3193383
-3.2882824 3.6595757 1.3133025
-3.2995853 3.6659319 1.3287851
-3.2939031 3.6488113 1.3167682
-3.3106863 3.6420832 1.3296303
-3.306798 3.6493735 1.3318467
-3.3126595 3.6332028 1.3195691
-3.3091872 3.6282434 1.3237149
-3.3228393 3.6320682 1.3296729
-3.3192883 3.6249189 1.3207937
-3.325628 3.6235123 1.313646
-3.3437834 3.6065698 1.3223963
-3.3479681 3.6034114 1.3221084
-3.3566635 3.611016 1.3293124
-3.3573694 3.6069119 1.3144082
-3.3652067 3.5917637 1.3314213
-3.370821 3.5958157 1.3168973
-3.3687065 3.5883946 1.3220551
-3.3624394 3.5723701 1.3156855
-3.3702075 3.5849383 1.3268219
-3.3868484 3.5762022 1.3212137
-3.3906305 3.5743396 1.3233322
-3.3856556 3.5533149 1.3269686
-3.4009621 3.5486104 1.3228928
-3.4090579 3.5482094 1.3194029
-3.412051 3.5449741 1.3254623
-3.4180245 3.5411205 1.3202777
-3.4185154 3.5443714 1.3323833
-3.413842 3.5388725 1.3131824
-3.4355311 3.5305817 1.3312747
-3.4260774 3.5306201 1.3253633
-3.442225 3.5118396 1.3223282
-3.4362473 3.5229909 1.3230144
-3.4466269 3.5037858 1.3237489
-3.4410753 3.5014286 1.3288424
-3.4590068 3.5010149 1.3154671
-3.4508722 3.499558 1.3230119
-3.4679153 3.4825335 1.3185879
-3.4728463 3.4950995 1.3134525
-3.4769714 3.4908867 1.3248206
-3.4829972 3.4810309 1.3210281
-3.4749277 3.4799242 1.3232633
-3.4898863 3.4696853 1.3214644
-3.5041521 3.4539504 1.3252821
-3.4976764 3.4486434 1.331571
-3.5061004 3.4502752 1.3222815
