# .PCD v0.7 - Point Cloud Data file format
VERSION 0.7
FIELDS x y z
SIZE 4 4 4
TYPE F F F
COUNT 1 1 1
WIDTH 1511
HEIGHT 1
VIEWPOINT 0 0 0 1 0 0 0
POINTS 1511
DATA ascii
-3.0966735 -4.7815886 1.9962035
-3.0982292 -4.7882161 1.9916245
-3.0743701 -4.7863111 1.9865937
-3.0795443 -4.7959557 1.9820663
-3.0792644 -4.7915196 1.9912804
-3.0640509 -4.8116064 1.9969541
-3.0619576 -4.8094125 1.9836439
-3.0443146 -4.8016267 1.9981214
-3.0515277 -4.8046274 1.9820085
-3.0266936 -4.8221197 1.9984123
-3.0294614 -4.8162684 1.9868743
-3.0250502 -4.8186545 1.9930418
-3.0252118 -4.8238692 1.9854381
-3.0103984 -4.8409519 1.9925041
-3.0001066 -4.8444543 1.9883115
-3.0005946 -4.8394485 1.9883276
-2.9954033 -4.8390613 1.9948239
-2.9835162 -4.8477488 1.9933829
-2.9771459 -4.8503728 1.9932088
-2.9668827 -4.8548923 1.9798002
-2.9602098 -4.8689146 1.9964917
-2.9450691 -4.8652673 1.9950362
-2.9437551 -4.8685288 1.9925959
-2.9500391 -4.8837304 1.9972932
-2.9292512 -4.8753986 1.9826994
-2.9326503 -4.89432 1.9973124
-2.9160273 -4.8948212 1.9965048
-2.9129026 -4.8902116 1.9911923
-2.9112129 -4.906014 1.9874288
-2.909692 -4.8983412 1.9833095
-2.9015737 -4.91079 1.9893216
-2.8767586 -4.9148974 1.9831257
-2.8733928 -4.9044967 1.9978032
-2.872462 -4.9271913 1.981405
-2.8668282 -4.915915 1.9974544
-2.8557827 -4.9348602 1.9786886
-2.8501186 -4.9240117 1.983519
-2.8452566 -4.936872 1.9970462
-2.8457012 -4.9348831 1.9788491
-2.8299041 -4.9382186 1.9923927
-2.8182206 -4.9402871 1.9975464
-2.8205194 -4.9443974 1.9826416
-2.8090088 -4.9520044 1.9821771
-2.8028152 -4.965549 1.983048
-2.793014 -4.9603338 1.9792156
-2.7871583 -4.970952 1.9804482
-2.7800627 -4.9627914 1.9965309
-2.7681315 -4.9766588 1.9837443
-2.7626674 -4.9778676 1.9969286
-2.7553952 -4.9901805 1.9907495
-2.7545738 -4.9777174 1.9864644
-2.7485936 -4.9944658 1.9820218
-4.732738 -3.5258195 1.9871038
-4.7301569 -3.5323932 1.9869627
-4.7283478 -3.5395513 1.9970198
-4.7131615 -3.5290577 1.9906738
-4.7098713 -3.5545518 1.988866
-4.7091918 -3.5615644 2.0020995
-4.7006607 -3.5530818 1.9923871
-4.7092972 -3.5657353 1.9909259
-4.6924586 -3.5706916 2.0022893
-4.6989069 -3.5804722 1.9962598
-4.6863785 -3.5941501 1.9991701
-4.6807642 -3.5901713 2.0021291
-4.6752815 -3.5893173 2.0045455
-4.6797328 -3.5982199 2.0040643
-4.6705208 -3.6087844 2.0046909
-4.6631079 -3.623631 2.0048997
-4.6624517 -3.6149168 2.0001791
-4.6514997 -3.6398189 1.9893857
-4.6419992 -3.6328714 2.00021
-4.6411266 -3.6373701 1.987821
-4.6262741 -3.6543477 1.9883139
-4.6285024 -3.6507273 1.9993386
-4.6277628 -3.6666496 1.9977632
-4.6245975 -3.6720581 1.9938244
-4.6219044 -3.6732984 2.0058527
-4.6185756 -3.6921782 1.9895597
-4.5950294 -3.6954644 1.9884982
-4.5961943 -3.6928689 1.9890455
-4.5881438 -3.7058532 2.0030439
-4.5892601 -3.703054 1.9990399
-4.582756 -3.7105005 2.0045478
-4.5757508 -3.7252827 2.0001583
-4.5777116 -3.7244413 2.0063217
-4.5612388 -3.7255602 1.9935443
-4.568696 -3.74912 2.0059876
-4.564116 -3.7544947 2.0060043
-4.55582 -3.7614751 1.9891815
-4.5485764 -3.754782 2.0013933
-4.5407767 -3.7652082 1.9870526
-4.53897 -3.7619302 2.0019357
-4.5411587 -3.7773366 1.9957899
-4.5178299 -3.7909346 2.0012722
-4.5188823 -3.7916994 1.9939985
-4.5137625 -3.8012064 1.9920019
-4.501411 -3.8033946 1.9928336
-4.4966073 -3.8062353 1.9946717
-4.4917779 -3.8260219 1.995903
-4.5037632 -3.8238156 1.990194
-4.4835277 -3.8190691 2.0004175
-4.4776239 -3.8377843 2.0002708
-4.4768281 -3.8439648 1.991062
-4.4821696 -3.852103 1.9945922
-4.4620204 -3.8465881 2.0036869
-4.4691358 -3.8612568 1.9895968
-4.4582391 -3.8688867 1.9996332
-4.4465017 -3.8770342 1.993136
-4.4529181 -3.8856826 1.9931521
-4.4380941 -3.8916547 2.0016668
-4.4289708 -3.8827388 2.0012128
-4.429615 -3.8932755 1.9883211
-4.430397 -3.9083819 1.9955186
-4.4203796 -3.9142034 2.0008404
-4.4068236 -3.9252582 1.9979318
-4.4041638 -3.9288194 1.9866018
-4.3955855 -3.9268839 1.9938819
-4.3969622 -3.9386201 1.9992466
-4.3848276 -3.9421899 2.0021877
-4.3926682 -3.9563618 2.0053737
-4.3719859 -3.9468448 2.003685
-4.3717489 -3.9634154 1.9976616
-4.3643951 -3.9662204 2.0027258
-4.3698349 -3.9644682 1.9881555
-4.3499451 -3.9746292 1.9887092
-4.3529544 -3.9876082 1.9918731
-4.3472857 -3.9974954 2.0031362
-4.3343287 -3.9942546 1.9888189
-4.3359981 -4.0043826 1.9970802
-4.3347182 -4.0078635 1.9973103
-4.3302436 -4.0161824 1.9931902
-4.3274493 -4.0097942 1.9986247
-4.3106699 -4.0215893 1.9873717
-4.3088179 -4.0243711 2.0039804
-4.301528 -4.0328178 1.9965299
-4.2936759 -4.0498376 2.0021946
-4.2826514 -4.0467601 2.0040586
-4.2803555 -4.0563059 1.995242
-4.2723684 -4.0531096 2.0023682
-4.2761116 -4.0742311 1.9920764
-4.2596169 -4.0764832 1.9995204
-4.2672334 -4.0815558 1.9994004
-4.2494073 -4.0954714 1.9935242
-4.242826 -4.0931654 1.9908979
-4.2396274 -4.0892096 2.0058486
-4.2438712 -4.1030488 1.9897956
-4.2424417 -4.1115203 2.0028276
-4.2191401 -4.1233602 1.992314
-4.224647 -4.112886 1.9909884
-4.2230196 -4.1318359 1.9945257
-4.2116752 -4.1399808 2.0017865
-4.2128792 -4.1414404 1.9899435
-4.1941948 -4.1507802 1.9901451
-4.2013779 -4.1592526 1.9986044
-4.1911798 -4.1502495 1.9969641
-4.1860223 -4.1712213 1.9874206
-4.1769099 -4.1765032 1.9953339
-4.1747575 -4.1642313 1.9973278
-4.1631103 -4.1832218 1.9957079
-4.1527805 -4.1863489 2.0010417
-4.1589055 -4.1839046 2.0041268
-4.1377611 -4.1884441 1.9916402
-4.1484523 -4.200088 1.9956939
-4.1389332 -4.2047124 1.9971467
-4.1209469 -4.2049437 1.9934661
-4.1245933 -4.225831 1.9946692
-4.1177745 -4.2234273 1.9964379
-4.1030345 -4.2247005 1.9963179
-4.1062932 -4.2401638 2.0030382
-4.0911632 -4.2511439 1.9924543
-4.0906911 -4.2541027 1.9901298
-4.0871263 -4.2617798 1.9890721
-4.0760403 -4.2660174 2.0021687
-4.0808926 -4.2666149 1.996431
-4.0642838 -4.2751122 1.9962441
-4.0713477 -4.27315 2.0009437
-4.0572004 -4.2902718 1.9938122
-4.0412769 -4.2985644 1.9911649
-4.0454655 -4.2960334 1.9988027
-4.0429254 -4.3042989 2.0012012
-4.030962 -4.2980275 2.0063732
-4.0213146 -4.3141336 1.9895923
-4.0127172 -4.3251038 1.9942893
-4.0110154 -4.3268847 2.0040963
-4.0150437 -4.3380232 1.9911047
-3.9992507 -4.3421998 2.0057662
-3.9987504 -4.338212 1.988988
-3.9853737 -4.3442903 1.9895915
-3.9746368 -4.3605552 1.9983914
-3.976254 -4.3602862 2.0045829
-3.9754651 -4.3540678 2.0026946
-3.9694963 -4.3642235 1.9903409
-3.9603007 -4.3718114 1.9926487
-3.9464004 -4.3837347 1.9987991
-3.9426854 -4.3857317 1.999426
-3.9319541 -4.3979888 2.0014827
-3.926554 -4.3958063 1.9931257
-3.9379239 -4.4063158 2.0042799
-3.928683 -4.4121652 2.0047503
-3.9106343 -4.4057155 1.991062
-3.9063866 -4.4245691 1.989157
-3.9040194 -4.4235539 2.0026519
-3.8939984 -4.4194508 1.9941058
-3.9016621 -4.4275622 1.9991748
-3.8831675 -4.4380817 1.9877769
-3.8840384 -4.4440002 1.9896435
-3.8828452 -4.4506574 1.9992051
-3.8700013 -4.4548306 2.0037613
-3.8659959 -4.4559164 1.9879642
-3.8615124 -4.4651146 2.0041034
-3.8507097 -4.4762344 1.9868674
-3.8418043 -4.4711637 1.9961165
-3.8393967 -4.4822559 1.9949303
-3.8255277 -4.4872041 1.9910851
-3.8265822 -4.4998569 2.0021641
-3.8190269 -4.4995875 1.9927593
-3.8095977 -4.5043397 2.0021243
-3.8105996 -4.50247 1.9927338
-3.8070376 -4.5228248 1.9876668
-3.7992654 -4.5249333 1.9988017
-3.7953465 -4.5224838 2.0042083
-3.7886562 -4.5373812 2.0000687
-3.7727096 -4.5361309 1.9902108
-3.7579417 -4.5472789 2.0007706
-3.7670116 -4.5457559 2.004034
-3.7449954 -4.5429597 1.9929144
-3.7523763 -4.5570245 2.0023818
-3.7503853 -4.5583878 1.9990491
-3.737777 -4.5624938 2.0006831
-3.7302287 -4.5651393 2.0055213
-3.7315381 -4.5701857 1.9981128
-3.7074337 -4.5748682 2.0011017
-3.7074616 -4.5899386 1.9906273
-3.6973403 -4.5965819 1.9942822
-3.6966519 -4.5986447 2.0047286
-3.6926928 -4.6050472 2.0032301
-3.679846 -4.6051936 1.9929179
-3.6775248 -4.6097202 2.0064838
-3.6785288 -4.6280165 2.0011766
-3.657892 -4.6251502 1.9984477
-3.6524096 -4.6299858 1.9958874
-3.6543286 -4.6371164 1.9938504
-3.6532514 -4.6306829 2.0019403
-3.6426418 -4.640542 1.9885746
-3.6283698 -4.6561346 1.9983255
-3.6236446 -4.6541967 1.9868442
-3.6204107 -4.6658483 2.0003772
-3.6074822 -4.6616216 1.9945357
-3.6009803 -4.6648498 1.995541
-3.5997789 -4.6738987 2.0045471
-3.6012993 -4.6839299 1.9938425
-3.5853729 -4.6823521 2.001123
-3.5714765 -4.6861763 1.9999443
-3.5694833 -4.6858764 1.9940042
-3.5608487 -4.6977983 1.9975606
-3.5624564 -4.7114954 1.9881345
-3.5555382 -4.7084656 1.9921273
-3.5550802 -4.7190218 2.005408
-3.5404568 -4.729598 2.0005131
-3.524821 -4.7255011 1.9916128
-3.5201724 -4.7294598 1.9977152
-3.5262213 -4.7440352 1.9904207
-3.5049829 -4.7312636 2.004318
-3.5049164 -4.7430553 2.0035214
-3.490783 -4.7527761 1.9958007
-3.4930866 -4.7506752 1.9993715
-3.4848092 -4.7682333 1.9909509
-3.4725325 -4.7719183 1.9969441
-3.4669678 -4.767571 1.997322
-3.4662917 -4.7741861 1.9867483
-3.4545088 -4.7827578 1.9971581
-3.4566169 -4.7839904 1.9979255
-3.4460127 -4.7906032 1.9963884
-3.4415045 -4.7837758 1.9879739
-3.4377861 -4.7894473 1.9947439
-3.4217818 -4.8040619 1.988511
-3.4222 -4.8170452 1.9896064
-3.411032 -4.8044047 1.9918946
-3.4138641 -4.81286 2.0033982
-3.3963118 -4.8273048 1.9931453
-3.3893266 -4.8366408 1.9991704
-3.3919249 -4.834765 1.988803
-3.373749 -4.8289719 1.9966532
-3.3771036 -4.8453646 1.9961524
-3.3688662 -4.8447385 1.9947922
-3.3538523 -4.8548155 2.0036201
-3.3450646 -4.8520246 2.0042582
-3.3551753 -4.8647857 2.0023203
-3.3429909 -4.867106 1.996702
-3.3392966 -4.8786082 2.0014036
-3.3258483 -4.8698649 2.0015247
-3.3263686 -4.8704672 1.988268
-3.31725 -4.8796473 2.0055413
-3.3002744 -4.8789425 1.9911497
-3.3037934 -4.8967667 2.0021017
-3.288666 -4.9063501 1.9876851
-3.2847042 -4.8939266 2.0007586
-3.2800982 -4.8983994 2.0057604
-3.2774236 -4.9174809 1.9931217
-3.2603607 -4.9196677 1.9936516
-3.2585902 -4.9152126 1.9875855
-3.2566919 -4.9180899 2.0055687
-3.248044 -4.9386678 1.9990137
-3.2421165 -4.9290953 1.9977962
-3.2305741 -4.9298739 2.0033772
-3.2280736 -4.9423633 2.0039876
-3.2199836 -4.937736 2.0016258
-3.1988134 -4.9553533 1.999385
-3.1926353 -4.9571538 2.0026472
-3.1990895 -4.9687557 1.9882976
-3.1850076 -4.965457 2.0029688
-3.1769855 -4.9671373 1.9993182
-3.170974 -4.967052 1.9996361
-3.1715114 -4.9879289 1.9940628
-3.1532602 -4.9841595 1.9922378
-3.1494219 -4.9847913 2.0024405
-4.7375088 -3.8522656 2.0171983
-4.7312284 -3.8688595 2.0080976
-4.7253518 -3.8702497 1.9983068
-4.7207251 -3.8802135 1.9992732
-4.7158494 -3.8838584 2.0078189
-4.7042255 -3.8931541 2.0149331
-4.7036319 -3.8890109 1.9999511
-4.6864634 -3.8943481 2.0137255
-4.688674 -3.9068329 2.0004551
-4.6770144 -3.9256415 2.0163815
-4.6759024 -3.9278417 2.0105894
-4.6706271 -3.9291568 2.0148206
-4.6744437 -3.9299996 2.0042706
-4.6680422 -3.9516299 2.0103588
-4.6606646 -3.9538074 1.9993966
-4.6447325 -3.9497931 2.0057249
-4.6416769 -3.9706268 2.0027757
-4.6335945 -3.9597423 2.0010607
-4.6317286 -3.9765284 2.0134246
-4.6231241 -3.9871237 2.0135362
-4.6185842 -3.982085 1.997996
-4.6198273 -3.9972582 2.0076816
-4.6168303 -4.0017443 2.0030575
-4.6043739 -4.0053339 2.0033283
-4.6058207 -4.007061 2.0079398
-4.5982203 -4.0183792 2.0030754
-4.5842829 -4.0321746 2.0038795
-4.5732861 -4.0234289 2.002063
-4.5839949 -4.0383682 2.0099471
-4.5623307 -4.0502629 2.0137148
-4.5605464 -4.0431862 2.0089927
-4.5542932 -4.0629306 2.0155606
-4.5583453 -4.0652647 2.0040984
-4.5470133 -4.0807385 2.0154941
-4.5354009 -4.0832634 2.0116031
-4.5391684 -4.0838017 2.0028262
-4.5277915 -4.0960259 2.0066781
-4.5356011 -4.1028843 2.0056918
-4.525219 -4.106092 2.0161748
-4.5069437 -4.1132855 2.0011637
-4.5048919 -4.1243529 1.9996222
-4.5075536 -4.1148348 2.0047212
-4.5036383 -4.1350451 2.0138631
-4.4911761 -4.1296082 2.0139003
-4.4873099 -4.1382527 1.9977738
-4.4873257 -4.1563683 2.0074615
-4.47611 -4.148818 2.0112705
-4.4610338 -4.1547985 2.0145583
-4.4669347 -4.156126 2.0009673
-4.4623442 -4.1649165 2.0065038
-4.4527559 -4.1774025 2.0072858
-4.4447002 -4.1783056 2.0038912
-4.4315372 -4.1810584 2.0065832
-4.4292235 -4.1971226 2.0010009
-4.4268641 -4.1951027 2.0130546
-4.4206223 -4.1988893 2.0132658
-4.424684 -4.2172599 2.0072918
-4.4049282 -4.2263622 2.0015938
-4.401876 -4.2271833 2.0008166
-4.3924065 -4.2292395 1.9974889
-4.3973913 -4.2475414 2.0079076
-4.3815861 -4.2436314 2.0036469
-4.3891668 -4.2524099 2.0028493
-4.3740468 -4.2647357 2.0121951
-4.3645005 -4.2605705 2.0097604
-4.3628922 -4.276042 2.0097299
-4.361064 -4.2814612 1.9975117
-4.3452015 -4.2730198 2.0023656
-4.3350282 -4.2874303 2.0125654
-4.345624 -4.2982826 2.0068669
-4.3395386 -4.3000417 2.0090165
-4.3230262 -4.311924 2.0012176
-4.3107662 -4.3173251 2.0107734
-4.3192954 -4.3135529 2.0141287
-4.2984705 -4.32619 2.0077658
-4.3000717 -4.3231816 2.0120397
-4.3016949 -4.3443174 2.0169942
-4.2955279 -4.3355708 2.0164819
-4.2844982 -4.3426404 2.0076425
-4.2832613 -4.3463035 2.0140252
-4.2677135 -4.3698869 2.0047162
-4.2700086 -4.3629723 2.0095823
-4.2600937 -4.3698211 2.0150971
-4.2606149 -4.3712301 2.0104253
-4.237772 -4.3778534 1.9991497
-4.2412844 -4.3921266 2.0169065
-4.2405143 -4.3940792 1.9995434
-4.2347817 -4.3959298 2.0169344
-4.2295527 -4.4128242 2.0132544
-4.2131553 -4.4145632 2.0119026
-4.2103667 -4.4268446 2.0129488
-4.1968789 -4.4275188 2.0068829
-4.1985168 -4.4243855 1.9999335
-4.1946316 -4.4478879 1.9975314
-4.1754103 -4.4346709 2.0144534
-4.1874561 -4.451098 2.003042
-4.1817369 -4.4528947 2.0156083
-4.1733732 -4.4551067 2.0122461
-4.1676097 -4.4582462 1.997903
-4.1455183 -4.4711533 2.0077257
-4.1447711 -4.4874439 2.0111632
-4.1429691 -4.4764285 1.9998138
-4.1272244 -4.4932399 1.9974771
-4.138422 -4.4923635 1.9975082
-4.1320128 -4.4984708 2.0166178
-4.108674 -4.5028381 2.0051532
-4.1167383 -4.5077085 1.9977361
-4.1122284 -4.5104446 2.0139425
-4.091073 -4.5336556 2.012836
-4.0842524 -4.5210218 2.0046408
-4.0876012 -4.533895 2.005964
-4.0875044 -4.5512285 2.0041037
-4.0787492 -4.5390882 2.0112238
-4.0723224 -4.5444236 2.0050032
-4.0658569 -4.5496373 1.9984492
-4.0602736 -4.5578065 2.0132935
-4.0461473 -4.5803432 2.0090241
-4.0394301 -4.5846806 2.0077665
-4.0364985 -4.5741811 2.0090365
-4.0346656 -4.5831876 2.0086708
-4.0210199 -4.6018782 2.0011532
-4.0060434 -4.6068144 2.0020149
-4.0129189 -4.6093464 2.0007203
-3.992667 -4.6118102 1.9997847
-3.9986277 -4.6141753 1.9993215
-3.9911344 -4.6173315 2.016366
-3.9887893 -4.6327443 2.0165417
-3.9707057 -4.6278296 1.9980391
-3.9738719 -4.6463819 2.0156863
-3.9557605 -4.6495075 2.0099676
-3.9580069 -4.645401 2.0111909
-3.947763 -4.6527395 2.0131009
-3.9366498 -4.6533837 1.9980934
-3.9268236 -4.6602135 2.0062273
-3.9379253 -4.6794486 1.9975924
-3.9294825 -4.6776443 2.0113883
-3.9239874 -4.679955 2.0153499
-3.918309 -4.6906514 2.0097952
-3.9111254 -4.69099 2.0112484
-3.9062874 -4.6997013 2.0151269
-3.8871603 -4.6971507 2.0086539
-3.8868024 -4.710856 2.000375
-3.8845267 -4.719955 2.0169759
-3.8772509 -4.7257433 2.0122619
-3.8618338 -4.7291555 2.013818
-3.8550439 -4.7306557 2.0026753
-3.8544507 -4.7331986 2.0147088
-3.8498881 -4.7366085 2.0015244
-3.830873 -4.7393885 2.0134704
-3.8303971 -4.7438912 2.0021648
-3.826035 -4.7558351 1.9988607
-3.8081386 -4.7539973 2.0072927
-3.8185136 -4.7764673 2.0120575
-3.8122802 -4.7782531 2.0164576
-3.7907534 -4.7712202 2.0028586
-3.7876632 -4.7840037 2.0131648
-3.7757082 -4.7828083 2.0063233
-3.7717123 -4.8036714 2.0014579
-3.7608936 -4.7921481 1.9991895
-3.7581213 -4.8067856 1.9977859
-3.7666471 -4.8037047 2.0097969
-3.7584701 -4.8093786 2.0089943
-3.7418535 -4.8120866 2.0110617
-3.7404647 -4.8352275 2.0166736
-3.7346687 -4.8235149 2.0146394
-3.7224641 -4.835393 2.0051332
-3.7199461 -4.8420048 2.002125
-3.7042625 -4.8513165 2.0035467
-3.6934371 -4.8565121 2.0017753
-3.7048728 -4.8656468 2.0106406
-3.6977048 -4.8700247 2.0078518
-3.6785188 -4.872951 2.0046442
-3.6801279 -4.865993 2.0039749
-3.6596627 -4.8843865 2.0054018
-3.6535783 -4.8837309 2.0037682
-3.6495209 -4.897625 2.0154746
-3.6549628 -4.8957634 2.0057774
-3.6434054 -4.9049869 2.0119674
-3.6304195 -4.910161 1.9981508
-3.6191978 -4.9135547 2.0003798
-3.6191037 -4.9165707 2.003401
-3.6217911 -4.9271984 2.008657
-3.6076794 -4.9262404 2.0060225
-3.5942295 -4.9316297 2.0101364
-3.5993459 -4.9377537 2.0000384
-3.5860889 -4.9466467 2.001169
-3.5811186 -4.9478154 2.0092745
-3.5658383 -4.9442677 2.0132604
-3.5643611 -4.9545822 2.0171659
-3.5566936 -4.9605298 2.0027628
-3.5467899 -4.9732451 2.0104187
-3.5538583 -4.9755173 2.0125117
-3.5356636 -4.9705534 2.0006187
-3.5400965 -4.9790235 2.0083826
-3.5204086 -4.9794998 2.0150592
-3.5108118 -4.9936166 1.9978695
-4.7362485 -4.4650044 1.9990021
-4.7295513 -4.4801278 1.9999932
-4.7217622 -4.475059 1.9921557
-4.7122931 -4.4815354 1.9956434
-4.6981788 -4.4985509 1.988289
-4.6961513 -4.5033412 1.9872648
-4.6852388 -4.5022898 1.9950936
-4.6866951 -4.5183573 1.9965874
-4.6837826 -4.5218682 1.9964132
-4.6821942 -4.5352154 1.9868073
-4.6596251 -4.5365386 1.9982834
-4.6546402 -4.5374103 1.9812517
-4.6486549 -4.5367479 1.9958963
-4.6504984 -4.5528812 1.9906627
-4.6488452 -4.5611734 1.9950029
-4.6345372 -4.5737209 1.9811335
-4.6212444 -4.5616479 1.9948877
-4.6201134 -4.577332 1.9991373
-4.6174798 -4.5764136 1.9864305
-4.6150117 -4.6002269 1.9869219
-4.6021399 -4.5877986 1.9926269
-4.5977836 -4.5967236 1.9839878
-4.5904493 -4.60601 1.9825299
-4.5884619 -4.6234956 1.9914488
-4.5716991 -4.6256924 1.9985769
-4.5705872 -4.6199555 1.9996496
-4.5633359 -4.6273084 1.9992788
-4.5623212 -4.6399226 1.9896979
-4.5570483 -4.6563039 1.9875009
-4.5444732 -4.6566267 1.9879475
-4.5313973 -4.6704974 1.9872695
-4.532608 -4.6664391 1.9841055
-4.522449 -4.6814842 1.9980845
-4.5137391 -4.6809874 1.9809985
-4.5161014 -4.6901827 1.988127
-4.5113263 -4.6847301 1.987395
-4.5054703 -4.6984982 1.9857038
-4.4999762 -4.6977334 1.9977828
-4.4840541 -4.7181864 1.9998556
-4.4903202 -4.7125635 1.9879717
-4.476131 -4.7203732 1.9885745
-4.4626107 -4.7359104 1.9995835
-4.4522462 -4.7278147 1.9818865
-4.4478941 -4.7375436 1.991016
-4.440619 -4.7561784 1.9972709
-4.4462066 -4.7565908 1.9952902
-4.4325175 -4.7577085 1.9858434
-4.4205112 -4.7599015 1.9834543
-4.4164171 -4.7727518 1.9868966
-4.4102416 -4.7784553 1.9822366
-4.4159412 -4.7765656 1.9960325
-4.4010296 -4.7877612 1.9805472
-4.3951001 -4.7952056 1.9994047
-4.3868594 -4.8049202 1.994771
-4.3894801 -4.8139911 1.9977311
-4.3658381 -4.815289 1.986498
-4.3641677 -4.8295465 2.0003574
-4.3519359 -4.8384542 1.9982243
-4.3620844 -4.8299341 1.9894326
-4.3487821 -4.8419127 1.9811194
-4.3401313 -4.8462739 1.9808685
-4.3376765 -4.8624148 1.9955853
-4.330698 -4.8593268 1.9890115
-4.3248539 -4.8747067 1.9988679
-4.3036351 -4.8794246 1.9857889
-4.2994475 -4.8872261 1.9975377
-4.3064852 -4.8800917 1.9811455
-4.2996545 -4.8874683 1.9819522
-4.2949486 -4.8917446 1.9973768
-4.279026 -4.9094787 1.9869111
-4.2714081 -4.9053307 1.9981627
-4.2640333 -4.9055042 1.9993426
-4.2619328 -4.9254851 1.9896702
-4.246398 -4.9264154 1.9906681
-4.2409987 -4.932929 1.9929887
-4.2286696 -4.9420657 1.9935391
-4.2245841 -4.9450588 1.9872457
-4.2168822 -4.9480486 1.9995878
-4.208365 -4.9531684 1.9936559
-4.2044153 -4.9692097 1.9959831
-4.2109232 -4.9644856 1.9884418
-4.1861711 -4.9792476 1.9867008
-4.1802306 -4.9787779 1.9909432
-4.1839552 -4.9896512 2.0002098
-4.7270212 -4.749692 2.0004516
-4.734344 -4.7545643 2.0175753
-4.717958 -4.7727909 2.0143797
-4.7131948 -4.7790284 1.9998858
-4.7114148 -4.7834449 2.0054822
-4.6959577 -4.7916636 2.0103037
-4.6942897 -4.7939377 2.0019379
-4.6917276 -4.8026328 2.008713
-4.6772671 -4.8058786 2.0149324
-4.6847219 -4.8216639 2.0116992
-4.6723537 -4.8287416 2.0073085
-4.6637459 -4.8297906 2.004668
-4.6580052 -4.8411112 2.0104141
-4.6554513 -4.8343358 2.0165265
-4.6473818 -4.852457 2.0048168
-4.633707 -4.8618064 2.0114737
-4.6352015 -4.8561826 2.0024323
-4.6250529 -4.8747005 2.0112622
-4.60812 -4.8654704 2.0034037
-4.604959 -4.8704176 2.0063071
-4.605022 -4.8897276 2.0086715
-4.5894666 -4.8871703 2.016516
-4.5965428 -4.905622 1.9995589
-4.5778642 -4.9082775 2.0158873
-4.5730639 -4.9096313 2.0005949
-4.5599647 -4.924087 2.0024445
-4.5601997 -4.9268227 2.0163994
-4.5494671 -4.9262047 2.0183086
-4.5498953 -4.9354577 2.0159104
-4.5381737 -4.9483619 2.0150182
-4.5235391 -4.9481511 2.0012596
-4.5265317 -4.9592156 2.0164921
-4.5216713 -4.9641962 1.9996977
-4.5137587 -4.9773464 2.0066626
-4.5095091 -4.9725542 1.9986789
-4.5005426 -4.9815292 2.0026355
-4.4897184 -4.9976144 2.010242
20.416025 0.0049642846 0.12541556
20.406603 0.046681337 0.12227353
20.41288 0.073238045 0.12659684
20.41148 0.10165745 0.1330706
20.403114 0.12618546 0.12610628
20.405909 0.14991111 0.11959738
20.398426 0.17864139 0.13063225
20.404873 0.19959742 0.13277327
20.406122 0.23202094 0.11906843
20.398754 0.26190016 0.13030016
20.405272 0.2893776 0.13526446
20.394951 0.32745069 0.13346702
20.401449 0.35186103 0.12974758
20.412231 0.37496987 0.12596895
20.409449 0.4098523 0.11823989
20.39966 0.42770687 0.12575825
20.403324 0.45829561 0.13352896
20.397982 0.49558905 0.1337781
20.394741 0.5144285 0.11797355
20.397757 0.5462386 0.12357144
20.391964 0.58494169 0.12817049
20.391096 0.61374152 0.12236692
20.38839 0.62949586 0.13249859
20.401926 0.65652806 0.11726466
20.391642 0.70131183 0.12843943
20.393591 0.71688271 0.12899585
20.403017 0.75673175 0.13166893
20.400175 0.77189386 0.12316418
20.397541 0.80450994 0.12502861
20.399065 0.84087509 0.13023387
20.386145 0.87222099 0.12567402
20.397785 0.8835119 0.12144686
20.383583 0.91295034 0.12450813
20.379471 0.95681673 0.12613687
20.380087 0.97133249 0.1240859
20.391838 1.0087684 0.12914367
20.392523 -0.95229369 0.12030534
20.394835 -0.93287045 0.12552951
20.382383 -0.90704489 0.12693729
20.379066 -0.87721074 0.12108236
20.395668 -0.85712498 0.12258288
20.395557 -0.81375116 0.13061987
20.384777 -0.79621029 0.12840737
20.39612 -0.75877219 0.13462166
20.401978 -0.73309994 0.12643211
20.400209 -0.70983952 0.12479534
20.389009 -0.68272066 0.12419195
20.394938 -0.65462637 0.13456438
20.406048 -0.62027866 0.12231319
20.398527 -0.59050411 0.13144514
20.405113 -0.56534463 0.13221008
20.393158 -0.54147154 0.12789445
20.409201 -0.50951612 0.13266368
20.402992 -0.48731643 0.12641342
20.402958 -0.44031572 0.11737633
20.394693 -0.41610166 0.12313914
20.404753 -0.38406581 0.12755884
20.394169 -0.36704165 0.13160959
20.413918 -0.33980501 0.12154348
20.401375 -0.3009482 0.13278612
20.397926 -0.27632624 0.12072127
20.415201 -0.2444386 0.12406142
20.408121 -0.21724838 0.13088785
20.405769 -0.19696814 0.13144386
20.397129 -0.15738362 0.13052945
20.399412 -0.12668446 0.12535711
20.407417 -0.10650745 0.1237478
20.399803 -0.07745605 0.13068904
20.416199 -0.049157877 0.11639258
20.402491 -0.013864188 0.13247788
20.420521 0.0013366308 0.27385384
20.425905 0.029678704 0.26949692
20.434589 0.070597373 0.2838535
20.430059 0.088861823 0.27001318
20.426046 0.11822173 0.2672798
20.42108 0.14963995 0.26676771
20.430899 0.18887924 0.27795446
20.419071 0.20035924 0.26971418
20.434143 0.22813065 0.28129348
20.434879 0.26212731 0.27968776
20.431662 0.2935918 0.2810244
20.420635 0.33045921 0.28219566
20.425213 0.35606962 0.2757782
20.424107 0.37724945 0.27911791
20.429121 0.4145546 0.28331041
20.43136 0.44707063 0.27041426
20.41305 0.46962515 0.26825076
20.425886 0.50060874 0.26906103
20.430441 0.5269627 0.26913679
20.426537 0.55439043 0.27470377
20.420986 0.57897723 0.28323027
20.416733 0.61295462 0.28011981
20.41361 0.63196564 0.27411601
20.42403 0.67036688 0.2807889
20.417751 0.69431788 0.27626455
20.415625 0.72108525 0.27575463
20.420563 0.75015688 0.26929843
20.403296 0.77271938 0.26532599
20.406801 0.80053246 0.27920857
20.410341 0.84517533 0.27202091
20.419409 0.86504221 0.28092313
20.416964 0.90146977 0.27530697
20.411367 0.91562915 0.28020725
20.399729 0.9411028 0.27501535
20.394722 0.98123044 0.26528239
20.405151 1.0002046 0.27382603
20.406284 -0.96595448 0.26797268
20.411995 -0.93368 0.27071059
20.408484 -0.90769041 0.28319186
20.415621 -0.87365443 0.27970201
20.413095 -0.85529959 0.26530614
20.414631 -0.82029605 0.28210834
20.403294 -0.79804337 0.27527431
20.409653 -0.75677246 0.27340519
20.415079 -0.7442708 0.27364117
20.420603 -0.70595396 0.270962
20.423466 -0.68556029 0.27767617
20.407917 -0.64079142 0.26818877
20.415066 -0.62083215 0.27621314
20.414656 -0.5949921 0.26979381
20.410717 -0.57289463 0.27324799
20.412342 -0.53044045 0.28322262
20.430731 -0.50046152 0.26696524
20.422245 -0.48522294 0.28349257
20.43185 -0.44561687 0.28403383
20.421652 -0.42150602 0.27440268
20.428734 -0.39551157 0.2766746
20.422489 -0.36600575 0.27522349
20.42672 -0.33025074 0.26523846
20.418934 -0.31576529 0.27259898
20.424688 -0.28603932 0.27356136
20.433857 -0.25546876 0.26848119
20.432962 -0.22725143 0.26488215
20.435768 -0.18822147 0.26802284
20.435062 -0.16024803 0.28226987
20.434858 -0.14309518 0.27212706
20.424984 -0.099442169 0.27947721
20.437342 -0.082574889 0.26783091
20.428207 -0.041980755 0.2834366
20.429049 -0.029635459 0.26502407
20.25824 0.011825127 0.44223279
20.24732 0.038038198 0.44710758
20.25128 0.063011706 0.45169434
20.2516 0.09048824 0.44680518
20.255024 0.11699507 0.44138327
20.252653 0.14307338 0.44460762
20.240101 0.17909199 0.44297814
20.25486 0.20732275 0.44970885
20.237934 0.2263145 0.44852644
20.256573 0.26608217 0.45118195
20.236759 0.2939862 0.44300705
20.239716 0.31098893 0.4527877
20.247509 0.35201013 0.43928432
20.239847 0.3734507 0.44500011
20.247259 0.3984513 0.44896549
20.249208 0.44125888 0.45075217
20.234343 0.47173056 0.4403007
20.237808 0.49721646 0.44982362
20.247965 0.52607024 0.45008224
20.2369 0.55389756 0.44185296
20.248451 0.58228576 0.45327264
20.231787 0.59404391 0.45344052
20.244865 0.63404673 0.44637567
20.2444 0.66688097 0.45249814
20.229612 0.68765736 0.45536864
20.238749 0.71095401 0.45279494
20.229633 0.73999512 0.45244196
20.230026 0.77315128 0.44932482
20.239904 0.797153 0.44681233
20.230001 0.83081788 0.44387901
20.231829 0.85680139 0.4410868
20.423267 0.89551395 0.41669753
20.436592 0.91984212 0.42917547
20.422812 0.9445911 0.42624402
20.415113 0.97547662 0.41584662
20.430246 1.016464 0.42050478
20.432264 -0.96715957 0.41804105
20.417706 -0.93915451 0.42611492
20.418749 -0.90564859 0.41385907
20.432823 -0.88086045 0.41778183
20.420137 -0.84270823 0.41879931
20.235632 -0.81094468 0.45020872
20.231836 -0.79213244 0.45878017
20.235905 -0.76520103 0.45120549
20.237158 -0.73291349 0.45549056
20.244671 -0.70350718 0.45552307
20.228292 -0.67680639 0.44195861
20.233513 -0.64600253 0.44789606
20.246769 -0.61545426 0.45883441
20.247728 -0.59209013 0.44605416
20.232573 -0.56263089 0.44291762
20.238394 -0.52060276 0.45496586
20.250475 -0.50349903 0.45759135
20.251089 -0.4834148 0.43891174
20.244089 -0.44312772 0.44428158
20.241335 -0.41633803 0.4508183
20.238573 -0.38689679 0.45581493
20.242208 -0.35316625 0.44337323
20.251741 -0.32707262 0.45323634
20.252172 -0.30087179 0.4582189
20.239784 -0.27064103 0.44441482
20.244221 -0.25536299 0.44439197
20.240665 -0.22873744 0.45322481
20.239697 -0.182193 0.45389289
20.240007 -0.16330442 0.44659811
20.245649 -0.12778668 0.4578422
20.25779 -0.11560734 0.45027581
20.254885 -0.080330908 0.44818753
20.2395 -0.056019988 0.44393975
20.253941 -0.03173627 0.45763892
20.2715 0.0034902897 0.60129219
20.257032 0.039047755 0.60399067
20.262503 0.070709273 0.60505927
20.256767 0.10110029 0.60441625
20.271662 0.13154113 0.59440553
20.25922 0.14740159 0.59165579
20.257982 0.17521833 0.59282845
20.26914 0.1999879 0.60102034
20.258169 0.2292686 0.60526574
20.262913 0.27292347 0.60553741
20.261314 0.295935 0.5890277
20.255352 0.32449907 0.59979248
20.272049 0.35859275 0.59393591
20.269775 0.38704884 0.59018761
20.266819 0.41053537 0.58859754
20.253813 0.44175753 0.59458554
20.258017 0.47195926 0.60010815
20.263353 0.49357423 0.60211855
20.256844 0.52451408 0.60512829
20.254539 0.54053086 0.60351187
20.252468 0.57532382 0.59662658
20.253847 0.60456836 0.59002542
20.265951 0.63096285 0.58923864
20.252159 0.65557587 0.58862936
20.254578 0.69776434 0.60322863
20.255369 0.70751745 0.60077292
20.262108 0.74208546 0.60024261
20.254332 0.78264087 0.59305185
20.248524 0.79737568 0.58852643
20.245687 0.83053505 0.5917443
20.241196 0.86239076 0.60148269
20.249779 0.89643288 0.5921942
20.25172 0.92342627 0.60102999
20.252836 0.93751431 0.60620981
20.253304 0.97494859 0.60531038
20.248331 0.99413896 0.60589761
20.252007 -0.99098468 0.60510224
20.234703 -0.9636246 0.58736014
20.239477 -0.93245143 0.59215552
20.25379 -0.89387858 0.59843475
20.256758 -0.8653425 0.59028018
20.257999 -0.84477538 0.58693123
20.245829 -0.80865097 0.60394609
20.252926 -0.79417849 0.59810281
20.258457 -0.76572424 0.60339975
20.261471 -0.72322232 0.59337944
20.244877 -0.69535273 0.5956533
20.264111 -0.66615343 0.59703737
20.265566 -0.65350479 0.6013428
20.251774 -0.60783142 0.59596753
20.264223 -0.58043772 0.59087294
20.268478 -0.55300999 0.59808838
20.269346 -0.53892136 0.59316945
20.267189 -0.49886587 0.59446275
20.259148 -0.47436801 0.59594828
20.256365 -0.44790813 0.59167242
20.263521 -0.41905355 0.58700126
20.252914 -0.39193544 0.6032632
20.263649 -0.36429596 0.60390621
20.258652 -0.33133978 0.6019538
20.26824 -0.3067877 0.59912503
20.272692 -0.27879438 0.59545279
20.264322 -0.25070885 0.59759682
20.270992 -0.22551623 0.59152299
20.258917 -0.1890599 0.60167259
20.268288 -0.15604293 0.59000683
20.273342 -0.13648573 0.59891939
20.273687 -0.10811445 0.60667306
20.270254 -0.06954512 0.59378839
20.267426 -0.056472365 0.60558134
20.262604 -0.01427153 0.59364712
20.292009 0.015716475 0.74953312
20.280603 0.033223476 0.73711753
20.291302 0.057060353 0.74161369
20.275887 0.088520311 0.7542848
20.290581 0.12908885 0.75169116
20.273571 0.15449004 0.74037272
20.285433 0.18005267 0.74914312
20.285009 0.20203859 0.7482003
20.291662 0.24109082 0.75204748
20.290068 0.25525686 0.7498126
20.276501 0.30170786 0.74552906
20.290672 0.31677157 0.75044572
20.272388 0.34259191 0.75089252
20.278563 0.37309504 0.75449264
20.277367 0.3984305 0.75035477
20.273539 0.42693248 0.74331188
20.278353 0.46751356 0.75352561
20.271898 0.48792723 0.73741961
20.28446 0.51528883 0.75206059
20.28083 0.54139119 0.75256282
20.274925 0.57430011 0.7512117
20.284698 0.60179478 0.73662049
20.279348 0.63145959 0.73954648
20.274406 0.66779065 0.74467307
20.273024 0.68345898 0.74683338
20.267464 0.71587098 0.74919462
20.274822 0.753708 0.74383676
20.272354 0.76574051 0.75059325
20.273741 0.81102556 0.736413
20.26973 0.83341026 0.74003774
20.26618 0.85065979 0.74827504
20.26124 0.87849039 0.73571187
20.261671 0.92181885 0.74451941
20.264986 0.94109178 0.74136513
20.253389 0.9799093 0.74558759
20.263914 0.99413341 0.75393176
20.249517 -0.99105537 0.74116927
20.267513 -0.95103055 0.74612701
20.255833 -0.92769039 0.74142599
20.270658 -0.89296365 0.7392723
20.256899 -0.87092257 0.7534411
20.260561 -0.8494696 0.74112564
20.268049 -0.81571072 0.73927426
20.259411 -0.78740025 0.74687946
20.277996 -0.76494551 0.74710739
20.267923 -0.72504342 0.74268192
20.275829 -0.69671428 0.74572331
20.263025 -0.67175519 0.74051583
20.275141 -0.63980538 0.75037283
20.282515 -0.61431694 0.74667913
20.267694 -0.58383709 0.73674732
20.267006 -0.55090326 0.73998749
20.27396 -0.53165203 0.74870408
20.279026 -0.50216901 0.73744684
20.271656 -0.47519237 0.74035865
20.284473 -0.43933994 0.75488532
20.272827 -0.41659284 0.74945235
20.284182 -0.38762185 0.74068844
20.290291 -0.36746934 0.73558289
20.286217 -0.34083632 0.74767321
20.27841 -0.30987653 0.74194932
20.28063 -0.28042129 0.74086434
20.286053 -0.24478611 0.75073433
20.280151 -0.2248224 0.74179012
20.282953 -0.19292505 0.75152433
20.288628 -0.16886614 0.74881172
20.28879 -0.13707122 0.74054617
20.28348 -0.11449894 0.75295073
20.289366 -0.086356834 0.73720604
20.290106 -0.042787969 0.73979205
20.282898 -0.027486093 0.74503469
20.305939 0.013373811 0.89965659
20.291836 0.035540465 0.89338177
20.307566 0.071464889 0.89876586
20.29431 0.089889824 0.8877421
20.290751 0.11372703 0.89247161
20.304438 0.15750307 0.90069014
20.28982 0.17578499 0.88317472
20.307568 0.19980878 0.88549495
20.28953 0.24446884 0.90307742
20.294041 0.26185542 0.88765502
20.303753 0.2862446 0.90102881
20.29982 0.31655133 0.88824016
20.289574 0.34264553 0.90304673
20.30467 0.37558296 0.88794929
20.288704 0.40509775 0.8883602
20.297428 0.42847726 0.88421857
20.294333 0.4574559 0.8900305
20.29368 0.48443812 0.8915382
20.295309 0.51367927 0.88937831
20.294481 0.5477652 0.8962779
20.298191 0.57193857 0.89923996
20.295235 0.61259353 0.88418263
20.299452 0.62345523 0.88689393
20.298433 0.66990763 0.89421785
20.28228 0.68092692 0.90273243
20.286497 0.72124255 0.88630313
20.286533 0.7390731 0.89052993
20.292343 0.77690297 0.8934173
20.279619 0.79705238 0.89722508
20.284697 0.83710384 0.88679904
20.276634 0.86163473 0.89222777
20.271494 0.8840189 0.88999391
20.271257 0.91146761 0.89030522
20.273693 0.93878734 0.88875383
20.283411 0.97088069 0.88990772
20.281607 1.0081584 0.90306473
20.279953 -0.97880501 0.89171958
20.282824 -0.95159107 0.89660358
20.273155 -0.919698 0.89424062
20.282318 -0.90825194 0.89418662
20.273941 -0.87097859 0.88930041
20.276428 -0.83424681 0.90201575
20.276247 -0.80551308 0.89080763
20.280107 -0.79302067 0.88925362
20.278055 -0.75444365 0.88357294
20.287045 -0.7231549 0.89312959
20.28492 -0.70035988 0.88920647
20.294439 -0.67606235 0.88420129
20.288803 -0.64276248 0.90279114
20.280766 -0.621589 0.88452733
20.292633 -0.59004122 0.89523536
20.299576 -0.55721754 0.89437181
20.299194 -0.52574533 0.89393711
20.287565 -0.51154369 0.89768827
20.294342 -0.48048592 0.89170837
20.295399 -0.44149125 0.88870764
20.285973 -0.42563394 0.90019089
20.292583 -0.38123015 0.88765919
20.294151 -0.3633959 0.9001137
20.294268 -0.3344942 0.88542664
20.296082 -0.31457916 0.89397109
20.288563 -0.26853696 0.88702178
20.300142 -0.2436524 0.88322616
20.291246 -0.21113361 0.88531262
20.306063 -0.19253466 0.8901363
20.294859 -0.17353627 0.88563305
20.300617 -0.14458187 0.88866472
20.297817 -0.10959461 0.88777691
20.302446 -0.073579758 0.89639932
20.29949 -0.057947498 0.8855986
20.301807 -0.020961698 0.88638753
20.307558 0.011845447 1.0332333
20.311386 0.032111511 1.0482963
20.311378 0.063140742 1.047551
20.313419 0.088684238 1.0370772
20.320242 0.12276201 1.0372736
20.322523 0.14237329 1.0380963
20.307796 0.17900127 1.0455775
20.312141 0.20011422 1.0407449
20.305071 0.2381666 1.0432155
20.307159 0.25847125 1.0343429
20.309996 0.28957257 1.0461884
20.3113 0.32452124 1.0499498
20.307627 0.35952154 1.0363905
20.303167 0.3766599 1.040025
20.308195 0.40075994 1.0493876
20.313381 0.42731833 1.0500119
20.319349 0.45936668 1.038915
20.312759 0.49601713 1.0405823
20.301296 0.52589202 1.0319535
20.312265 0.55819064 1.0352813
20.314322 0.5737018 1.0413629
20.308184 0.61093056 1.0340462
20.305769 0.62493992 1.0333834
20.309753 0.65498441 1.0415133
20.297335 0.69059014 1.0453982
20.294237 0.71195358 1.0474974
20.291725 0.73989725 1.0333015
20.298077 0.78190237 1.0474136
20.306057 0.81313628 1.043059
20.305368 0.83606958 1.0426625
20.287968 0.86182946 1.0494376
20.296608 0.88226134 1.0451031
20.297894 0.92112666 1.0464407
20.298475 0.94486612 1.0494868
20.287149 0.9771142 1.0398037
20.299667 1.0072333 1.0431508
20.283285 -0.97656333 1.0478777
20.295921 -0.95518249 1.0496635
20.302544 -0.93658811 1.0513648
20.294758 -0.89922583 1.0487745
20.291155 -0.8821072 1.044803
20.296051 -0.84635317 1.0499073
20.294569 -0.8119083 1.0388566
20.300591 -0.79030848 1.0443934
20.308475 -0.76130563 1.035156
20.299486 -0.72150683 1.0393033
20.310938 -0.71027005 1.0383539
20.308275 -0.66776651 1.0504684
20.30736 -0.63996989 1.0328585
20.308105 -0.62124956 1.0442904
20.306223 -0.58738136 1.0445185
20.300327 -0.56982756 1.0321765
20.299498 -0.53492898 1.0459535
20.307577 -0.495141 1.0330031
20.301153 -0.46855965 1.0407267
20.305452 -0.45202002 1.0399185
20.31386 -0.42504239 1.0420153
20.301279 -0.3817009 1.0382825
20.320772 -0.3602097 1.0340116
20.302616 -0.33886766 1.0401253
20.315851 -0.30026513 1.03177
20.309277 -0.26837364 1.0326302
20.31032 -0.25808889 1.0400497
20.305099 -0.22046164 1.0389167
20.30689 -0.18995516 1.0360236
20.316366 -0.15580694 1.041328
20.304993 -0.13386971 1.0452665
20.315676 -0.10509294 1.0442024
20.322588 -0.077362172 1.0362848
20.305189 -0.04828734 1.0413635
20.313864 -0.026436662 1.0366985
20.32799 0.012180483 1.184024
20.329084 0.047716144 1.1848409
20.337561 0.057690658 1.1949371
20.324863 0.089153558 1.1871914
20.329233 0.12982829 1.1852449
20.318869 0.15890671 1.1968868
20.332403 0.17848557 1.1889558
20.324833 0.20483193 1.1804061
20.329306 0.23367485 1.1925813
20.318819 0.27112794 1.1982572
20.323626 0.28883582 1.1904378
20.327274 0.32765868 1.1897845
20.331699 0.35501599 1.1907365
20.32618 0.36977467 1.1947824
20.332876 0.40904167 1.1911339
20.317587 0.43812114 1.188195
20.313898 0.46095166 1.1964664
20.322241 0.49646911 1.1827161
20.321993 0.51675576 1.1894408
20.313881 0.54689026 1.1852515
20.311405 0.58220756 1.190403
20.32107 0.60158724 1.1860111
20.310043 0.62584609 1.1806109
20.319927 0.66508025 1.1816043
20.31382 0.69154388 1.1935003
20.324022 0.72329068 1.1861124
20.311247 0.7519623 1.1931922
20.306704 0.76962781 1.1874276
20.308371 0.80773741 1.1935889
20.316721 0.83846617 1.1815248
20.300844 0.86749011 1.1964191
20.31008 0.88698959 1.1823354
20.314882 0.91631144 1.1841539
20.314245 0.93640757 1.1968513
20.314564 0.97132367 1.1876583
20.306738 0.99741119 1.1818593
32.15395 2.7625 0.11735502
31.762148 2.7580161 0.16237889
31.370699 2.7755203 0.1848181
30.95677 2.7755632 0.22156341
30.360786 2.7672193 0.27815607
30.368599 2.8078597 0.28512076
30.363483 2.8550186 0.27240801
30.357166 2.9020526 0.28027475
30.348846 2.9475648 0.28257585
30.351347 2.9848859 0.28914598
30.339056 3.0273645 0.28647849
30.342821 3.0588107 0.288881
30.534033 3.1398139 0.261612
30.513739 3.1675966 0.26401076
30.514446 3.2184389 0.26901409
30.518154 3.2609737 0.25228149
30.508768 3.3023319 0.26033723
30.506609 3.3413723 0.25306186
30.492258 3.3961501 0.26893911
30.500149 3.4375446 0.25978351
30.494549 3.4708233 0.2707586
30.486223 3.5121014 0.27083775
30.480242 3.5507154 0.26931548
30.484774 3.5934174 0.25296912
30.471645 3.6412656 0.26486424
30.463461 3.6773219 0.25669989
30.458485 3.7285511 0.26730561
30.461506 3.7622404 0.25437015
30.457191 3.8062563 0.25363737
30.448694 3.8628998 0.27173045
30.430983 3.898741 0.26054049
30.444187 3.9311123 0.26807341
30.43741 3.9824164 0.27167201
30.429054 4.0232272 0.25543123
30.42429 4.0759439 0.26450425
30.411364 4.1055694 0.26710638
30.410212 4.1553707 0.25841758
30.399607 4.1934047 0.26090512
30.396008 4.2323947 0.26490295
30.391617 4.288218 0.26304612
30.38526 4.3317199 0.25453982
30.367653 4.3738742 0.25592178
30.37752 4.4147606 0.26613221
30.370928 4.452857 0.25468585
30.368034 4.491816 0.2534962
30.354155 4.5435338 0.25948006
30.539801 4.6094947 0.23497814
30.539675 4.6412807 0.2439175
30.521978 4.6953301 0.24941917
30.528217 4.7309108 0.24832502
20.309618 -0.9929893 1.1903962
20.298197 -0.94976234 1.1920685
20.306789 -0.9352386 1.1920863
20.311035 -0.91017312 1.1911739
20.299982 -0.87832624 1.1935483
20.32041 -0.85050905 1.1993834
20.319851 -0.80718559 1.1936723
20.314543 -0.78133982 1.1844921
20.313599 -0.76627034 1.1820724
20.311676 -0.72967875 1.1841999
20.312052 -0.70591789 1.1875033
20.323463 -0.6749481 1.1856976
20.316507 -0.63671523 1.1900773
20.309528 -0.61552733 1.1911829
20.321598 -0.58664316 1.1957934
20.316004 -0.55854368 1.1998777
20.316204 -0.53217554 1.1989406
20.330654 -0.51224822 1.1955025
20.315884 -0.4743591 1.1987857
20.318655 -0.43944556 1.1903106
20.323513 -0.42517075 1.1972452
20.331635 -0.40045941 1.1867971
20.317913 -0.36363938 1.186228
20.328529 -0.33469284 1.1984917
20.320213 -0.31453228 1.1912831
20.336466 -0.28078333 1.1838163
20.336765 -0.24761097 1.1943591
20.336088 -0.2207263 1.1964693
20.331932 -0.18930963 1.188108
20.33102 -0.15578073 1.1862985
20.321592 -0.13801204 1.1904012
20.319061 -0.11270022 1.1908518
20.326042 -0.081651166 1.1997583
20.332413 -0.060485121 1.1892463
20.331009 -0.028096685 1.1905293
20.335115 0.003889879 1.3457382
20.338951 0.032046344 1.3372096
20.33329 0.059182812 1.3471982
20.349701 0.10186111 1.3402359
20.337709 0.12336434 1.3384343
20.343868 0.15521745 1.346033
20.334091 0.18435504 1.3305748
20.344725 0.20032895 1.3377964
20.344227 0.24257001 1.3378152
20.333176 0.26334178 1.341853
20.343367 0.29543561 1.3457429
20.340185 0.33138466 1.3294021
20.348436 0.34173161 1.3318107
20.346636 0.38858673 1.3285105
20.337831 0.40358859 1.3383268
20.327188 0.44492766 1.3316096
20.344103 0.45670664 1.3456436
20.34552 0.49937603 1.3472656
20.33412 0.52184224 1.342743
20.342699 0.55359328 1.3306072
20.335276 0.57591212 1.3421804
20.331701 0.61546445 1.3413185
20.331749 0.64372158 1.3424201
20.334164 0.67067218 1.341994
20.333241 0.68935382 1.3481877
20.322092 0.71796489 1.347339
20.324188 0.74410391 1.3298888
20.320278 0.7723127 1.3467284
20.317949 0.80981278 1.3376555
20.33106 0.83662295 1.331956
20.331995 0.85678095 1.3401986
20.324463 0.89417654 1.3396181
20.316031 0.91246885 1.3389204
20.328659 0.95406651 1.3368
20.320822 0.97566921 1.3449894
20.319139 1.0070933 1.3334193
33.782581 2.7575166 0.22105597
33.184441 2.7420468 0.26373887
32.786827 2.7675376 0.31308788
32.190887 2.7663238 0.35357246
31.785948 2.76649 0.38353267
31.3783 2.7757392 0.42977247
30.788242 2.7739053 0.47697541
30.385185 2.7671552 0.50885284
30.379541 2.8086007 0.49393326
30.365084 2.8627796 0.49610662
30.374041 2.8931217 0.51252925
30.356857 2.9451346 0.49553227
30.353136 2.980643 0.51106691
30.365931 3.0198929 0.51049954
30.349989 3.0752277 0.49964571
30.351173 3.1039033 0.50870293
30.345764 3.1620045 0.5054903
30.338339 3.1979361 0.50869501
30.329956 3.2321062 0.51094234
30.524771 3.2971499 0.48858404
30.523493 3.3540387 0.49056342
30.518579 3.3978043 0.48216954
30.516607 3.4219677 0.48690373
30.510113 3.4831035 0.4885132
30.502991 3.5125346 0.48308861
30.504955 3.5674467 0.48397672
30.495916 3.601305 0.48060942
30.483606 3.6521506 0.49082315
30.494442 3.6790867 0.49286261
30.487465 3.7271936 0.49621943
30.474459 3.7786443 0.49385664
30.463371 3.8098614 0.49265748
30.463831 3.863848 0.49302652
30.468966 3.8961387 0.49194279
30.455648 3.9461658 0.47770834
30.45685 3.9830756 0.49581096
30.438879 4.0359249 0.48520374
30.437481 4.0615015 0.48288113
30.426239 4.1030097 0.48494056
30.416975 4.1626973 0.49255988
30.411011 4.194592 0.48909032
30.422623 4.240674 0.49430567
30.412977 4.2725492 0.4909828
30.403641 4.3149514 0.4774332
30.393162 4.3694901 0.49140099
30.38839 4.4107409 0.47977638
30.38166 4.4595919 0.47850698
30.384266 4.4926748 0.48032764
30.364489 4.5402045 0.48117793
30.366711 4.5842195 0.4792448
30.356493 4.628077 0.48674408
30.342747 4.6694136 0.47787097
30.55114 4.737524 0.46203959
20.323885 -0.99218273 1.3299129
20.312126 -0.9593991 1.3285197
20.319094 -0.92681861 1.3476644
20.328234 -0.9081381 1.3388919
20.318001 -0.86570197 1.3457119
20.319813 -0.84383184 1.3351041
20.316725 -0.80887532 1.3299134
20.317942 -0.79139537 1.342515
20.319851 -0.75512815 1.3331795
20.319178 -0.73825324 1.3464835
20.322872 -0.71295106 1.3312191
20.325256 -0.68077815 1.3403844
20.32621 -0.64296728 1.3337742
20.326267 -0.61730969 1.3374869
20.337513 -0.5831359 1.3352762
20.335539 -0.56836313 1.3465744
20.342916 -0.53785235 1.3444664
20.325066 -0.50725752 1.3314737
20.339775 -0.47584733 1.3463823
20.34511 -0.44616553 1.3297982
20.34371 -0.41380379 1.3301474
20.347006 -0.40003198 1.3342991
20.339426 -0.36624324 1.3478899
20.345198 -0.33329305 1.3387653
20.334642 -0.30995396 1.3354404
20.341837 -0.26940593 1.3385128
20.340288 -0.24225682 1.3437195
20.336594 -0.21369743 1.3311434
20.339867 -0.19112621 1.341599
20.338009 -0.16387869 1.3333569
20.339525 -0.13865094 1.3290961
20.341352 -0.11070739 1.3302259
20.347292 -0.070882879 1.3367624
20.346783 -0.045787569 1.3478664
20.337111 -0.031708833 1.3339261
21.352955 0.012910137 1.4061319
21.342943 0.033241045 1.40312
21.358097 0.069534674 1.4202825
21.340631 0.10879833 1.4116306
21.353582 0.12594047 1.4218403
21.358248 0.16437699 1.4088916
21.358612 0.18445696 1.4154997
21.340063 0.21033202 1.4135455
21.348011 0.25559294 1.4082998
21.347019 0.27111509 1.4087456
21.352047 0.31357348 1.4216558
21.355255 0.34604043 1.4051011
21.355412 0.37372255 1.4150442
21.352688 0.40404376 1.4144554
21.341272 0.42745957 1.4212134
21.340023 0.45572782 1.4166126
21.345783 0.48458767 1.422297
21.338112 0.51516891 1.4040618
21.348444 0.55400795 1.4212934
21.333488 0.57220876 1.4042535
21.338936 0.6158309 1.4198788
21.337254 0.643098 1.4181784
21.338974 0.67099816 1.4143683
21.330597 0.69669372 1.4110881
21.341589 0.73153275 1.4214332
21.339298 0.74572498 1.410257
21.332365 0.78632152 1.4181517
21.331074 0.81993037 1.4068397
21.331507 0.84459746 1.40458
21.329128 0.87507695 1.4107352
21.329668 0.91181457 1.4107279
21.325794 0.92772043 1.408204
21.320177 0.96623975 1.4037979
21.330708 0.9973157 1.4153063
33.80484 2.7472651 0.46796998
33.198555 2.7601256 0.51985335
32.796707 2.7675731 0.55555719
32.209892 2.7547104 0.59318364
31.801065 2.7595317 0.62859076
31.392668 2.7784405 0.65802085
30.799124 2.7680411 0.68922442
30.39942 2.7713358 0.72172964
30.392694 2.8272004 0.73097628
30.390043 2.8658652 0.72899544
30.395519 2.899102 0.73359281
30.377527 2.9462059 0.73310214
30.38657 2.9928007 0.72709227
30.381395 3.032609 0.73333442
30.368999 3.0648429 0.73393929
30.362091 3.1098993 0.72410929
30.354694 3.1612391 0.7334494
30.353651 3.1939933 0.71924782
30.355194 3.2439075 0.71848381
30.345924 3.2751141 0.73396277
30.334614 3.3357987 0.72026265
30.347843 3.3625536 0.73125565
30.538721 3.4247026 0.71150887
30.525299 3.4839048 0.70410132
30.518061 3.51495 0.7065348
30.511366 3.5633855 0.71163738
30.514784 3.6087813 0.70569897
30.507481 3.6375506 0.71013981
30.505919 3.6923385 0.70212603
30.503531 3.7223914 0.7029565
30.496565 3.7657285 0.70211554
30.495836 3.8069472 0.70567989
30.486044 3.8655567 0.70681953
30.471375 3.8955472 0.70454812
30.469238 3.9431603 0.71071571
30.469477 3.989001 0.70271933
30.454758 4.0232396 0.71752614
30.454041 4.0752153 0.71851665
30.457705 4.1107273 0.71171659
30.433296 4.1490111 0.71239829
30.429659 4.2055454 0.71385312
30.425121 4.2466307 0.71397001
30.424089 4.2832589 0.71014714
30.424137 4.3306141 0.71377277
30.421854 4.3612881 0.70247734
30.40568 4.4177146 0.71449625
30.401449 4.4449959 0.71823478
30.391968 4.4971933 0.71143836
30.383415 4.5387483 0.71765089
30.388006 4.5816464 0.71965218
30.373217 4.626718 0.71570104
30.359825 4.6731224 0.71035618
30.366491 4.7044234 0.71916926
30.349274 4.7417612 0.71287525
21.326616 -0.96775109 1.4149961
21.331863 -0.93906337 1.4113517
21.337206 -0.92484552 1.4159544
21.322756 -0.88243014 1.415011
21.340563 -0.85027504 1.4083885
21.334259 -0.83656824 1.4110651
21.341568 -0.79641658 1.4031733
21.336073 -0.75907367 1.4216908
21.345341 -0.73455906 1.4031754
21.34197 -0.71499592 1.4049722
21.332222 -0.67605805 1.4040844
21.345675 -0.65322953 1.4221195
21.33544 -0.62637365 1.4046059
21.349766 -0.59524018 1.419739
21.343109 -0.56753075 1.4172568
21.349787 -0.52731502 1.4187096
21.3391 -0.50093842 1.4105405
21.340479 -0.46116406 1.4099389
21.340334 -0.43318686 1.4040754
21.341633 -0.40960369 1.4079968
21.344685 -0.37675023 1.4210764
21.346809 -0.35138571 1.4072037
21.346928 -0.31715459 1.4104048
21.349489 -0.28945434 1.4149559
21.347143 -0.26922828 1.4174317
21.342274 -0.22309896 1.4103377
21.358814 -0.2083898 1.4198334
21.347145 -0.17299272 1.4193158
21.354834 -0.1383903 1.4169867
21.356615 -0.123098 1.4084512
21.342278 -0.085319094 1.4029788
21.340979 -0.045941379 1.4130797
21.345764 -0.026929781 1.40762
21.364815 0.018156448 1.5760715
21.357264 0.036556851 1.5589525
21.352148 0.06972827 1.5781691
21.359896 0.099123426 1.5623008
21.357098 0.13657303 1.5720351
21.353741 0.16147554 1.5665768
21.368011 0.18796735 1.5666158
21.353706 0.21996978 1.5746384
21.353888 0.25056246 1.572243
21.364128 0.28587264 1.5590634
21.368866 0.30910125 1.5772198
21.366013 0.34479937 1.5639654
21.365995 0.37544283 1.5740713
21.365156 0.39393744 1.563761
21.348406 0.42977899 1.5610895
21.361347 0.46244979 1.5735098
21.348789 0.48962066 1.5626115
21.35623 0.52275604 1.5739056
