# .PCD v0.7 - Point Cloud Data file format
VERSION 0.7
FIELDS x y z
SIZE 4 4 4
TYPE F F F
COUNT 1 1 1
WIDTH 1538
HEIGHT 1
VIEWPOINT 0 0 0 1 0 0 0
POINTS 1538
DATA ascii
-5.7610793 -4.1834002 2.0050068
-5.7439961 -4.1900039 1.9984926
-5.7381606 -4.1969318 1.9925416
-5.7388725 -4.2046003 2.0079441
-5.7354803 -4.2274342 2.0099277
-5.7171021 -4.229032 2.0063138
-5.7247558 -4.2299657 2.0075336
-5.7107954 -4.2507877 2.000504
-5.704423 -4.2482028 1.9919081
-5.7072449 -4.2578359 2.0016961
-5.6910367 -4.2647433 1.9960587
-5.6918135 -4.2804255 1.9918584
-5.6790929 -4.2761421 2.0087633
-5.6723123 -4.2984505 2.0060246
-5.6701183 -4.3032594 2.0084682
-5.6659293 -4.3155928 1.9973221
-5.6653433 -4.3214936 1.9932425
-5.6435266 -4.3193603 1.9963328
-5.6487284 -4.3367906 2.0099912
-5.6425152 -4.3429904 2.0019917
-5.6265025 -4.3389411 1.9950516
-5.6361165 -4.3616381 2.0003879
-5.62992 -4.3575954 1.9979575
-5.6068072 -4.3727641 2.0011601
-5.6064224 -4.3717418 2.0074878
-5.6035833 -4.3925447 2.0094066
-5.5918794 -4.398787 1.9933408
-5.5842438 -4.4092488 2.0073168
-5.5935068 -4.4109592 1.9917622
-5.5691009 -4.4125147 1.9978986
-5.5726833 -4.4241266 1.9959671
-5.5631952 -4.4314332 1.999213
-5.5683599 -4.4386344 1.9943672
-5.555944 -4.4488249 2.0022099
-5.5403142 -4.4647436 1.9989234
-5.5383468 -4.4639473 2.0026741
-5.5344491 -4.4775815 2.008014
-5.5266066 -4.4697266 2.0107152
-5.5247774 -4.4972911 1.9995203
-5.5184917 -4.4866176 1.9945756
-5.5060592 -4.5057049 2.0058157
-5.4955473 -4.5014935 1.9975377
-5.5017791 -4.5086465 2.0098386
-5.4928455 -4.5295954 1.9997199
-5.4760585 -4.5411363 2.0014448
-5.4825473 -4.5369425 2.0117197
-5.4652748 -4.5550947 1.9961052
-5.4626517 -4.5516586 1.9960822
-5.4573169 -4.5726581 1.996222
-5.4431663 -4.5736485 1.9947542
-5.4539495 -4.5884929 2.001909
-5.4334822 -4.5791225 2.0009763
-5.4412823 -4.6022921 2.0005827
-5.4167709 -4.6028466 2.0069239
-5.4223676 -4.6129441 2.0093989
-5.4062285 -4.6158705 2.0037334
-5.3998041 -4.6278753 2.0075727
-5.4089837 -4.6236186 2.002496
-5.3981757 -4.6403995 2.0040588
-5.3872175 -4.6494126 1.9922614
-5.3777165 -4.6556025 1.9932411
-5.3810506 -4.6677289 2.0112033
-5.3653064 -4.6740704 1.9935993
-5.369945 -4.6823258 2.0030353
-5.3482323 -4.6826134 2.0099592
-5.3440342 -4.6932092 2.001533
-5.3454909 -4.7038374 2.0086691
-5.3430982 -4.7101126 2.0076203
-5.3257718 -4.7120581 1.99734
-5.3268719 -4.7295341 2.0055869
-5.3197594 -4.7240086 1.995175
-5.3116565 -4.7283258 2.0001585
-5.3055811 -4.7434196 2.0063138
-5.2970996 -4.7496824 2.0117176
-5.2791715 -4.7607741 2.004328
-5.2743092 -4.7742186 1.9938287
-5.277863 -4.7756824 2.0001774
-5.2742701 -4.7813253 2.0077176
-5.2717156 -4.7962246 2.0007703
-5.2594314 -4.7988172 2.0037959
-5.2388902 -4.8009009 1.9997869
-5.2487502 -4.8014956 1.9988904
-5.2336164 -4.822639 2.0103214
-5.2323174 -4.8219357 2.0029013
-5.2256045 -4.8299489 1.9917922
-5.2062707 -4.8397555 1.9946315
-5.2174258 -4.8397808 2.0033913
-5.2022228 -4.8628893 1.9938823
-5.1994686 -4.8701296 1.9968394
-5.1836519 -4.8717818 2.0045595
-5.1847997 -4.8795996 1.9975426
-5.1699462 -4.8839941 1.9972682
-5.1759791 -4.899982 2.0031779
-5.1505709 -4.9014082 1.9971093
-5.1525726 -4.9028687 2.0103362
-5.1456733 -4.9117532 2.0010562
-5.1359248 -4.918561 1.9990406
-5.1374068 -4.9369431 2.0011971
-5.1283875 -4.9393597 2.0033844
-5.1164012 -4.9327579 2.0111806
-5.1166844 -4.9541116 1.9984113
-5.1039748 -4.9474306 2.0084898
-5.0915294 -4.9536114 2.0098133
-5.0931644 -4.9612222 1.9969343
-5.0808582 -4.977684 2.0098083
-5.075315 -4.9941049 2.0010023
17.814304 -0.99709129 0.49407789
17.807411 -0.95895147 0.47989056
17.814459 -0.9415679 0.49290371
17.804823 -0.91110742 0.49214703
17.801355 -0.89650542 0.49343845
17.819223 -0.86624163 0.48065817
17.820583 -0.84100115 0.48368365
17.80855 -0.80531746 0.48750457
17.815201 -0.7935344 0.4844175
17.813957 -0.76717693 0.48068878
17.813675 -0.74268061 0.4817524
17.809378 -0.70645189 0.4961096
17.81086 -0.68451679 0.48300216
17.825319 -0.67352206 0.49550518
17.818987 -0.64726591 0.49775839
17.813911 -0.62437814 0.48542181
17.816021 -0.58133262 0.4934704
17.821123 -0.57148677 0.49234575
17.830009 -0.53612316 0.49814561
17.815775 -0.52310002 0.48544291
17.817776 -0.49142298 0.49237484
17.820807 -0.46507096 0.49067247
17.818159 -0.43823135 0.48604068
17.822371 -0.41789103 0.4875378
17.81905 -0.38480675 0.49042386
17.837948 -0.35768712 0.49132931
17.824474 -0.34931248 0.4904106
17.839014 -0.31665742 0.49446693
17.832394 -0.29590103 0.48901495
17.831541 -0.27013046 0.49171305
17.83795 -0.24307445 0.48121417
17.831255 -0.21366943 0.4921923
17.822823 -0.18755828 0.48513407
17.829725 -0.15784848 0.49353933
17.838089 -0.15203702 0.4901512
17.829306 -0.10787079 0.48900428
17.841391 -0.097686395 0.4913528
17.832523 -0.073435299 0.48147655
17.827679 -0.03624218 0.48747617
17.837347 -0.020307234 0.49436527
17.847624 0.0049694311 0.61374909
17.849417 0.039939433 0.62733549
17.842152 0.066177957 0.62215048
17.847795 0.079053171 0.62179232
17.841808 0.10006215 0.62236232
17.8524 0.13209091 0.62221497
17.841808 0.15604483 0.62736815
17.853533 0.19100514 0.61188835
17.855343 0.20102815 0.62871748
17.843121 0.24066183 0.61659729
17.857752 0.25260425 0.62156671
17.841412 0.28635642 0.61659676
17.838623 0.31289649 0.61295593
17.850615 0.32516614 0.61728102
17.842213 0.35157058 0.617706
17.854347 0.38872162 0.62525076
17.846298 0.41547233 0.61184078
17.843369 0.4341712 0.6284827
17.844925 0.45494187 0.61023962
17.843275 0.48378393 0.62672251
17.849468 0.50758648 0.61024058
17.840599 0.53541297 0.62260413
17.846724 0.56084973 0.61660147
17.849173 0.57871169 0.61796284
17.835913 0.60864067 0.62082368
17.843042 0.63120669 0.61593121
17.837683 0.66626221 0.61288589
17.838877 0.67896044 0.62363666
17.836679 0.71382153 0.61025602
17.836205 0.7276746 0.62081641
17.832178 0.74839932 0.61027914
17.831633 0.78096515 0.6226691
17.823418 0.80040205 0.61559761
17.829165 0.8230691 0.62149096
17.836239 0.85329139 0.61241734
17.826139 0.87149388 0.62101483
17.831112 0.90522122 0.61977422
17.833006 0.9410634 0.62633944
17.825615 0.95566237 0.62287468
17.824808 0.99077493 0.62837332
17.814528 1.0028839 0.62970835
21.425718 2.8635798 0.11404611
21.220201 2.8629429 0.13323763
21.032827 2.8659258 0.17116264
20.824533 2.8686943 0.18580808
20.632603 2.8681993 0.21703182
20.41559 2.8810227 0.2532571
20.228916 2.8820093 0.27681598
20.218428 2.8980589 0.28271848
20.211315 2.9447043 0.27265441
20.219839 2.9652689 0.28220734
20.201071 3.0020518 0.26821581
20.205822 3.0137739 0.2701776
20.203169 3.0585446 0.27226681
20.191841 3.0754106 0.27482289
20.18856 3.1006997 0.27513641
20.189905 3.1292946 0.26707971
20.180878 3.1714954 0.27936965
20.364622 3.2181005 0.252929
20.378376 3.2510536 0.2514762
20.362026 3.2766299 0.24237759
20.355188 3.3075762 0.24185756
20.354321 3.3274517 0.24486086
20.355375 3.3688896 0.24444203
20.338478 3.3832557 0.25270215
20.344099 3.418637 0.23807046
20.329992 3.4396989 0.24385877
20.327789 3.4761076 0.24367908
20.317839 3.5048633 0.25106946
20.327965 3.5318687 0.24298307
20.316599 3.5670593 0.25204936
20.316093 3.5799885 0.24364474
20.315029 3.6166642 0.246705
20.29693 3.6390483 0.2427987
20.29837 3.6692302 0.24486089
20.288033 3.7097657 0.25391337
20.283024 3.7409682 0.25564307
20.283764 3.7547812 0.24540368
20.284285 3.7834945 0.25554901
20.272156 3.8072257 0.24433543
20.2719 3.8445222 0.23995526
20.260674 3.8662853 0.24015372
20.261002 3.8919952 0.24868448
20.24435 3.9246547 0.25126305
20.243753 3.963845 0.25569412
20.245178 3.9778264 0.25233847
20.235617 4.0119672 0.25187039
20.227747 4.0520549 0.25690752
20.229597 4.0779109 0.24235739
20.221554 4.0969248 0.24324547
20.202257 4.1210103 0.25314447
20.19854 4.1592336 0.25652853
20.194983 4.1831899 0.25735167
20.199917 4.21594 0.24257128
20.381403 4.2742481 0.21216726
20.373211 4.2991047 0.21405555
20.361624 4.339963 0.22184446
20.369528 4.3585525 0.2214893
20.362431 4.3846335 0.21876565
20.360744 4.4283519 0.22683947
20.339905 4.4584932 0.23079035
20.328926 4.4706779 0.22476414
20.341291 4.5051041 0.21450208
20.334438 4.5303025 0.22880569
20.312767 4.5688515 0.21257018
20.307211 4.5851822 0.21275292
20.303503 4.6159391 0.22536382
20.307545 4.6406541 0.22814246
20.291191 4.6843638 0.22858901
20.292076 4.7125182 0.22434899
20.280993 4.7260056 0.22185434
20.273823 4.754725 0.22315685
20.260586 4.7820597 0.23050675
20.257048 4.8288336 0.21468501
20.247774 4.8402658 0.22905119
-5.9747601 -4.5782838 1.9961694
-5.9662786 -4.5818319 2.0003805
-5.9620695 -4.6020241 1.9935105
-5.9358563 -4.5993557 1.9988998
-5.9439011 -4.6111608 1.9942546
-5.9412417 -4.6107879 1.9996259
-5.9215064 -4.6248903 1.9998231
-5.9243059 -4.6429272 2.0007942
-5.9124527 -4.6470165 2.0050101
-5.9115152 -4.6445184 1.9913038
-5.8940573 -4.6525354 2.0000496
-5.9021339 -4.6584725 1.9935851
-5.8859887 -4.6666131 1.9952577
-5.8767014 -4.6749649 2.0079186
-5.8820133 -4.6977983 1.9970856
-5.8719592 -4.7044191 1.9949275
-5.8565221 -4.7177644 2.0069599
-5.8608766 -4.7203798 2.0092394
-5.8442483 -4.7176247 1.9957043
-5.8433928 -4.7404251 1.9929334
-5.8362322 -4.7322736 2.010402
-5.8203144 -4.7587152 2.0101812
-5.8308496 -4.7555399 2.0100582
-5.8197007 -4.7696171 2.0098126
-5.8158798 -4.775558 1.9949543
-5.8028808 -4.778007 2.0016861
-5.792028 -4.7915936 2.0032742
-5.7891321 -4.7961197 2.0104396
-5.7839451 -4.8106151 2.0085442
-5.7722816 -4.810863 1.992022
-5.7633781 -4.8305697 1.9918168
-5.7569947 -4.8409905 1.9933252
-5.7508211 -4.8485889 2.0061555
-5.7447591 -4.8516927 1.9930458
-5.7389312 -4.8576407 2.0021231
-5.7279506 -4.8572659 1.9968699
-5.730227 -4.8727264 2.0061395
-5.7109036 -4.8719902 1.9989825
-5.7044044 -4.8927774 2.0054209
-5.699789 -4.8886237 1.9996923
-5.6916847 -4.9022989 2.0023282
-5.6837745 -4.9163356 2.0026057
-5.694345 -4.9109535 2.0033376
-5.6720738 -4.9262757 2.0090094
-5.6629014 -4.9425488 1.9967667
-5.6646404 -4.9346299 1.9929233
-5.6516218 -4.9557877 2.0016339
-5.6493225 -4.9644341 1.9990861
-5.6541691 -4.9734035 2.003747
-5.632566 -4.9845915 2.0005479
-5.6366811 -4.9745202 1.9916503
17.814421 -0.97968096 0.61949599
17.818615 -0.96965271 0.61119604
17.82939 -0.94086957 0.62387508
17.832794 -0.91382992 0.62659943
17.836964 -0.89250052 0.62719196
17.831945 -0.86221218 0.61167938
17.831493 -0.83915621 0.61423135
17.835009 -0.82240415 0.62731016
17.829973 -0.7851091 0.62869751
17.842438 -0.76156104 0.61758077
17.831987 -0.73484141 0.61705977
17.842789 -0.72530383 0.62169576
17.845257 -0.68633205 0.61024165
17.840368 -0.66526395 0.62095213
17.838169 -0.64129794 0.62811524
17.836529 -0.62358767 0.62068802
17.83934 -0.58753127 0.61143649
17.844669 -0.56912863 0.61405504
17.843042 -0.53689498 0.62908506
17.842768 -0.51329547 0.622778
17.851343 -0.50121015 0.61830395
17.839361 -0.45935199 0.61847931
17.85198 -0.43602106 0.61273694
17.853111 -0.41853836 0.62317187
17.844917 -0.38417953 0.61268049
17.843851 -0.37235212 0.61500597
17.855324 -0.33856881 0.62849313
17.857512 -0.3202776 0.61548716
17.842281 -0.28439975 0.6098178
17.842047 -0.269548 0.62284982
17.855471 -0.24683912 0.62306815
17.844385 -0.21679415 0.62024456
17.853441 -0.19477716 0.61585087
17.856718 -0.17224233 0.62403804
17.850397 -0.13847917 0.62168133
17.85355 -0.12632467 0.62624854
17.858992 -0.083206072 0.61969483
17.857887 -0.058374982 0.62652743
17.843742 -0.04921288 0.62433231
17.843893 -0.020689795 0.61208284
17.874033 0.004193176 0.74808347
17.867359 0.034373641 0.75877398
17.857828 0.053309202 0.74657387
17.863867 0.075257458 0.75200057
17.858059 0.11065324 0.74628204
17.86986 0.12900518 0.74780941
17.866192 0.15263869 0.74754643
17.875937 0.17504089 0.7472055
17.872478 0.20320572 0.75111735
17.866791 0.23146376 0.75864297
17.86882 0.25284702 0.74283618
17.856365 0.28757381 0.75227666
17.874567 0.3128204 0.7557196
17.860533 0.32419315 0.75617784
17.871891 0.34987915 0.74709898
17.857496 0.38752162 0.75143945
17.864595 0.40168771 0.75448096
17.871395 0.42582372 0.7549926
17.857819 0.46676216 0.75873727
17.86812 0.48230785 0.74580854
17.865911 0.50021124 0.74933219
17.867863 0.52602506 0.74265212
17.859219 0.55043966 0.75628871
17.853983 0.58125496 0.7563687
17.849171 0.60389757 0.75720596
17.855246 0.63264889 0.75075769
17.865625 0.64903635 0.75354815
17.859011 0.69279689 0.75554812
17.852875 0.70358944 0.75356078
17.850449 0.72532588 0.74219435
17.855059 0.76553184 0.74380738
17.843157 0.78840035 0.74631131
17.84454 0.80337185 0.74830794
17.839525 0.83388931 0.75619894
17.854557 0.86041093 0.74181288
17.850389 0.87385774 0.75125957
17.839741 0.89857018 0.7521764
17.851847 0.93758976 0.75193763
17.845917 0.951428 0.7575767
17.837967 0.9838295 0.76003879
17.838614 1.0018655 0.7577948
22.648006 2.8358319 0.11745106
22.45256 2.8370957 0.15150394
22.251047 2.8603022 0.16923961
22.045198 2.8568294 0.1898175
21.847374 2.8655977 0.21981755
21.652683 2.8721819 0.24002683
21.452044 2.879312 0.26825306
21.242294 2.8703742 0.30377877
20.853865 2.8476672 0.34801212
20.646187 2.8456898 0.37159628
20.455032 2.8530979 0.40437579
20.239563 2.8453288 0.431676
20.249525 2.8841777 0.4308857
20.232075 2.9179449 0.42099008
20.230053 2.9346237 0.41478506
20.232882 2.9573209 0.43064168
20.230772 3.000056 0.42966068
20.231739 3.0136886 0.41632888
20.223083 3.0561068 0.42422199
20.208405 3.0713885 0.42810857
20.21216 3.1160223 0.41792849
20.203548 3.1456592 0.4190588
20.197086 3.1692426 0.43078378
20.189795 3.1993988 0.42802745
20.19257 3.2115967 0.43370697
20.189098 3.2507267 0.4138467
20.181446 3.2718892 0.42849004
20.368593 3.3301969 0.40343106
20.366503 3.3723478 0.39767987
20.372267 3.4040794 0.39899647
20.361877 3.4238665 0.39673927
20.361269 3.4593794 0.39591718
20.341751 3.4728091 0.39048269
20.353918 3.5033653 0.40701497
20.343288 3.5411522 0.40756169
20.338299 3.5599647 0.39906147
20.33341 3.5956593 0.40355298
20.323126 3.6272552 0.40619195
20.312851 3.6414204 0.40255058
20.316786 3.6860478 0.40221605
20.301996 3.7050242 0.3932505
20.304911 3.7281694 0.39138639
20.306965 3.7566135 0.3945471
20.303543 3.7820816 0.3998659
20.296616 3.8218172 0.39458027
20.290195 3.8414998 0.39972275
20.275234 3.881269 0.3921825
20.264725 3.8957684 0.40786767
20.276815 3.9250476 0.38935459
20.265226 3.963356 0.40711272
20.253262 3.9920096 0.3954981
20.252293 4.0087514 0.39868665
20.24942 4.0527592 0.40198463
20.249668 4.0785985 0.40242332
20.235197 4.1028018 0.3942776
20.235399 4.1259151 0.39750189
20.220705 4.1594386 0.39219037
20.218431 4.1878638 0.39308053
20.211803 4.213829 0.39496011
20.206623 4.2536936 0.40686557
20.199162 4.2671227 0.39915007
20.200045 4.3051505 0.39990959
20.378103 4.3674364 0.37130868
20.385338 4.3943648 0.3654052
20.372971 4.432508 0.37546149
20.372417 4.4565787 0.38039592
20.355049 4.4917207 0.3706266
20.352331 4.5103931 0.38106322
20.350462 4.5482807 0.36925432
20.330433 4.5668712 0.36910719
20.342272 4.6039219 0.3741945
20.326353 4.6278186 0.36912343
20.311155 4.6617494 0.37663704
20.312426 4.6890125 0.38263908
20.307755 4.7100463 0.37835211
20.293098 4.7367053 0.36971304
20.303337 4.7722139 0.36780134
20.283768 4.7912602 0.37615615
20.274595 4.814734 0.3740018
20.273575 4.8445153 0.38204956
17.831907 -0.97506493 0.75410897
17.848091 -0.94240451 0.74790853
17.848497 -0.91602188 0.75863767
17.841038 -0.89328665 0.75552464
17.838257 -0.86218065 0.75483894
17.854424 -0.84817445 0.75986075
17.85416 -0.81820595 0.75720835
17.848171 -0.79038441 0.75748724
17.854374 -0.76884425 0.74882829
17.853197 -0.73334563 0.74360466
17.853079 -0.70745897 0.74375635
17.848011 -0.68673158 0.75167155
17.85671 -0.66690522 0.74107063
17.856102 -0.63581121 0.74830443
17.852346 -0.60873729 0.74174196
17.847872 -0.58670163 0.74428165
17.848383 -0.56609672 0.75188422
17.866207 -0.53261685 0.74240106
17.864275 -0.51403302 0.74954915
17.853649 -0.49769163 0.74728554
17.857765 -0.46249914 0.74599677
17.861998 -0.43336892 0.74052221
17.854111 -0.41650137 0.74995941
17.855589 -0.40116748 0.74557471
17.864265 -0.37048027 0.74334669
17.866344 -0.3451255 0.75823599
17.870928 -0.32008138 0.74881059
17.863079 -0.2980004 0.74794436
17.865713 -0.25860372 0.74074012
17.875462 -0.25055036 0.74495459
17.862909 -0.21906395 0.75943768
17.869034 -0.18399289 0.75812632
17.86965 -0.17742202 0.74875689
17.859669 -0.14995229 0.74979496
17.865267 -0.11434995 0.75659299
17.868603 -0.09717752 0.74381787
17.866793 -0.075895354 0.75115824
17.875525 -0.042900931 0.75565034
17.863352 -0.027677478 0.75460923
17.879982 0.00023220526 0.88725972
17.884747 0.031968586 0.87589711
17.883961 0.069529593 0.8746742
17.881826 0.087440602 0.87509042
17.890289 0.11513875 0.87804431
17.879755 0.12823929 0.87166816
17.875984 0.16451415 0.87753183
17.879404 0.17885259 0.87974477
17.890129 0.20182915 0.89001924
17.885311 0.23257753 0.89058399
17.879417 0.26389351 0.87081623
17.87557 0.27999142 0.87782925
17.880325 0.31535438 0.87744784
17.883823 0.32867095 0.89002204
17.887703 0.35057166 0.88533914
17.874502 0.38209453 0.88880169
17.874889 0.41003752 0.88358432
17.881105 0.44162551 0.88775092
17.869499 0.4641988 0.88993984
17.868134 0.48224944 0.87792343
17.867298 0.51473629 0.87226957
17.866659 0.54374111 0.87776083
17.872997 0.55790126 0.87366265
17.878922 0.57599372 0.87792939
17.877384 0.61843479 0.87914568
17.871128 0.62817818 0.8869344
17.868301 0.65884769 0.87771642
17.880222 0.67630702 0.87513751
17.876274 0.70276904 0.89018381
17.874481 0.72850817 0.87833351
17.860636 0.75408918 0.8740238
17.861101 0.77974415 0.87377357
17.867025 0.81248605 0.88273919
17.868814 0.83193356 0.88485408
17.854836 0.85066068 0.88446784
17.86204 0.88398457 0.88888407
17.856997 0.91536766 0.87903017
17.862701 0.9395926 0.88169706
17.865791 0.96082586 0.88588887
17.863894 0.98125637 0.87088406
17.850111 1.0088676 0.87652576
24.075985 2.8497026 0.11644766
23.677036 2.8272805 0.16878755
23.472622 2.849443 0.18507412
23.273876 2.8591373 0.21866935
22.87781 2.8351569 0.27371886
22.675152 2.8369422 0.29150063
22.480614 2.8545167 0.30914244
22.269861 2.8451629 0.32934809
22.073544 2.8551428 0.35169834
21.872683 2.8718474 0.38332668
21.6653 2.8701193 0.40159315
21.270363 2.8410027 0.45453015
21.077366 2.8540347 0.47672302
20.877031 2.8488739 0.49991816
20.666668 2.8452761 0.53533661
20.464073 2.8594937 0.54523551
20.275637 2.8596227 0.56595987
20.257847 2.8773363 0.56747854
20.256563 2.9196789 0.57333952
20.253933 2.9420786 0.57082301
20.259233 2.9779847 0.58205169
20.239103 2.9966617 0.56645727
20.244553 3.0231328 0.58075351
20.228497 3.0500259 0.5673027
20.231937 3.0872781 0.5682233
20.2271 3.1026216 0.58188534
20.228464 3.1301799 0.57475501
20.226854 3.1639361 0.57705873
20.206722 3.2004375 0.57343107
20.212414 3.2183759 0.56393504
20.215548 3.2457211 0.58208245
20.209873 3.277081 0.57065016
20.188562 3.3180757 0.577438
20.201509 3.3272398 0.582874
20.180967 3.3641098 0.5773229
20.181305 3.4004455 0.57888222
20.371082 3.455606 0.5561142
20.377827 3.4806936 0.54253983
20.366837 3.5100718 0.55725211
20.352177 3.5496016 0.5416941
20.347982 3.5767663 0.54527891
20.341898 3.6027949 0.55202758
20.344339 3.6320925 0.55158144
20.333529 3.6589556 0.55211604
20.328115 3.6899331 0.54134375
20.337111 3.7059457 0.55873704
20.327625 3.7406552 0.55000871
20.318993 3.7669315 0.5579375
20.316744 3.7870779 0.546821
20.30917 3.817467 0.54681754
20.305996 3.8486025 0.54556906
20.30637 3.8786321 0.54194617
20.293451 3.9161232 0.55922502
20.280046 3.9278634 0.55497801
20.287138 3.9592888 0.55332673
20.283417 3.9848483 0.55931336
20.27705 4.0261011 0.55164218
20.261915 4.0439377 0.54188704
20.254669 4.0847836 0.54392564
20.256269 4.1033511 0.54800785
20.257824 4.1440821 0.55488771
20.238092 4.1705608 0.54346645
20.234697 4.189537 0.54121321
20.228542 4.2205634 0.5423848
20.2181 4.244175 0.54667413
20.225967 4.2695994 0.54822308
20.219784 4.2942295 0.54273266
20.205887 4.3293376 0.54679447
20.202198 4.3628526 0.54342562
20.200506 4.383657 0.55035555
20.376881 4.4541211 0.52609724
20.386013 4.4885206 0.52372378
20.363686 4.5253348 0.5320816
20.359066 4.5418425 0.52322954
20.355576 4.5737967 0.52976096
20.356337 4.599546 0.5334968
20.338608 4.6250772 0.53365165
20.335348 4.6627188 0.52071136
20.336109 4.6827159 0.53309095
20.333464 4.7071066 0.51808864
20.317707 4.7399735 0.52299935
20.321312 4.7681961 0.53386945
20.302504 4.8003531 0.53312248
20.292013 4.8341918 0.52046084
17.864645 -0.9641307 0.87667251
17.84853 -0.93684423 0.87610835
17.856585 -0.91028452 0.87862164
17.861952 -0.89791071 0.88047236
17.856182 -0.86513364 0.87291563
17.866329 -0.84176654 0.87785268
17.871666 -0.82258552 0.87394947
17.862787 -0.79024476 0.88031089
17.875959 -0.76230603 0.87468976
17.868729 -0.7398299 0.87725937
17.859192 -0.71719646 0.88922113
17.866121 -0.6920234 0.88355017
17.872452 -0.66010427 0.87951779
17.88126 -0.64409178 0.88293636
17.871885 -0.61509019 0.87420732
17.874918 -0.59714621 0.88391894
17.882853 -0.57503623 0.88788366
17.86685 -0.54293889 0.87925941
17.877174 -0.51877075 0.87364268
17.881842 -0.48289892 0.88556945
17.869045 -0.4575952 0.87519538
17.868174 -0.44635874 0.88505882
17.881598 -0.40975383 0.88190436
17.870955 -0.38526717 0.88982415
17.883694 -0.37104815 0.88180596
17.887671 -0.33465353 0.88679093
17.881325 -0.31114632 0.88894397
17.878906 -0.28442976 0.87825131
17.887831 -0.26814249 0.88678259
17.891104 -0.2479057 0.88624048
17.886269 -0.2211498 0.88605595
17.891024 -0.19591309 0.87216079
17.885607 -0.17786658 0.8899225
17.877001 -0.15104268 0.88722211
17.876282 -0.11202291 0.8737911
17.887508 -0.089536384 0.87180442
17.883684 -0.073871471 0.88837397
17.881979 -0.04106354 0.88670832
17.889547 -0.019736871 0.87637776
17.900696 0.0078038909 1.0120136
17.896177 0.026882276 1.0187696
17.891439 0.050415214 1.0058086
17.892773 0.088266082 1.00594
17.891832 0.11728039 1.0079408
17.908157 0.12537786 1.0040066
17.891016 0.16454026 1.017604
17.891853 0.17975254 1.0019109
17.889225 0.2131677 1.0140705
17.904896 0.23409298 1.0026013
17.890202 0.25105965 1.0104052
17.900425 0.28352553 1.0123109
17.897371 0.31130606 1.0127729
17.90132 0.34050599 1.0061095
17.885366 0.36888707 1.0034839
17.891378 0.39374876 1.0039798
17.893421 0.40166011 1.0186622
17.889027 0.43063432 1.0035813
17.888905 0.45724088 1.0169402
17.900908 0.47981411 1.0062498
17.901405 0.50802344 1.0075514
17.889673 0.52682215 1.0163451
17.899811 0.56296629 1.007946
17.890375 0.58349478 1.0037739
17.894243 0.60853899 1.0030109
17.895449 0.64009964 1.0021379
17.877117 0.65424258 1.0042056
17.893433 0.68456507 1.0102775
17.89463 0.71537399 1.0179868
17.889154 0.73882902 1.0033011
17.892954 0.76346076 1.0118574
17.878017 0.77707314 1.014246
17.871841 0.80157173 1.0078133
17.877232 0.83741856 1.016945
17.878414 0.85795009 1.0061576
17.878799 0.88054079 1.0019689
17.878277 0.90568638 1.0069624
17.879787 0.92806929 1.0173188
17.867334 0.95260847 1.0135261
17.862556 0.99266297 1.0082314
17.863058 1.0175422 1.0026132
23.885637 2.8180737 0.32038268
23.688898 2.8362498 0.35071909
23.493053 2.8458421 0.3719115
23.289114 2.857605 0.38335314
22.893806 2.8361666 0.42864811
22.683004 2.8530898 0.45058951
22.491989 2.8536403 0.48476529
22.283665 2.8602099 0.49297813
22.09025 2.8694208 0.51813155
21.878357 2.8763559 0.54973233
21.497986 2.8353641 0.59798974
21.284348 2.8441312 0.61240429
21.078871 2.857796 0.62715524
20.892412 2.8482444 0.66496968
20.675224 2.8613496 0.67756307
20.478952 2.8642964 0.6997686
20.282454 2.856847 0.71577007
20.274752 2.8896017 0.72993606
20.273018 2.9100583 0.72767031
20.274189 2.9397097 0.7272532
20.264717 2.9671013 0.72732592
20.25905 3.0018454 0.73246604
20.265551 3.0320716 0.72812718
20.264557 3.0567665 0.73164839
20.259132 3.0851648 0.72624201
20.244055 3.1181486 0.722305
20.248936 3.1354532 0.72999662
20.227573 3.1690474 0.72213948
20.240337 3.2049379 0.72644109
20.230797 3.2260718 0.73210198
20.2208 3.2618432 0.7168681
20.210836 3.2760966 0.72809762
20.205973 3.3210399 0.72127885
20.21673 3.3492181 0.73088592
20.21097 3.3762388 0.72062826
20.199764 3.392489 0.71509761
20.204582 3.4179678 0.71862048
20.197054 3.44647 0.72749287
20.181627 3.472162 0.7240172
20.386303 3.5467446 0.6912365
20.380713 3.5621402 0.70820725
20.35985 3.5921149 0.69121158
20.370174 3.6218088 0.69094598
20.353643 3.646883 0.69065136
20.346678 3.6908586 0.70917696
20.349417 3.7083294 0.69575876
20.346584 3.735358 0.69963193
20.327234 3.7796361 0.70382679
20.336718 3.7933066 0.70553946
20.322687 3.8206708 0.69970042
20.318041 3.8473897 0.70082313
20.310328 3.8782296 0.70349365
20.305578 3.9044197 0.70743817
20.300522 3.939141 0.70804405
20.295134 3.9720011 0.70421988
20.288231 3.9927416 0.70946783
20.28787 4.0158324 0.693353
20.291344 4.0447955 0.69313216
20.278971 4.0885043 0.69820505
20.268272 4.1034827 0.70227277
20.271696 4.1391559 0.70469767
20.256201 4.1724949 0.7096079
20.263338 4.1865039 0.6923613
20.254381 4.2209172 0.70149696
20.245989 4.2554407 0.69516081
20.233734 4.288599 0.70124143
20.226688 4.3069744 0.70209658
20.223488 4.3344402 0.7036069
20.220026 4.3551908 0.70052546
20.201599 4.3909388 0.7041297
20.207201 4.4158454 0.69512266
20.195187 4.4510331 0.6911782
20.188044 4.4791722 0.69297451
20.377623 4.5474296 0.67871773
20.382229 4.5702376 0.67293859
20.36046 4.6067233 0.67207432
20.364733 4.6421342 0.68135005
20.349821 4.6603556 0.66986448
20.356379 4.6811671 0.67091089
20.339817 4.709641 0.67949528
20.326818 4.7498446 0.68478471
20.324774 4.7842035 0.67706883
20.318745 4.7976279 0.66930789
20.314472 4.8328705 0.6784066
17.876083 -0.95941883 1.0038023
17.869547 -0.93342167 1.0135446
17.8741 -0.907866 1.0066446
17.884491 -0.89214623 1.0193616
17.885065 -0.85851991 1.014503
17.875141 -0.84679776 1.007203
17.88768 -0.82032984 1.0168749
17.88047 -0.79079223 1.0190959
17.87413 -0.76408339 1.0073032
17.889975 -0.73507065 1.0153722
17.885891 -0.71604013 1.0128696
17.889269 -0.68489188 1.0114238
17.882353 -0.67050123 1.0105917
17.888504 -0.64699411 1.0205353
17.887335 -0.62415451 1.0191597
17.881275 -0.59244448 1.0045587
17.887878 -0.56936711 1.0114765
17.884119 -0.53463501 1.0029813
17.882545 -0.52734464 1.0162427
17.889145 -0.48527661 1.0135632
17.88378 -0.46832457 1.0049587
17.895876 -0.4489924 1.0025461
17.886492 -0.41753793 1.0095659
17.89624 -0.40086111 1.0151337
17.895897 -0.36624506 1.0185803
17.894144 -0.33854845 1.0087752
17.897755 -0.32507125 1.0170845
17.888248 -0.29614162 1.0151618
17.890213 -0.26953858 1.0155641
17.905403 -0.23705497 1.0130682
17.897879 -0.21062183 1.0025573
17.901714 -0.19274184 1.0064102
17.903105 -0.16486074 1.0167487
17.891478 -0.14781071 1.0187941
17.905386 -0.11164816 1.0104849
17.902704 -0.097748816 1.0049009
17.890182 -0.060713731 1.007822
17.905935 -0.033625092 1.0147001
17.899733 -0.024978148 1.0032079
17.908024 0.0018033623 1.1500145
17.919651 0.03742969 1.1474909
17.920732 0.056591608 1.1378725
17.905632 0.076876335 1.1511599
17.920835 0.10530376 1.1365218
17.918051 0.12744153 1.1330705
17.906919 0.16673625 1.1385424
17.910172 0.19338281 1.1360731
17.916307 0.2156904 1.1357161
17.909288 0.23173617 1.1390295
17.910742 0.26192245 1.1408328
17.908176 0.28375334 1.1332662
17.903055 0.30671778 1.1398652
17.908278 0.33466873 1.1417527
17.906755 0.35794461 1.1470717
17.910559 0.37859076 1.1495326
17.910875 0.40829793 1.1462926
17.91663 0.4414821 1.1447039
17.899879 0.46106434 1.1404278
17.902739 0.49392268 1.147203
17.908875 0.50856483 1.1391702
17.89678 0.54100829 1.1479746
17.897083 0.56872928 1.1347505
17.903952 0.58210939 1.1444848
17.912672 0.61443591 1.132503
17.906677 0.63107085 1.1361762
17.903107 0.66856277 1.1445661
17.896263 0.69238359 1.1411505
17.907795 0.70006394 1.1323283
17.895016 0.73124677 1.1513764
17.888977 0.76924533 1.1400795
17.894871 0.77586299 1.13624
17.889534 0.80353308 1.1351365
17.89094 0.83885449 1.1424291
17.902042 0.86371481 1.1370653
17.901131 0.88343287 1.1433548
17.883856 0.90046954 1.1421556
17.894936 0.93158478 1.1397982
17.882566 0.95518982 1.140143
17.881338 0.98700857 1.1466943
17.879126 1.0138161 1.146269
23.919462 2.8274035 0.50578648
23.703175 2.8335202 0.51459932
23.513735 2.8459115 0.53101206
23.302448 2.8481753 0.56468821
22.920719 2.8347111 0.59968609
22.716877 2.8355494 0.61637264
22.517342 2.8588319 0.64098579
22.309036 2.8619845 0.66682845
22.096409 2.8616705 0.6870957
21.707491 2.8433084 0.73173016
21.510756 2.8430171 0.74343503
21.306524 2.8473597 0.77143627
21.110382 2.863162 0.78256571
20.909935 2.8485599 0.80725265
20.702444 2.8505068 0.83470559
20.50848 2.8694131 0.85568005
20.290485 2.8695619 0.87317687
20.293335 2.8901141 0.86686969
20.301233 2.9193151 0.87460148
20.288607 2.9380884 0.86463773
20.27907 2.9813092 0.87012404
20.280445 3.0014472 0.87625039
20.269028 3.0265625 0.87503272
20.267946 3.0523143 0.87662262
20.270761 3.0916257 0.87812501
20.260235 3.1179881 0.87705523
20.249891 3.1473346 0.87521136
20.25625 3.1635253 0.86559409
20.256264 3.1916497 0.87685752
20.243971 3.2312214 0.87858003
20.241673 3.2653687 0.87521434
20.244822 3.2850432 0.86368388
20.234058 3.317493 0.86897153
20.222038 3.3330941 0.87171978
20.211567 3.3757803 0.86549419
20.222561 3.392251 0.87735164
20.212444 3.4227278 0.87028241
20.200445 3.463954 0.87113678
20.198788 3.4896224 0.87185442
20.188356 3.5074649 0.86388916
20.199608 3.5475175 0.88182282
20.187452 3.5752668 0.87118888
20.37958 3.6316533 0.84401584
20.381054 3.6661036 0.84496766
20.365238 3.6947489 0.86038285
20.363157 3.7190909 0.84405249
20.352894 3.7380605 0.84998924
20.355522 3.7698133 0.84894925
20.338964 3.8047323 0.84538144
20.343084 3.8340807 0.85146672
20.339201 3.859581 0.84942192
20.33321 3.8778675 0.84695053
20.316547 3.9174094 0.8578822
20.313423 3.9434948 0.85482889
20.311213 3.9788713 0.85199249
20.304377 3.9973137 0.8450774
20.30117 4.0306792 0.84871799
20.303864 4.0518985 0.85570496
20.285475 4.0818262 0.84921181
20.28348 4.1211796 0.84367526
20.287531 4.1419935 0.85525471
20.269497 4.1622009 0.85674369
20.268951 4.1911688 0.84940547
20.2593 4.222477 0.8597908
20.266554 4.2570772 0.85719877
20.250933 4.2903838 0.84470284
20.248358 4.3060675 0.857234
20.249382 4.3300648 0.84265393
20.237356 4.3613348 0.84967864
20.218796 4.3963108 0.84774178
20.214661 4.4210773 0.85831195
20.222065 4.4535894 0.86079109
20.210918 4.4713759 0.84394753
20.212397 4.5053682 0.85012943
20.204218 4.5325131 0.84263706
20.387447 4.6137729 0.83943248
20.384043 4.6349058 0.8244071
20.373129 4.6630807 0.82512945
20.367596 4.6852837 0.82888126
20.349047 4.7150216 0.83937645
20.34852 4.746758 0.82641423
20.338526 4.7720728 0.837749
20.330971 4.8124542 0.83866376
20.326532 4.8405643 0.82537317
17.895405 -0.97578287 1.1366965
17.883318 -0.94627571 1.1501198
17.896114 -0.91870683 1.1394355
17.881241 -0.90034831 1.1382829
17.882666 -0.8613916 1.1373906
17.898684 -0.84918135 1.1493403
17.900631 -0.81410283 1.1474814
17.897799 -0.78602332 1.1498194
17.899357 -0.75996077 1.1337217
17.888493 -0.73317462 1.1436359
17.893396 -0.70890951 1.1455408
17.89888 -0.69807833 1.1519929
17.897753 -0.6757611 1.1410521
17.905905 -0.64959401 1.1435062
17.89287 -0.62324518 1.1399515
17.898907 -0.60208517 1.1436399
17.89686 -0.56015062 1.1374382
17.912918 -0.54218549 1.1343455
17.911282 -0.5237639 1.1323435
17.913509 -0.49727413 1.1521542
17.905619 -0.46691319 1.151255
17.899597 -0.45206723 1.1362106
17.899994 -0.41931289 1.1385057
17.909414 -0.39933446 1.141989
17.901253 -0.37328467 1.1468407
17.909504 -0.3420558 1.1478708
17.901407 -0.31369832 1.1458528
17.907074 -0.29007098 1.1368161
17.909613 -0.26883599 1.141216
17.910114 -0.2460911 1.1471198
17.910393 -0.21192206 1.1383975
17.909737 -0.18442406 1.1395334
17.914001 -0.177145 1.1484348
17.920527 -0.1410258 1.1323251
17.9105 -0.11361244 1.1372747
17.905291 -0.098459624 1.1484621
17.921076 -0.07187894 1.1430153
17.914808 -0.040072195 1.1362032
17.919468 -0.02613207 1.1456332
17.921667 0.011256876 1.2637033
17.916557 0.025288591 1.2800596
17.922689 0.058362968 1.2789193
17.929924 0.075435586 1.2800633
17.926023 0.11880153 1.2723311
17.92598 0.13194396 1.2670168
17.930849 0.15971452 1.2718594
17.926872 0.18314333 1.2782867
17.917414 0.20021231 1.2715245
17.921108 0.24188474 1.2737064
17.934196 0.25256047 1.2649633
17.914433 0.2781432 1.2652371
17.930988 0.30991063 1.2735708
17.926371 0.32899854 1.2739624
17.922861 0.3643083 1.2727056
17.931585 0.37973014 1.2795769
17.914959 0.40021366 1.2692049
17.923141 0.43694624 1.2772479
17.917715 0.46448094 1.2773466
17.925493 0.47600573 1.2741047
17.915417 0.50095052 1.2765261
17.916563 0.52649647 1.2795181
17.917948 0.56899995 1.2692661
17.907633 0.58732045 1.2730912
17.917673 0.60260201 1.2672157
17.906422 0.62711221 1.2717524
17.922007 0.65553683 1.2717638
17.907185 0.69271839 1.2634997
17.920372 0.70508415 1.277763
17.913622 0.72587198 1.2785448
17.903595 0.75726366 1.2792659
17.915956 0.79051596 1.2805284
17.911272 0.80590272 1.279291
17.916304 0.83175743 1.2713717
17.905123 0.8684718 1.2737328
17.908033 0.89478886 1.2756039
17.895445 0.91757995 1.2809008
17.902834 0.9264729 1.2783816
17.901924 0.96951079 1.263232
17.895241 0.98679227 1.2638752
17.889305 1.0150754 1.2709166
23.934181 2.8269184 0.67736459
23.727047 2.8391798 0.70396423
23.524912 2.84166 0.72020328
23.12867 2.8229957 0.75378495
22.922773 2.8441343 0.77423835
22.730864 2.8497133 0.79984236
22.525675 2.8638492 0.80622202
22.323095 2.8670661 0.82688385
21.919758 2.8386111 0.86991483
21.714506 2.8412964 0.89561492
21.528624 2.8581395 0.90330821
21.319849 2.848917 0.93343544
21.118406 2.858608 0.93677282
20.913939 2.8506863 0.95685476
20.724487 2.8578405 0.99019587
20.516226 2.8540337 1.0017937
20.314306 2.865962 1.0207624
20.316597 2.8841901 1.0174413
20.300209 2.9179289 1.0255144
20.308216 2.9477749 1.031454
20.302586 2.9730685 1.0299751
20.285309 3.0108852 1.0155683
20.29882 3.0285254 1.0277039
20.276333 3.0629292 1.0293257
20.274588 3.0890803 1.0160656
20.286844 3.1281335 1.0175192
20.271362 3.1463938 1.0299776
20.275509 3.1709418 1.0123173
20.256296 3.2031405 1.0200551
20.265116 3.227423 1.0293033
20.259836 3.2501905 1.0155159
20.253038 3.2798374 1.0312213
20.251795 3.3071918 1.0162488
20.242647 3.3362925 1.0273681
20.235081 3.3679223 1.0163325
20.234217 3.3961232 1.01605
20.234764 3.4331944 1.0257337
20.227734 3.4588058 1.0316776
20.223001 3.4896357 1.0215384
20.205969 3.5137575 1.0274062
20.198143 3.5371106 1.0277723
20.196493 3.5782163 1.0295224
20.190508 3.6026673 1.0303704
20.18951 3.6225996 1.032069
20.179592 3.6596348 1.0171537
20.374447 3.7161734 1.0029037
20.373083 3.7426209 0.99679327
20.361364 3.7668231 1.0080703
20.355549 3.8111193 1.0019604
20.359554 3.8232474 1.011762
20.349388 3.8524556 0.99671334
20.339548 3.8849564 0.99457371
20.331417 3.9164553 1.0086956
20.344097 3.9519796 0.99456722
20.338434 3.9826486 1.0092984
20.317818 3.9974265 0.99673903
20.32221 4.0360312 1.0021925
20.320452 4.0681458 1.0034206
20.309933 4.0797143 1.0005249
20.293262 4.1205974 1.0013446
20.286354 4.136663 1.0029672
20.284359 4.1682768 1.0086932
20.280184 4.1971893 0.99752778
20.27009 4.2242484 0.99350417
20.265829 4.2511525 1.0117747
20.27626 4.2829862 0.99645603
20.254093 4.3047986 1.0113826
20.257339 4.3504786 1.0100721
20.241774 4.3713036 1.0119866
20.243275 4.4011641 1.0064486
20.245554 4.4298606 1.0086485
20.229416 4.4623451 0.99414289
20.218966 4.4764776 1.0002384
20.217312 4.5063801 1.0050895
20.211594 4.5379243 1.0085497
20.204105 4.5658412 0.99555671
20.201262 4.5975714 0.99609751
20.387362 4.6629405 0.97474951
20.377991 4.6947031 0.98526388
20.370497 4.7340646 0.97738522
20.357424 4.7618442 0.9899587
20.36651 4.779665 0.9867807
20.361053 4.8132524 0.98950803
20.341652 4.8314419 0.97391945
17.895967 -0.96174461 1.2706615
17.907143 -0.93863326 1.2631403
17.896862 -0.91194409 1.2803886
17.911934 -0.88968307 1.2684991
17.904869 -0.86555183 1.2740914
17.899973 -0.84939766 1.2777941
17.906199 -0.81565702 1.2660631
17.899075 -0.79773057 1.2762058
17.912897 -0.75925463 1.2646132
17.917719 -0.7417171 1.2673017
17.91641 -0.71002448 1.2639642
17.90497 -0.68850297 1.2787597
17.905975 -0.6585747 1.2752643
17.904192 -0.63485169 1.2690479
17.910486 -0.61943632 1.2819788
17.922337 -0.59012502 1.2660785
17.917854 -0.57576138 1.2789317
17.921606 -0.54966056 1.2647226
17.915466 -0.51084101 1.2639991
17.9177 -0.48826835 1.2758213
17.922585 -0.46803665 1.2743428
17.924099 -0.44024372 1.2693911
17.920374 -0.41241071 1.2693715
17.913116 -0.38728946 1.2680775
17.919609 -0.37676942 1.2772001
17.918999 -0.33525845 1.2706342
17.922451 -0.31905383 1.2734308
17.918724 -0.29988658 1.277326
17.920752 -0.26761407 1.2750374
17.92202 -0.23382898 1.2703172
17.915077 -0.21584292 1.2808232
17.92662 -0.19699335 1.274116
17.933176 -0.16248481 1.2702347
17.919678 -0.13581283 1.2664666
17.924852 -0.12319389 1.2682098
17.919113 -0.091697 1.2664545
17.926773 -0.077222556 1.2758936
17.917194 -0.04691739 1.2794892
17.931477 -0.014990696 1.2703458
18.73246 0.0011539336 1.329583
18.739656 0.0278283 1.3421865
18.737324 0.065744206 1.3286265
18.728249 0.089949898 1.3245617
18.735254 0.12042574 1.3421553
18.738455 0.1358777 1.327354
18.743362 0.16542837 1.3390352
18.726479 0.20251179 1.3401765
18.738998 0.20992453 1.3266084
18.735075 0.2515617 1.3399525
18.741974 0.26513463 1.3411064
18.728464 0.30592304 1.3227904
18.727522 0.32443297 1.336246
18.732985 0.35395715 1.3277633
18.734344 0.37061417 1.3236123
18.733261 0.41063592 1.3287696
18.737341 0.43576556 1.337334
18.733065 0.46424776 1.3368386
18.729895 0.48552153 1.3376131
18.733118 0.50318235 1.3338822
18.72965 0.5280869 1.3375823
18.727301 0.55986476 1.3359294
18.726597 0.59111929 1.3266454
18.719313 0.60829043 1.3407453
18.723511 0.64731348 1.3253626
18.72352 0.66578186 1.3238627
18.728649 0.68889415 1.3413541
18.722307 0.70833164 1.3411906
18.715435 0.7452355 1.3361642
18.729298 0.76603764 1.342663
18.719395 0.8040821 1.3279319
18.713156 0.82052261 1.338845
18.725227 0.83704323 1.3348801
18.707977 0.86709952 1.3419549
18.704792 0.90220869 1.3419226
18.706186 0.91821975 1.3342297
18.706045 0.9602899 1.3235214
18.70336 0.97698355 1.326124
18.700474 1.0078051 1.3395056
23.947046 2.8219309 0.85600471
23.748835 2.8458889 0.86189181
23.544615 2.8503554 0.88773793
23.149345 2.8279693 0.91814536
22.948376 2.8430357 0.94910252
22.741005 2.8509414 0.95683914
22.546316 2.8506751 0.98170078
22.339804 2.8658226 1.001196
21.941019 2.843888 1.0282664
21.734705 2.853231 1.0564756
21.535065 2.8466327 1.0558043
21.328695 2.8630283 1.0892568
21.130402 2.8563888 1.0978993
20.940142 2.8533802 1.1195751
20.724638 2.8705113 1.1284326
20.522284 2.8613591 1.1578687
20.329859 2.8585792 1.1802689
20.321714 2.8983221 1.1737607
20.315184 2.9184012 1.1651806
20.319994 2.953661 1.1811216
20.315132 2.9707479 1.1661996
20.311716 3.0029004 1.1639653
20.303869 3.0381618 1.171941
20.30678 3.0645347 1.1743141
20.293486 3.0967391 1.1717811
20.291164 3.1278889 1.178615
20.280397 3.1478772 1.1817449
20.274147 3.1837218 1.1762519
20.281349 3.1970744 1.1624779
20.279932 3.2393186 1.1756088
20.274414 3.2608199 1.177478
20.253937 3.2830632 1.1631564
20.251186 3.3216572 1.175759
20.256371 3.3474014 1.1664031
20.243889 3.3841276 1.1809261
20.248835 3.4028499 1.1782796
20.240576 3.4351609 1.1673081
20.235407 3.4656169 1.163874
20.224705 3.48771 1.1654917
20.22019 3.5128598 1.1810586
20.228765 3.5370073 1.1698383
20.219172 3.5652304 1.1725791
20.215218 3.595295 1.1656382
20.203825 3.6351767 1.1761721
20.203039 3.6672482 1.1751695
20.196735 3.6889768 1.1646328
20.187746 3.7071962 1.1781574
20.187746 3.7450364 1.1738954
20.380102 3.8135099 1.1456463
20.378157 3.8261046 1.1521611
20.371738 3.8721836 1.1546009
20.354059 3.893616 1.157048
20.359081 3.9160802 1.1613507
20.357122 3.952179 1.1573334
20.345659 3.9725561 1.1571929
20.333153 4.0117345 1.1505934
20.33007 4.0270677 1.1540328
20.320473 4.067584 1.1471391
20.326572 4.0898499 1.1640471
20.322229 4.1154823 1.1451179
20.304359 4.1400485 1.163843
20.308891 4.1723275 1.1555836
20.29583 4.1950607 1.161379
20.287031 4.2413073 1.1548711
20.294176 4.2616005 1.1603462
20.281141 4.2949376 1.1566131
20.281467 4.3107824 1.1598346
20.265192 4.3426595 1.1552019
20.261986 4.3663058 1.144472
20.255646 4.4113169 1.1510193
20.25034 4.4242072 1.1537858
20.243717 4.4674163 1.1604927
20.228796 4.4833913 1.161602
20.239632 4.5164347 1.160635
20.223919 4.5425291 1.1516469
20.213642 4.5615339 1.1476898
20.219593 4.6068501 1.1512798
20.208727 4.6219168 1.1584574
20.193188 4.6598396 1.1610008
20.18688 4.6775274 1.160283
20.381083 4.7612662 1.146348
20.363947 4.7796202 1.1452104
20.373478 4.8092752 1.131801
20.364079 4.8360262 1.1431972
18.707996 -0.98407346 1.3354682
18.715231 -0.95639348 1.3422947
18.714502 -0.93329048 1.33369
18.70252 -0.9131909 1.3272253
18.710302 -0.87949902 1.3346682
18.723103 -0.85298049 1.3250104
18.707598 -0.82301527 1.3255695
18.708652 -0.79724604 1.3319825
18.712391 -0.78316683 1.3414645
18.72155 -0.74331832 1.3250788
18.713253 -0.72769368 1.3374878
18.727022 -0.70620608 1.3314685
18.727579 -0.6667825 1.342442
18.719496 -0.64063871 1.3274032
18.724913 -0.62797558 1.3399426
18.717733 -0.60373849 1.3328849
18.720861 -0.57619619 1.3296753
18.724512 -0.54875189 1.3261163
18.734539 -0.51868695 1.330516
18.734011 -0.48054329 1.3286422
18.737061 -0.47173947 1.3362697
18.732485 -0.43017524 1.33926
18.721851 -0.40902412 1.3355476
18.722155 -0.37689087 1.3318515
18.727383 -0.36024013 1.3346896
18.725115 -0.33162928 1.3356347
18.735752 -0.30071601 1.337991
18.723143 -0.28694135 1.3416591
18.726938 -0.26389238 1.3292588
18.735098 -0.22208706 1.3288676
18.741346 -0.19791111 1.3311447
18.735186 -0.17895572 1.3288498
18.731979 -0.15124026 1.3415687
18.725023 -0.12379119 1.3402828
18.734335 -0.091647387 1.3295088
18.72645 -0.062269565 1.3412061
18.739471 -0.042715386 1.3376764
18.734814 -0.016194439 1.3417804
18.944872 0.017203996 1.4432976
18.951405 0.035234507 1.4599726
18.937508 0.059198488 1.4546813
18.945852 0.096723378 1.4622024
18.951864 0.11079939 1.4512959
18.950558 0.13771407 1.461695
18.947927 0.17377125 1.4580941
18.954489 0.201809 1.4577271
18.952709 0.22277243 1.45077
18.947363 0.2390177 1.4441898
18.946083 0.2742129 1.4613937
18.94578 0.29595762 1.4501892
18.942114 0.32386065 1.4565097
18.933119 0.36019906 1.4539163
18.951609 0.38267791 1.4589602
18.939156 0.40401602 1.4444802
18.937065 0.44292745 1.4596192
18.931335 0.46863812 1.456358
18.945202 0.49284524 1.4476225
18.932076 0.5120191 1.4486953
18.932331 0.53026372 1.4585266
18.929754 0.56859076 1.4436663
18.935936 0.58367521 1.4502735
18.9284 0.61022568 1.4467841
18.938236 0.63576317 1.4593394
18.933077 0.66938126 1.446799
18.933403 0.70147884 1.4467373
18.928829 0.72845501 1.4459542
18.940958 0.7499426 1.4629471
18.924314 0.77898467 1.4526837
18.928707 0.80900091 1.4542357
18.922894 0.83719516 1.4476864
18.922184 0.85236293 1.4497947
18.928043 0.88082469 1.4520273
18.930378 0.89998692 1.4533726
18.92523 0.93489343 1.4619125
18.927505 0.97106415 1.4561278
18.929682 0.98363799 1.4508982
24.160673 2.8222792 1.0052117
23.959143 2.8328412 1.0197407
23.769449 2.83903 1.0475744
23.550289 2.849905 1.068467
23.152931 2.8408885 1.1007595
22.95233 2.8430161 1.1146612
22.765713 2.8465314 1.132143
22.549255 2.8541908 1.1426908
22.151327 2.8421147 1.1668521
21.961485 2.84659 1.1924816
21.746611 2.8572397 1.1993299
21.549465 2.8477097 1.2263415
21.350492 2.849817 1.2497015
21.142998 2.8540776 1.2546543
20.940041 2.8601296 1.2660197
20.736637 2.8668163 1.2916231
20.550783 2.8680992 1.3134099
20.34606 2.8741121 1.3160821
20.332886 2.8890965 1.3293327
20.331057 2.9158881 1.3216761
20.338432 2.949429 1.3198445
20.316227 2.987417 1.3242152
20.324608 3.0079932 1.3269831
20.319923 3.0426042 1.3308588
20.303762 3.0757556 1.3181911
20.302542 3.0869651 1.3301715
20.310497 3.1137474 1.3219532
20.303812 3.1571968 1.3188232
20.303371 3.171474 1.3222938
20.296144 3.2079656 1.3241779
20.281219 3.235914 1.3312305
20.284424 3.2657802 1.3279042
20.271959 3.2881885 1.3167933
20.262224 3.3301113 1.3319386
20.276323 3.3401146 1.3318859
20.257717 3.3731766 1.3146998
20.251051 3.3985128 1.3159585
20.256126 3.4415236 1.3123356
20.258034 3.468493 1.314665
20.243372 3.4926722 1.3251672
20.230555 3.5264044 1.3153052
20.224751 3.5478578 1.3270031
20.23558 3.5814028 1.3128093
20.21526 3.6098077 1.3122449
20.210045 3.6369481 1.3133968
20.204739 3.650156 1.3193299
20.202206 3.681412 1.3223255
20.200893 3.7224977 1.3200641
20.195919 3.750283 1.3165116
20.193233 3.7682383 1.3288844
20.181011 3.7982476 1.3267419
20.374737 3.8644395 1.3014253
20.36422 3.8896096 1.2978077
20.35947 3.9194489 1.3143682
20.354116 3.9491029 1.3098497
20.349874 3.9785187 1.3103268
20.351524 4.01051 1.3138546
20.336132 4.0463357 1.3102698
20.338438 4.0623732 1.3062793
20.337152 4.1009512 1.3120604
20.328199 4.1125717 1.2996746
20.317064 4.1473732 1.308236
20.316961 4.1770535 1.3135325
20.3132 4.2074184 1.300241
20.30596 4.2379041 1.3081838
20.294161 4.2696614 1.2971305
20.302801 4.2886243 1.3096642
20.29493 4.3177876 1.3096273
20.283432 4.3548903 1.2972389
20.267904 4.37638 1.3150476
20.27812 4.414629 1.2961043
20.255909 4.427495 1.3035978
20.26222 4.4660482 1.3124148
20.25379 4.4866714 1.3032483
20.252028 4.5259256 1.2962267
20.238169 4.5392909 1.3126305
20.233217 4.5672455 1.2996732
20.220758 4.5933161 1.3075639
20.228226 4.6339188 1.3042501
20.203264 4.6650624 1.3141272
20.196072 4.6925282 1.3139632
20.189896 4.7239304 1.2983835
20.385237 4.7933455 1.2966973
20.375229 4.8153105 1.2837573
20.376017 4.8417778 1.2818155
18.918779 -0.96736956 1.4498026
18.914001 -0.94624364 1.4560498
18.92989 -0.91570079 1.4435825
18.921604 -0.89246923 1.4485145
18.916693 -0.8598631 1.4448168
18.930166 -0.84246975 1.4496144
18.920603 -0.81224102 1.4445863
18.934471 -0.78344554 1.4493397
18.921267 -0.76017231 1.4539613
18.938528 -0.72779304 1.4519233
18.930948 -0.71326375 1.4458668
18.93852 -0.68486291 1.4545319
18.932302 -0.66188699 1.4473335
18.93358 -0.6284743 1.4569584
18.939753 -0.60121179 1.4527797
18.94219 -0.58167922 1.4595827
18.929388 -0.55287629 1.4502012
18.931522 -0.53133523 1.4632003
18.938374 -0.50409049 1.4530563
18.949808 -0.46063972 1.4488738
18.939167 -0.4457874 1.4528011
18.942434 -0.4243457 1.4587084
18.934328 -0.39006761 1.4611697
18.938988 -0.35542032 1.4506202
18.933235 -0.33547193 1.4609087
18.943268 -0.31392026 1.4443038
18.940065 -0.28596762 1.4500749
18.947445 -0.25664231 1.4509591
18.947786 -0.2411909 1.4526588
18.937948 -0.21499188 1.4513793
18.94389 -0.18008332 1.4585211
18.953722 -0.14252168 1.4606727
18.949423 -0.13364199 1.4506696
18.94755 -0.1006428 1.4488804
18.95509 -0.073899113 1.4606054
18.952881 -0.037589747 1.4474471
18.954031 -0.024911746 1.4558058
18.951788 0.01826237 1.5854859
18.959515 0.037928909 1.5857487
18.948904 0.067437641 1.5857733
18.956976 0.082605906 1.594269
18.952154 0.10736094 1.5938885
18.949446 0.14761008 1.5959495
18.956699 0.16581449 1.5845712
18.962126 0.19142462 1.5934979
18.95924 0.21472888 1.5922952
18.963158 0.23912235 1.5973314
18.955399 0.27037609 1.5955937
18.958851 0.30937424 1.5870684
18.962528 0.3178165 1.6015978
18.946194 0.35442328 1.5848413
18.958319 0.38633639 1.586386
18.950026 0.41570735 1.5817261
18.943756 0.43253306 1.5888172
18.946072 0.45502421 1.5950654
18.957277 0.49490571 1.598165
18.947243 0.51901913 1.5992059
18.942207 0.53572327 1.5850486
18.955397 0.55626595 1.5834379
18.940025 0.60091007 1.5838188
18.939146 0.60968006 1.5943564
18.941473 0.65107173 1.5903575
18.945309 0.6647045 1.5892808
18.944447 0.69263917 1.5985818
18.95064 0.72349751 1.5839268
18.943043 0.7462061 1.582707
18.938509 0.77956212 1.5991553
18.934978 0.80860174 1.5858632
18.937256 0.83158726 1.5866705
18.937883 0.85999346 1.5856797
18.938856 0.88834947 1.5870177
18.93033 0.89989883 1.5833073
18.937767 0.93618613 1.586791
18.924091 0.95255154 1.591772
18.939678 0.99608606 1.6011752
23.971813 2.8372352 1.2110243
23.778172 2.8449323 1.2087297
23.369967 2.8251851 1.2401857
23.171299 2.8367505 1.269374
22.978418 2.841665 1.2718742
22.769575 2.8595059 1.2953944
22.575218 2.8689833 1.3160127
22.175474 2.8404744 1.3319284
21.971426 2.8498492 1.3467788
21.765938 2.852443 1.3672814
21.552822 2.8618324 1.3756098
