# .PCD v0.7 - Point Cloud Data file format
VERSION 0.7
FIELDS x y z
SIZE 4 4 4
TYPE F F F
COUNT 1 1 1
WIDTH 1553
HEIGHT 1
VIEWPOINT 0 0 0 1 0 0 0
POINTS 1553
DATA ascii
-1.7473091 4.7511539 1.1407886
-1.6988934 4.5752468 1.207762
-1.7043846 4.5806694 1.2094753
-1.7048557 4.5685081 1.2142557
-1.7252977 4.5736489 1.210173
-1.7157072 4.5715852 1.2181798
-1.7355952 4.5704565 1.2104365
-1.7438817 4.5705543 1.205416
-1.7433108 4.5591273 1.2113172
-1.7401773 4.5632591 1.2052885
-1.7541808 4.5598135 1.2061174
-1.7557387 4.5657406 1.2093564
-1.6909993 4.3777323 1.2894433
-1.712657 4.3705354 1.2907286
-1.7095307 4.3692632 1.2795609
-1.7104839 4.3639445 1.2887443
-1.7234269 4.365098 1.2792228
-1.7241099 4.3643212 1.2922317
-1.7298099 4.3704691 1.2762556
-1.7496054 4.3660998 1.2868615
-1.755426 4.3540735 1.2764812
-1.7604145 4.3668318 1.2744962
-1.7621603 4.3623114 1.2817971
-1.7728533 4.3622255 1.2842914
-1.7622573 4.3513541 1.2879122
-1.7828255 4.3456149 1.288622
-1.7742069 4.3530145 1.292901
-1.7951063 4.3458099 1.278828
-1.8029932 4.3389802 1.2933353
-1.8068528 4.3384266 1.2859148
-1.8001029 4.3381209 1.2889177
-1.8237298 4.338892 1.2871375
-1.8293382 4.3239784 1.2833036
-1.8276421 4.32443 1.2818589
-1.8234482 4.3215318 1.2920266
-1.8356297 4.3241167 1.2789475
-1.8470979 4.3213682 1.2757686
-1.8542835 4.3237638 1.2878941
-1.8555385 4.3243136 1.2757075
-1.8622825 4.3070407 1.2854935
-1.8764434 4.3025517 1.2775083
-1.8675977 4.3004651 1.2928367
-1.8805286 4.2987971 1.2758027
-1.8772895 4.3048482 1.2817801
-1.8954916 4.3011122 1.2874277
-1.9035221 4.2912107 1.2782367
-1.9046282 4.2958531 1.288882
-1.9089093 4.2993188 1.2845167
-1.9210613 4.2875342 1.2833027
-1.9253961 4.2950068 1.287426
-1.9199411 4.2743163 1.2896786
-1.9424676 4.2884655 1.2924719
-1.9496619 4.2756739 1.2762324
-1.9538863 4.2721081 1.2886875
-1.9521295 4.2763233 1.2800589
-1.9647212 4.2784872 1.2841891
-1.9665002 4.265521 1.2756306
-1.9776299 4.2742448 1.2932146
-1.9731212 4.2567854 1.2816994
-1.9898226 4.2609549 1.2803508
-1.9823967 4.2565403 1.2810138
-1.9927145 4.2555561 1.2785364
-2.0002351 4.2533307 1.2859864
-2.0039911 4.25283 1.2925978
-2.0152884 4.2400312 1.2861599
-2.0152102 4.2405825 1.2846297
-2.0309975 4.2452927 1.2928849
-2.0353398 4.2448068 1.2926246
-2.0420938 4.2347598 1.2776731
-2.040359 4.2339377 1.2896686
-2.039969 4.2264638 1.2800345
-2.058912 4.2345905 1.2922097
-2.0603282 4.2211113 1.2849611
-2.0742905 4.2097864 1.2800218
-2.0616374 4.2130709 1.2851022
-2.075418 4.2223368 1.2935605
-2.0907249 4.201714 1.2895637
-2.0977726 4.2026434 1.2879242
-2.0850763 4.2027102 1.279089
-2.1073272 4.2103982 1.292291
-2.097579 4.2043591 1.280887
-2.1174603 4.2052565 1.2804855
-2.1251624 4.1906118 1.2894889
-2.1201091 4.1878762 1.2900599
-2.1199908 4.1836605 1.2768162
-2.134788 4.1915269 1.2757471
-2.1411228 4.1899452 1.2769721
-2.1514502 4.1871705 1.2820518
-2.1434128 4.1829424 1.2901314
-2.1642065 4.1623101 1.2888408
-2.1717939 4.1772685 1.2844609
-2.1707809 4.1581836 1.283936
-2.1701653 4.1572304 1.2917329
-2.180542 4.167161 1.2797682
-2.1903436 4.1630354 1.2865702
-2.1933844 4.1499343 1.2842289
-2.19749 4.1563158 1.2833045
-2.2003665 4.1381836 1.2826122
-2.218159 4.1538973 1.2807068
-2.2078671 4.1346226 1.2811919
-2.2188621 4.1335611 1.2796664
-2.2342322 4.1393089 1.2820953
-2.230123 4.1314645 1.2866185
-2.2382126 4.1190314 1.2841275
-2.2382624 4.1225805 1.2805744
-2.2515059 4.1288681 1.286992
-2.247086 4.1168251 1.2828709
-2.2635865 4.1076765 1.283705
-2.2607746 4.1065021 1.2833489
-2.2798638 4.1013813 1.286822
-2.2784634 4.1110239 1.2923454
-2.278584 4.1110497 1.2867366
-2.2962713 4.1009336 1.2764114
-2.2894309 4.0884728 1.2767892
-2.3050768 4.1017027 1.2838602
-2.3042715 4.0874252 1.2803708
-2.317044 4.0832987 1.2879987
-2.3139331 4.0883994 1.2896461
-2.3299837 4.0820346 1.2932951
-2.3263857 4.0822988 1.2750077
-2.3393099 4.0696774 1.2895547
-2.3467064 4.062645 1.2873275
-2.3397071 4.0636301 1.2781924
-2.3630283 4.0571561 1.2798126
-2.365967 4.0607324 1.2778867
-2.3618302 4.0508051 1.2849152
-2.3611782 4.0537925 1.2910572
-2.3728936 4.0455728 1.2855477
-2.3829567 4.0469813 1.2769291
-2.3893664 4.0376606 1.2918388
-2.3940589 4.0410848 1.2773986
-2.4041996 4.0427766 1.2792056
-2.3965628 4.0371275 1.2852854
-2.4180565 4.033812 1.2881866
-2.4179251 4.0332088 1.2779671
-2.4197149 4.022388 1.2811319
-2.4344716 4.0178604 1.290603
-2.4230816 4.0272546 1.2751818
-2.4371963 4.012217 1.2845036
-2.4399245 4.016397 1.2878476
-2.4477386 4.0015078 1.2779664
-2.4499881 4.0020952 1.2931354
-2.4504256 3.9959331 1.2860217
-2.4647787 3.993886 1.278967
-2.4762259 3.9975739 1.2746909
-2.4778874 3.9850712 1.2829838
-2.4763794 3.9834061 1.2901471
-2.4853954 3.9787209 1.2901096
-2.4898276 3.9855061 1.278448
-2.5049334 3.9751432 1.2743876
-2.49669 3.9625413 1.2788668
-2.5183232 3.9732609 1.2873703
-2.5247824 3.9691086 1.2931561
-2.5183501 3.9561641 1.280347
-2.5189679 3.957329 1.274686
-2.5238569 3.9623837 1.27999
-2.540448 3.9544928 1.2871045
-2.5498707 3.9431276 1.2930171
-2.539326 3.9528668 1.2892061
-2.5604379 3.9330323 1.2785308
-2.5656052 3.9269681 1.2787603
-2.5662882 3.924793 1.2932236
-2.5784628 3.9216762 1.2870564
-2.5848465 3.9305036 1.2914747
-2.5840344 3.9242208 1.2805952
-2.5888782 3.9185514 1.2783154
-2.5884128 3.9217887 1.2916975
-2.6008279 3.9210956 1.2772748
-2.6073253 3.916435 1.2761595
-2.6176286 3.8961449 1.2787855
-2.6186023 3.8961654 1.2789308
-2.6193411 3.9009752 1.2804921
-2.6256115 3.8990781 1.2825352
-2.6380441 3.8962598 1.2770122
-2.6260531 3.8797114 1.2888204
-2.6449366 3.8837719 1.278581
-2.6460946 3.8737447 1.2752082
-2.6538653 3.8767452 1.2747792
-2.6560538 3.8786855 1.293334
-2.6593521 3.8757546 1.2752509
-2.6600194 3.8572774 1.2808479
-2.680536 3.8634834 1.274922
-2.6794863 3.8488357 1.2907739
-2.676388 3.8471673 1.28749
-2.6988075 3.8428965 1.2913476
-2.6894135 3.8451438 1.2829632
-2.6902537 3.8316295 1.2882569
-2.7144616 3.8357353 1.2802635
-2.7190928 3.8430388 1.2779306
-2.7251642 3.8324249 1.2763945
-2.7293134 3.8265193 1.2801166
-2.7278602 3.8254671 1.2937871
-2.7323275 3.8108301 1.2765604
-2.7409377 3.8046513 1.281423
-2.7328262 3.8014073 1.2857801
-2.7408519 3.812907 1.2761571
-2.7572565 3.8089104 1.2767999
-2.7683623 3.8060451 1.2853363
-2.7674558 3.8038819 1.2849714
-2.768877 3.8009758 1.277795
-2.7718289 3.7792435 1.2885228
-2.7710531 3.784282 1.2820162
-2.7766016 3.7701654 1.2846974
-2.799371 3.7727458 1.2850319
-2.7972727 3.7687392 1.2859625
-2.7908115 3.7620034 1.2822396
-2.8139679 3.7641537 1.2783748
-2.7036259 3.6104884 1.3445437
-2.6973827 3.6131628 1.3433816
-2.7114995 3.5996912 1.34319
-2.7127872 3.5885372 1.3451501
-2.7233417 3.6034234 1.3560402
-2.7203975 3.5980198 1.3567127
-2.734767 3.5951002 1.3438717
-2.7287962 3.5795267 1.3509376
-2.74189 3.5756569 1.3551884
-2.7387011 3.5738673 1.3455176
-2.7393715 3.5748012 1.3561124
-2.7629051 3.5669949 1.3531667
-2.7675953 3.5700834 1.3605415
-2.7724717 3.55689 1.3605614
-2.7753825 3.5581431 1.3592734
-2.7673976 3.5473356 1.356395
-2.7787352 3.5471492 1.354417
-2.782908 3.5379181 1.3606925
-2.7800097 3.5405729 1.3469321
-2.792855 3.5313907 1.3552231
-2.7953658 3.5265067 1.3482959
-2.8072762 3.5230527 1.3574172
-2.8021269 3.5198665 1.3534886
-2.8095973 3.5167565 1.3602355
-2.69923 3.3695524 1.4211481
-2.7077534 3.3615701 1.4260987
-2.6991501 3.367187 1.4147521
-2.7125194 3.3535621 1.4180708
-2.7196081 3.3477616 1.4279475
-2.7204518 3.3540361 1.4125521
-2.7329991 3.3427148 1.4161896
-2.7324684 3.3443925 1.4202969
-2.7428107 3.3361235 1.4251487
-2.7370765 3.3452826 1.4308282
-2.74459 3.3318899 1.4193786
-2.7602229 3.334657 1.4237331
-2.7508996 3.3307059 1.4174978
-2.7529175 3.3180585 1.4214373
-2.7716112 3.3229902 1.4233825
-2.7604229 3.3117406 1.4154149
-2.7646248 3.3126006 1.4199452
-2.7851837 3.2986434 1.429979
-2.7816296 3.29899 1.4155761
-2.7932184 3.2897117 1.414171
-2.7991221 3.2975559 1.4232183
-2.7964702 3.2943976 1.4188844
-2.8094583 3.2851872 1.4144577
-2.808676 3.2785788 1.4212482
-2.8039489 3.2778907 1.4168414
-2.817271 3.2729995 1.4250625
-2.6955168 3.1267517 1.4870651
-2.6920674 3.1264734 1.4899634
-2.6985791 3.1143417 1.4971052
-2.7194881 3.1152089 1.4988722
-2.7217972 3.114754 1.4923928
-2.7150536 3.1015275 1.4866711
-2.7326384 3.099884 1.4956617
-2.7346447 3.1035881 1.4819727
-2.7298551 3.0965796 1.4915307
-2.7294672 3.1008034 1.5001392
-2.7408524 3.0882921 1.4882063
-2.7392671 3.083576 1.4997774
-2.7547781 3.0766888 1.4830053
-2.7431419 3.0732276 1.4908948
-2.7497334 3.0717874 1.4821301
-2.762799 3.0614152 1.4839454
-2.7615807 3.0577774 1.4879299
-2.7713664 3.0564475 1.4994375
-2.7748358 3.0642154 1.4877611
-2.7687416 3.056675 1.4841394
-2.7740335 3.0420468 1.4918432
-2.7912531 3.0532968 1.4986737
-2.796896 3.0533228 1.4824657
-2.7993054 3.0492668 1.4866513
-2.7938199 3.0428958 1.4932574
-2.7970939 3.0277305 1.493358
-2.7985468 3.038049 1.4936937
-2.8160098 3.0228422 1.4965779
-2.8219597 3.0284207 1.4911147
-2.8195806 3.024343 1.4820015
-2.8208175 3.0192173 1.4821569
-2.9634018 3.1374125 1.4284272
-2.9702837 3.1377158 1.4276692
-2.9733677 3.139837 1.4267695
-2.9722602 3.1316657 1.4234189
-2.9845409 3.1244371 1.4288291
-2.9767151 3.1199663 1.4284898
-2.9885478 3.1222382 1.4168814
-2.9974904 3.1227601 1.4147955
-2.9918907 3.1098559 1.4125812
-2.995398 3.0999038 1.4291966
-2.998744 3.1006074 1.4316667
-3.0067768 3.0987976 1.4185877
-3.0155618 3.0982661 1.4317836
-3.0052404 3.0831985 1.4209677
-3.0182638 3.0802011 1.427089
-3.025871 3.0893743 1.4129113
-3.0338118 3.071054 1.4251834
-3.0333548 3.0681243 1.4221615
-3.0349779 3.0751221 1.4304253
-3.0388095 3.0629339 1.412933
-3.0460196 3.0517156 1.4203466
-3.0507536 3.0567741 1.4301584
-3.0485606 3.0573521 1.4236528
-3.0531659 3.0525494 1.4262998
-3.0685809 3.0390155 1.4301755
-3.057869 3.0421607 1.4274569
-3.0613284 3.0416458 1.4306561
-3.07251 3.0258625 1.4151697
-3.0867074 3.0327244 1.4309311
-3.0926349 3.0200176 1.4187605
-3.0960488 3.0243576 1.4196336
-3.0920429 3.0082145 1.4298333
-3.2332354 3.1489105 1.3558475
-3.2260931 3.1386502 1.350376
-3.2362976 3.1372073 1.3556565
-3.2426198 3.130703 1.3483739
-3.2516546 3.1249599 1.344874
-3.2574837 3.1122501 1.3498942
-3.2587929 3.1095514 1.3460858
-3.2643344 3.105128 1.3538859
-3.2620399 3.1014874 1.350347
-3.2788661 3.1060431 1.354992
-3.265486 3.0886073 1.3542645
-3.2770483 3.082674 1.3478037
-3.2740757 3.0908904 1.3444335
-3.2858162 3.0771325 1.3590987
-3.2848327 3.0786812 1.3525662
-3.2873425 3.0787361 1.3578757
-3.304826 3.0618105 1.3450443
-3.3061113 3.0636661 1.352353
-3.2995903 3.0521321 1.3605909
-3.3166015 3.0480819 1.3579606
-3.3089612 3.0417149 1.3624762
-3.322042 3.0480826 1.3456464
-3.3215771 3.0417135 1.361627
-3.3244758 3.0278881 1.3484493
-3.3327029 3.0193238 1.3614265
-3.3474557 3.0325208 1.3590702
-3.3368928 3.0124993 1.3444062
-3.3391547 3.015451 1.3562216
-3.3541014 3.0091758 1.3611326
-3.5009873 3.1349642 1.2775918
-3.4904873 3.1276066 1.2813628
-3.495465 3.1114008 1.2761488
-3.5172658 3.1198857 1.289219
-3.5030789 3.1096914 1.2931234
-3.5220628 3.1154826 1.2931285
-3.5280628 3.1107271 1.2910019
-3.516412 3.1007345 1.2935308
-3.5194185 3.0926733 1.2836941
-3.5306027 3.093852 1.2922709
-3.5368688 3.0725091 1.2865013
-3.5376318 3.0860138 1.2782706
-3.5546167 3.078882 1.2787362
-3.5568087 3.0742836 1.2925951
-3.5459237 3.0681994 1.2811739
-3.5511272 3.0474515 1.2804645
-3.5563188 3.0450175 1.2799263
-3.5636299 3.0385411 1.2743279
-3.5684049 3.0333579 1.2856067
-3.58301 3.0412836 1.2830091
-3.589031 3.0272291 1.284019
-3.5808148 3.0166907 1.2834901
-3.5808222 3.0134397 1.2807918
-3.6003573 3.0122619 1.2784636
-3.6060262 3.0062275 1.2750257
-3.7475638 3.1191022 1.2067833
-3.7455165 3.1309669 1.2101303
-3.7640002 3.1197579 1.2119931
-3.7680748 3.1080039 1.213671
-3.7608631 3.1058686 1.2082785
-3.7762418 3.1019282 1.2138416
-3.7706034 3.0904136 1.2138823
-3.7854865 3.0830939 1.2156937
-3.7830603 3.0804348 1.2213548
-3.7829549 3.0762949 1.2060152
-3.7862802 3.0792534 1.2087286
-3.7888031 3.0686009 1.2085536
-3.7879715 3.0637991 1.2224226
-3.80527 3.0592494 1.2097969
-3.8008828 3.046231 1.2203008
-3.8018808 3.042146 1.2121357
-3.8173084 3.0480044 1.2177333
-3.8126879 3.0432773 1.2212943
-3.8262484 3.0252664 1.2074853
-3.8341403 3.0316434 1.2148319
-3.8373642 3.0189707 1.2104383
-3.8378675 3.0080431 1.2206992
-3.9866059 3.1175756 1.1424341
-3.993561 3.1184878 1.1539757
-3.993134 3.1080327 1.1378239
-4.0021954 3.1008177 1.1429181
-3.999414 3.1024055 1.1392076
-4.0110273 3.0928373 1.1361128
-4.0190716 3.0939245 1.1403557
-4.0209169 3.0913279 1.1363305
-4.015408 3.0897081 1.1449931
-4.0342846 3.0717785 1.1480942
-4.0228925 3.0773642 1.1507319
-4.0407205 3.060334 1.1398669
-4.046999 3.0480621 1.1441377
-4.0494213 3.0510526 1.1467904
-4.0467415 3.0411406 1.1366341
-4.0477643 3.0439234 1.1425186
-4.0518742 3.0429618 1.1551055
-4.051733 3.0244477 1.1507167
-4.0556092 3.0157268 1.1503353
-4.0708151 3.0124061 1.1376575
-4.0829115 3.0047462 1.1362042
-4.2237492 3.1144969 1.0743284
-4.2242117 3.1110332 1.074869
-4.2403955 3.1093922 1.0840572
-4.2339182 3.0946681 1.0689961
-4.2375889 3.1031506 1.0823864
-4.2553668 3.0917444 1.0804901
-4.2605495 3.0846927 1.08576
-4.250113 3.0779703 1.0679957
-4.2600493 3.0602396 1.0726029
-4.2626548 3.0546019 1.0752482
-4.2667055 3.0636952 1.0823709
-4.2835865 3.056654 1.0719512
-4.2799187 3.0377493 1.0858178
-4.2870541 3.049634 1.0708939
-4.2892423 3.0421515 1.0703917
-4.2980318 3.0211866 1.0844288
-4.2887092 3.019326 1.0773658
-4.2941084 3.0121808 1.0695376
-4.4513907 3.1265085 1.0009053
-4.4700794 3.1151388 1.0016418
-4.466114 3.103972 1.0174469
-4.4750175 3.1001697 1.012192
-4.4743323 3.0842724 1.0140197
-4.4797711 3.0854681 1.0137253
-4.4801254 3.088696 1.0119473
-4.4809732 3.0673463 1.0152094
-4.4877748 3.0595226 1.0026218
-4.5016308 3.0704949 1.0089058
-4.5033059 3.062499 1.0084015
-4.5045676 3.0401423 1.0027714
-4.505084 3.0460696 1.0122242
-4.5097866 3.0274041 1.0041305
-4.5197349 3.0337255 1.0064012
-4.5278468 3.0189009 1.0161355
-4.5362444 3.0080063 1.0153716
-4.5264111 3.0005393 0.99953753
-4.6900778 3.1137688 0.93312848
-4.6896963 3.0939498 0.93302077
-4.703022 3.0967042 0.93121487
-4.6968422 3.0824373 0.93335569
-4.7162833 3.0718851 0.94773346
-4.7062626 3.080853 0.92976099
-4.7243266 3.0640862 0.94443136
-4.7201104 3.0634124 0.93060434
-4.726151 3.058537 0.93221575
-4.7329459 3.0476823 0.93269926
-4.7355657 3.0341101 0.92952567
-4.735548 3.0252328 0.93310261
-4.7356291 3.0273347 0.9460097
-4.7575064 3.0199113 0.93123144
-4.7572341 3.0173328 0.93248874
-4.9214725 3.1089773 0.86027044
-4.9249158 3.1066782 0.86692214
-4.9336786 3.0928533 0.87950557
-4.9362588 3.0772369 0.87382513
-4.9372182 3.0790653 0.86390734
-4.9376841 3.0825045 0.86704081
-4.9413142 3.0701828 0.86792636
-4.9413576 3.0619919 0.87754893
-4.9484844 3.0561266 0.86638933
-4.9503798 3.0547276 0.87929803
-4.9510078 3.0321722 0.87057847
-4.9548078 3.0304885 0.86644018
-4.9719462 3.0243466 0.87536365
-4.9764915 3.0199196 0.8755635
-4.9667072 3.0188189 0.86449045
-5.1477876 3.098104 0.79472399
-5.1449027 3.1012247 0.80858344
-5.1411228 3.0885582 0.80116874
-5.1477098 3.0730119 0.79481119
-5.1654468 3.0798073 0.79398292
-5.1702647 3.0702019 0.79753375
-5.1637926 3.0610147 0.80634105
-5.161448 3.0588973 0.79595256
-5.1701703 3.036433 0.80808908
-5.1786823 3.0279417 0.80608279
-5.1782575 3.0235054 0.79374927
-5.1785517 3.0262578 0.7917307
-5.1849766 3.0170841 0.80424607
-5.3614883 3.099246 0.73938429
-5.3617954 3.094079 0.73756754
-5.3629203 3.0883577 0.73336381
-5.3804841 3.0733624 0.72719711
-5.3692298 3.0649548 0.72614318
-5.3883538 3.0720587 0.7298612
-5.3753304 3.0548737 0.73232996
-5.3843031 3.0423267 0.73761046
-5.3855987 3.0336888 0.73289704
-5.3889027 3.022819 0.72626972
-5.3996801 3.0223031 0.73543113
-5.4062719 3.0257833 0.72692418
-5.5788984 3.1033316 0.67116326
-5.5716162 3.0964689 0.65695488
-5.5904899 3.0851321 0.6618557
-5.5904069 3.0789328 0.66138291
-5.5865946 3.0700073 0.67125368
-5.6003027 3.0563495 0.65611207
-5.6087193 3.0456259 0.65987283
-5.6018386 3.0558181 0.66031033
-5.6015739 3.0394411 0.66778404
-5.6121373 3.0206704 0.66629601
-5.6111965 3.0176897 0.65902001
-5.6169682 3.0062947 0.67268056
-1.7088344 4.9975548 1.1094017
-1.6990052 5.0013752 1.1162972
-1.7086962 4.9863439 1.1155128
-1.7323366 4.9923725 1.1054914
-1.7283337 4.9782491 1.1234875
-1.7286913 4.9881768 1.1114401
-1.7469015 4.9867949 1.1120552
-1.7454315 4.9695449 1.1061126
-1.7657521 4.9767237 1.118471
-1.709074 4.7962775 1.1771718
-1.7097738 4.7969632 1.1907604
-1.7124683 4.7944255 1.1905644
-1.7282637 4.7891417 1.1777416
-1.7248403 4.787158 1.1733623
-1.7314349 4.7761149 1.1772836
-1.7400301 4.7716489 1.1735665
-1.7406693 4.7759032 1.1909112
-1.76069 4.7685547 1.1734589
-1.7010562 4.591404 1.2533121
-1.6944079 4.5909781 1.2447447
-1.7167189 4.5965228 1.2592564
-1.7054381 4.5860395 1.2536336
-1.7143499 4.5864239 1.2451389
-1.736081 4.5768919 1.2570823
-1.7421882 4.5874219 1.2604136
-1.7443706 4.5760102 1.241719
-1.7502667 4.5706091 1.2497283
-1.7588147 4.5718336 1.2528481
-1.7648116 4.5737414 1.2576915
-1.6903205 4.3933129 1.3121581
-1.7124435 4.392437 1.3269001
-1.7000513 4.3892288 1.3135624
-1.7132787 4.383492 1.3230217
-1.7149973 4.3824048 1.3253704
-1.7247691 4.381587 1.3206794
-1.7312062 4.3849607 1.3270158
-1.7363344 4.3688083 1.3103992
-1.7534502 4.3704739 1.317464
-1.7474425 4.3725061 1.3089026
-1.7565882 4.3670945 1.3177655
-1.7589273 4.3656712 1.3281405
-1.7665209 4.3627481 1.3177038
-1.7674488 4.3727031 1.323936
-1.7789139 4.3670402 1.3114946
-1.7880268 4.3577037 1.3206578
-1.8018272 4.3480253 1.3156254
-1.8092875 4.3593092 1.3168796
-1.8133612 4.3595657 1.3222476
-1.8103664 4.3519144 1.3121042
-1.8159293 4.3411984 1.3190141
-1.8326259 4.3342209 1.3269739
-1.8389438 4.3457241 1.3144927
-1.8356949 4.34237 1.3144563
-1.8462102 4.3336177 1.3112562
-1.8491633 4.3418169 1.321227
-1.8629494 4.3222752 1.3240348
-1.8617644 4.3213301 1.3206512
-1.8593216 4.3223648 1.3200568
-1.871507 4.3124437 1.3143522
-1.8738322 4.3230057 1.3204812
-1.889244 4.3229136 1.3221909
-1.8966922 4.3225427 1.31797
-1.8966179 4.3114562 1.31297
-1.8965762 4.315886 1.3218014
-1.8997309 4.303391 1.3214234
-1.9129112 4.3031344 1.3241044
-1.9232798 4.3100839 1.3084489
-1.9370282 4.3054934 1.3164451
-1.9313673 4.2947307 1.3171457
-1.9314071 4.2876534 1.3110423
-1.9453142 4.2911701 1.3274894
-1.9575078 4.2932415 1.3262161
-1.9539185 4.2813859 1.3165153
-1.9553252 4.2755675 1.313912
-1.9678968 4.2725854 1.3214895
-1.9808425 4.2824111 1.3114946
-1.9911033 4.2678518 1.3111416
-1.9970157 4.2655249 1.308899
-1.9949281 4.2748346 1.3186035
-1.9921361 4.2700777 1.323948
-1.9954433 4.2573824 1.3155354
-2.0022998 4.2584581 1.3119286
-2.0104253 4.2490849 1.319209
-2.0282478 4.2442622 1.3234218
-2.0286696 4.2528214 1.327412
-2.0415101 4.254385 1.3239956
-2.0443413 4.2516332 1.308796
-2.0475218 4.2489109 1.3140537
-2.0529406 4.2342148 1.311414
-2.048651 4.2282443 1.326818
-2.0590127 4.2248969 1.312336
-2.0777831 4.2206197 1.3217475
-2.0801563 4.2341394 1.3246114
-2.0752449 4.215755 1.3254868
-2.0861168 4.2228632 1.3177637
-2.0929942 4.2230415 1.3144546
-2.1032841 4.206295 1.3112527
-2.1087692 4.2122707 1.3281957
-2.1089928 4.2187266 1.3133177
-2.1118519 4.2153664 1.3153532
-2.1193027 4.2075348 1.3169332
-2.1212313 4.2068191 1.3171359
-2.1337445 4.1896133 1.3137666
-2.1433895 4.2031965 1.3149294
-2.1521549 4.191783 1.3261251
-2.1486392 4.1793618 1.3204322
-2.1484282 4.1825171 1.3209338
-2.1714151 4.186049 1.3103608
-2.1774547 4.1752152 1.309201
-2.1783681 4.167376 1.3276466
-2.1772418 4.1779361 1.3212348
-2.1945312 4.1724129 1.3170896
-2.1916134 4.1602178 1.3187286
-2.1920609 4.1642146 1.3169495
-2.2113411 4.1652794 1.3267633
-2.2194211 4.1556883 1.3271705
-2.2131901 4.1521325 1.3137559
-2.2264528 4.1514106 1.3269042
-2.2302845 4.150465 1.3122581
-2.2352715 4.154418 1.3128204
-2.2418084 4.1453047 1.3269981
-2.2547526 4.1447058 1.3187158
-2.251838 4.132823 1.32131
-2.2472799 4.1262879 1.3109812
-2.2644963 4.1262631 1.3248047
-2.2718945 4.1239448 1.3121332
-2.2788811 4.1336389 1.3190103
-2.279278 4.1158476 1.3282773
-2.2865219 4.119998 1.3197192
-2.2884076 4.1049304 1.3182421
-2.2897263 4.1090903 1.3107883
-2.2968631 4.1060658 1.3258796
-2.3122773 4.111712 1.3122407
-2.3050931 4.1076674 1.3152275
-2.328233 4.0921531 1.321358
-2.3175449 4.0949831 1.3283461
-2.3395238 4.0965643 1.3282131
-2.3346212 4.0834827 1.3134815
-2.3404467 4.0888858 1.3261011
-2.354826 4.0781279 1.3268616
-2.3506775 4.0717716 1.3149987
-2.3539784 4.0839944 1.3233359
-2.3621833 4.0665135 1.3205518
-2.3640225 4.061924 1.3169636
-2.3828704 4.0598965 1.3211097
-2.3755832 4.0542545 1.3113424
-2.3813028 4.0523272 1.3264208
-2.387151 4.0609903 1.3116899
-2.4077263 4.0495124 1.3256426
-2.3956771 4.0493345 1.3121258
-2.4028625 4.0389795 1.315549
-2.4219062 4.0509939 1.3144991
-2.4126081 4.0404687 1.3192807
-2.4260893 4.0337653 1.3227928
-2.4231541 4.0338707 1.3276052
-2.4360678 4.0269146 1.3101118
-2.4387443 4.019886 1.3140342
-2.4463372 4.0126514 1.3099719
-2.4486566 4.0104795 1.317791
-2.4570184 4.0059891 1.3087995
-2.4588919 4.0199418 1.3128285
-2.4773376 4.0004745 1.3122551
-2.4768283 3.995924 1.3245476
-2.4915326 4.0035062 1.3135358
-2.4827199 3.9996331 1.3260357
-2.4890897 3.9884508 1.3149945
-2.4929485 3.9801919 1.3203467
-2.5128796 3.9899349 1.3218945
-2.5168684 3.982949 1.3247083
-2.5130332 3.9731867 1.3264779
-2.5181842 3.9671314 1.3256539
-2.5193014 3.9682064 1.3088238
-2.5409873 3.9753616 1.3109125
-2.5303755 3.9733787 1.3240604
-2.5507708 3.9657698 1.3168201
-2.5586607 3.9573472 1.3218901
-2.5575874 3.9506176 1.3222016
-2.5511568 3.9495034 1.3157642
-2.5631731 3.9499424 1.3258567
-2.5723708 3.9397535 1.3097106
-2.5797937 3.9499454 1.3110405
-2.5880358 3.9445469 1.3169844
-2.5931027 3.9229848 1.3136303
-2.596076 3.9375517 1.3118479
-2.6058962 3.9172354 1.3260187
-2.6029515 3.9145362 1.3153368
-2.6149321 3.9184127 1.3215032
-2.6065958 3.914217 1.3101405
-2.6246917 3.9034972 1.3228098
-2.6326902 3.9090669 1.3088909
-2.6368296 3.9126956 1.3087723
-2.6396339 3.8935597 1.3268712
-2.6364892 3.8948288 1.3270317
-2.6566932 3.8985915 1.3253903
-2.6586747 3.8979962 1.3270718
-2.6664801 3.885802 1.3097005
-2.6649623 3.8870797 1.3198599
-2.6772728 3.8821399 1.3094854
-2.6809409 3.8645458 1.3120605
-2.6719341 3.8643899 1.3238823
-2.6768413 3.8655257 1.3230176
-2.6818616 3.8692837 1.3267092
-2.6887779 3.8616073 1.3153696
-2.6955285 3.8591425 1.3115002
-2.7039151 3.8601072 1.3107502
-2.7106149 3.8386717 1.321529
-2.7146807 3.8441546 1.3173152
-2.7285819 3.8427219 1.3118994
-2.7328522 3.8430111 1.3126348
-2.7345419 3.8376918 1.3169668
-2.7444046 3.8328445 1.3261949
-2.7351265 3.8283513 1.3229485
-2.7421517 3.8223104 1.315801
-2.7605109 3.814883 1.3099716
-2.7627344 3.8044271 1.3088969
-2.765702 3.8126247 1.3101846
-2.7778859 3.802104 1.3207604
-2.7742779 3.8030248 1.3137162
-2.7760801 3.8050122 1.3107814
-2.7971418 3.7906418 1.3263547
-2.7938659 3.7917352 1.3209161
-2.8013566 3.7874279 1.3148266
-2.812088 3.7814109 1.3265463
-2.6972313 3.6316352 1.3823593
-2.7007184 3.6158087 1.3839178
-2.7052751 3.6223145 1.3775461
-2.7085385 3.6219308 1.3845332
-2.721221 3.6104443 1.376328
-2.7209423 3.6024392 1.3940048
-2.723593 3.5986507 1.3812131
-2.730665 3.6034107 1.3934238
-2.7431705 3.6059475 1.3852437
-2.74176 3.5830145 1.3949705
-2.7486246 3.5874646 1.389563
-2.7473342 3.5934682 1.39211
-2.7644801 3.5799503 1.3849509
-2.7679923 3.5681992 1.3812032
-2.7645118 3.5687902 1.3897711
-2.7692311 3.5746794 1.3941431
-2.7762682 3.5629318 1.3785428
-2.7760918 3.5691211 1.3915255
-2.783699 3.5678082 1.3908753
-2.7994812 3.5529039 1.3911295
-2.7855308 3.5561278 1.3796779
-2.7969825 3.5456295 1.3780808
-2.8058817 3.5429673 1.3868241
-2.8019345 3.5417697 1.3876812
-2.7040133 3.382175 1.4606651
-2.6950302 3.3898399 1.4557536
-2.7016695 3.3754284 1.4629804
-2.7039039 3.3861487 1.4602894
-2.7131505 3.3742115 1.4601852
-2.7230415 3.3714366 1.4490833
-2.7326734 3.3675511 1.445119
-2.7337515 3.3571472 1.4545768
-2.7364213 3.3627725 1.4453
-2.7303426 3.3572669 1.4587598
-2.7434011 3.3568835 1.4634145
-2.7511342 3.3501902 1.4595178
-2.7437732 3.3415587 1.4449998
-2.7491801 3.3353887 1.4449986
-2.7572727 3.3246629 1.4568635
-2.7654641 3.3287315 1.4497634
-2.7647519 3.3278484 1.462594
-2.7679985 3.3305621 1.4488438
-2.7817819 3.3152754 1.444548
-2.7848368 3.3107316 1.4585826
-2.7944264 3.3177879 1.4560765
-2.7993557 3.3017647 1.4507257
-2.8081763 3.2977505 1.4605989
-2.8115094 3.2929721 1.4481641
-2.8148382 3.3047383 1.4488721
-2.8062966 3.2929449 1.4575236
-2.7018814 3.1440105 1.516837
-2.7073994 3.1391022 1.5150883
-2.7066624 3.1450262 1.5219473
-2.710216 3.1325061 1.5281631
-2.7197297 3.1350012 1.5253426
-2.7117441 3.1171665 1.5304126
-2.729104 3.1151056 1.5153883
-2.7165854 3.1143 1.5195121
-2.7364962 3.1147487 1.5193348
-2.7356939 3.1083169 1.5313035
-2.7462344 3.107904 1.5207633
-2.74512 3.1063409 1.5290949
-2.7457488 3.0898774 1.5271369
-2.7595131 3.0942175 1.5164512
-2.7470565 3.0933962 1.5120592
-2.7574148 3.0849071 1.5136373
-2.7626979 3.0833993 1.516965
-2.7629998 3.0787461 1.523304
-2.7791724 3.0785131 1.5139145
-2.775517 3.0634077 1.5219219
-2.7798872 3.0620821 1.5133513
-2.7947924 3.0661855 1.5270587
-2.7813604 3.0539694 1.5281496
-2.789881 3.0522928 1.5174335
-2.7890818 3.0473719 1.5297552
-2.8126693 3.0563855 1.5174527
-2.8146729 3.0444043 1.5275135
-2.8133435 3.0364034 1.5167983
-2.8256698 3.0365069 1.5297328
-2.8273799 3.0245376 1.5114511
-2.8210771 3.032464 1.5157386
-2.8233392 3.0297461 1.5280304
-2.8318884 3.0247154 1.5120131
-2.8393414 3.015414 1.5182321
-2.8375049 3.0111561 1.5234487
-2.9731224 3.1438527 1.4539403
-2.9714458 3.1422949 1.4440446
-2.9797025 3.1462941 1.4500846
-2.9786685 3.1421895 1.4601705
-2.9846942 3.1205914 1.4622352
-2.9889956 3.1295073 1.4561807
-3.0090039 3.1203666 1.4513685
-2.9967144 3.1068769 1.4454914
-3.0004363 3.1101289 1.4542848
-3.0179334 3.0994065 1.4627982
-3.0102079 3.1070316 1.4516889
-3.0243213 3.1007016 1.4631925
-3.0283246 3.090477 1.4628723
-3.0262821 3.0856431 1.4626303
-3.0341475 3.079134 1.4449792
-3.0399423 3.0726683 1.4604391
-3.0517857 3.0705335 1.4509596
-3.0484354 3.0650215 1.4521976
-3.0509562 3.0601146 1.4609008
-3.0646777 3.062032 1.463101
-3.0698798 3.0559902 1.4571518
-3.0661852 3.0601447 1.4491037
-3.070981 3.0445995 1.4550688
-3.0760911 3.0553949 1.4604431
-3.0814371 3.0426164 1.4635581
-3.0844281 3.0483291 1.4444628
-3.0919533 3.0264783 1.447494
-3.0889518 3.0322518 1.4492806
-3.1047065 3.0197728 1.4504336
-3.0917518 3.0178342 1.4577835
-3.0965908 3.0149498 1.4633769
-3.107373 3.0200102 1.4574159
-3.2419369 3.1348889 1.3925436
-3.2549717 3.1383362 1.3904332
-3.2626259 3.1206696 1.3798532
-3.2671587 3.1242375 1.3793011
-3.2707806 3.1245005 1.3812189
-3.2713647 3.1119785 1.3932371
-3.2701559 3.1079099 1.3771087
-3.2877877 3.1009977 1.3833802
-3.2780633 3.0934422 1.3911117
-3.2827389 3.0992944 1.3882539
-3.2933691 3.0905058 1.394261
-3.3012018 3.0930421 1.3882669
-3.2911382 3.0922771 1.3891637
-3.3116484 3.071326 1.3781924
-3.3127041 3.0710933 1.3920538
-3.3118355 3.0746105 1.3779691
-3.3189423 3.063664 1.3843979
-3.322171 3.059407 1.3885024
-3.3191216 3.0491893 1.3896456
-3.3283341 3.0586042 1.3812408
-3.3403981 3.0416911 1.3886539
-3.3464484 3.0412409 1.3832151
-3.3384864 3.0351431 1.3816293
-3.3496208 3.0328181 1.3837167
-3.3517201 3.0337136 1.3902013
-3.3599515 3.0197473 1.3848393
-3.3622611 3.0229375 1.3931729
-3.3581352 3.0071559 1.3818974
-3.5106299 3.1436391 1.3173946
-3.5214174 3.1299915 1.3146303
-3.5206029 3.1285174 1.3196183
-3.5123687 3.1252234 1.308828
-3.529566 3.1141157 1.3166175
-3.5283425 3.1160908 1.3267654
-3.5250247 3.1001778 1.3224982
-3.5352151 3.1002378 1.3089601
-3.5507607 3.1021862 1.3233134
-3.537966 3.0924518 1.326592
-3.5564396 3.0751393 1.3261015
-3.5517457 3.0713913 1.316879
-3.5698092 3.0728037 1.3111038
-3.5628774 3.0667892 1.326962
-3.5667293 3.0679092 1.316646
-3.5827847 3.0545781 1.3132449
-3.5686851 3.0488827 1.3188764
-3.5788457 3.0573082 1.3095195
-3.5825374 3.0544925 1.3270689
-3.5918689 3.048769 1.3198476
-3.5979147 3.0288622 1.3202833
-3.604444 3.0379331 1.321947
-3.6001887 3.0332172 1.3100046
-3.6017015 3.0197027 1.3170356
-3.6073492 3.0065992 1.3101801
-3.7683125 3.1216738 1.2473295
-3.7678306 3.1149166 1.2514527
-3.7617097 3.1222403 1.2490129
-3.7649384 3.1101067 1.2487749
-3.7706101 3.1128695 1.2478365
-3.7834959 3.0938067 1.2520207
-3.7959385 3.0924287 1.250311
-3.7867103 3.0995121 1.2489264
-3.7894168 3.0892825 1.2590742
-3.8050849 3.0775976 1.2411711
-3.8076012 3.0741415 1.2434237
-3.8052971 3.0755134 1.2441859
-3.8188624 3.0673444 1.257545
-3.8148599 3.0602779 1.2440498
-3.8110881 3.0518632 1.2586024
-3.8282471 3.0548792 1.2593837
-3.8212144 3.0497613 1.2440841
-3.8358839 3.0381732 1.2411714
-3.8319306 3.0281727 1.2533381
-3.837822 3.0267909 1.2591354
-3.841609 3.0271721 1.2467979
-3.8431358 3.0141292 1.2411597
-3.863893 3.0117857 1.2526857
-4.0000677 3.1129615 1.1748208
-4.0211067 3.1066911 1.1815499
-4.007585 3.1075034 1.176646
-4.0132747 3.0995829 1.1919813
-4.0342555 3.1012197 1.1810915
-4.0381417 3.0910294 1.1855704
-4.0298529 3.0791595 1.1740419
-4.035759 3.0877073 1.1882751
-4.0339947 3.0789251 1.1748521
-4.0378609 3.0735755 1.1844778
-4.0501933 3.0650172 1.1854177
-4.0527191 3.0597551 1.1856987
-4.0685077 3.0523419 1.1924102
-4.0691919 3.0435588 1.1768252
-4.0745335 3.0381064 1.188507
-4.0707564 3.0330718 1.1756344
-4.0824928 3.0406218 1.1765342
-4.0857496 3.0265539 1.1916298
-4.0747652 3.0185304 1.1835974
-4.0971961 3.0109129 1.1758753
-4.2419376 3.1262887 1.1175973
-4.2539415 3.1121223 1.1073929
-4.245656 3.1064155 1.1154531
-4.2506514 3.1042647 1.1204141
-4.2712226 3.1010053 1.1056125
-4.2601042 3.0857475 1.1114719
-4.2618499 3.0829699 1.1105829
-4.2826877 3.0811441 1.1213334
-4.2884212 3.0745034 1.1097736
-4.2821789 3.0696247 1.1163158
-4.2836504 3.056134 1.112898
-4.2957277 3.0549707 1.1212567
-4.2980013 3.0464165 1.1098579
-4.2922058 3.0371823 1.1222637
-4.3014412 3.0316834 1.1173713
-4.30547 3.0216017 1.1231884
-4.3036308 3.0140643 1.1122011
-4.3226724 3.0099711 1.1253674
-4.330955 3.0044179 1.1178782
-4.4856257 3.1163638 1.0438383
-4.4790578 3.1038873 1.0499682
-4.4958992 3.1035817 1.0409381
-4.4843736 3.0852425 1.0493629
-4.5042377 3.09693 1.0545685
-4.5116868 3.0836051 1.0402962
-4.5040202 3.0704663 1.0419689
-4.5105271 3.0633729 1.0421369
-4.5080128 3.0614359 1.0442504
-4.5123234 3.0554061 1.0468552
-4.5241141 3.0537233 1.0404645
-4.5222726 3.0429301 1.0478699
-4.5342922 3.0396085 1.0412481
-4.5353332 3.0321169 1.0425717
-4.5479403 3.029057 1.0418731
-4.5353332 3.0228345 1.0541462
-4.5569892 3.0085568 1.0395828
-4.7142963 3.1153276 0.97657114
-4.7142382 3.1053669 0.98560053
-4.7120571 3.0953472 0.97492027
-4.727262 3.097779 0.98888367
-4.7288485 3.0862863 0.9783861
-4.7230206 3.066999 0.97090495
-4.7438049 3.0708866 0.9822765
-4.7432566 3.0663745 0.97693801
-4.7433972 3.0586679 0.9717328
-4.751256 3.0534949 0.97861165
-4.7536688 3.0325279 0.97534227
-4.75142 3.0359349 0.98870546
-4.7601328 3.0258296 0.97864795
-4.7595167 3.0248165 0.97762758
-4.7649274 3.0065053 0.97172564
-4.9402881 3.1182704 0.90548986
-4.9437985 3.093329 0.91742861
-4.9359279 3.0931959 0.9114843
-4.9533858 3.0971732 0.9044686
-4.9560399 3.0775337 0.91892081
-4.9518051 3.0797143 0.9190529
-4.95083 3.0683665 0.90924489
-4.9564819 3.05252 0.91599029
-4.9721818 3.0614946 0.90838736
-4.9688921 3.0492535 0.90914369
-4.9714952 3.0452993 0.90837228
-4.9726601 3.0421505 0.90956432
-4.9818769 3.0311792 0.91753453
-4.9970284 3.0270467 0.91639906
-4.9991856 3.0045476 0.90254706
-5.1684008 3.1071687 0.85014099
-5.1560888 3.0981996 0.84098577
-5.1735749 3.0878365 0.84292495
-5.1643057 3.0860221 0.8407855
-5.1826291 3.0717359 0.85335773
-5.1801863 3.0590761 0.84893441
-5.1785045 3.0494702 0.84832704
-5.1956205 3.0548573 0.84371883
-5.1847563 3.049293 0.84195441
-5.1950173 3.0457616 0.84467328
-5.1991205 3.0387154 0.84039366
-5.2079558 3.0282862 0.85436445
-5.2059364 3.0046663 0.8451978
-5.3852139 3.1082613 0.77378464
-5.3835049 3.0839198 0.78298646
-5.3892126 3.0862861 0.78677189
-5.399334 3.074589 0.76820099
-5.3900518 3.0700202 0.78227264
-5.4053669 3.0605505 0.77804136
-5.4024367 3.0650437 0.77754593
-5.4167767 3.0496485 0.77727729
-5.4153857 3.0496221 0.77385867
-5.420013 3.035809 0.77410507
-5.4137969 3.030149 0.77157706
-5.4313197 3.0105023 0.77223212
-5.4196301 3.0094414 0.78278416
-5.5890636 3.0932245 0.70151204
-5.5922651 3.0796506 0.71087748
-5.6013832 3.0750229 0.7183215
-5.6147223 3.0775778 0.71781355
-5.6085453 3.0700336 0.70947075
-5.6226263 3.0481107 0.70866787
-5.6201148 3.0457802 0.70162445
-5.6173463 3.0338752 0.71649927
-5.6370945 3.0286462 0.71931148
-5.6361766 3.0192952 0.70865262
-5.6446958 3.0096073 0.71869087
-8.0799646 0.17261982 0.10463081
-8.0861597 0.15155452 0.10532854
-8.0848141 0.14409982 0.10146283
-8.0894241 0.11244723 0.10840144
-8.0772057 0.092623256 0.10752328
-1.7073778 5.0119085 1.1465364
-1.7003086 5.0081611 1.1618805
-1.7037544 4.9994192 1.1505264
-1.7174962 5.0057797 1.1604433
-1.7300103 4.9985933 1.1619843
-1.7281576 4.9966331 1.1492229
-1.7414412 4.9862714 1.1516157
-1.7516984 4.9887376 1.1482953
-1.7454655 4.9832101 1.1503689
-1.7003387 4.8194313 1.2203975
-1.7116609 4.7990508 1.2129861
-1.7158051 4.8127079 1.2242187
-1.7246017 4.8098855 1.2291107
-1.7247492 4.8002834 1.2227746
-1.7349763 4.8051267 1.2116729
-1.743659 4.7987781 1.2210412
-1.7450998 4.786098 1.2224878
-1.7441442 4.7901101 1.2288507
-1.7665057 4.7873001 1.2121459
-1.7010261 4.616406 1.2781839
-1.6973178 4.597837 1.2799454
-1.7210176 4.6018109 1.2777641
-1.7134814 4.603673 1.2951694
-1.7210498 4.5920677 1.2853912
-1.734951 4.5969129 1.2828841
-1.7399505 4.5997496 1.2964656
-1.7355783 4.5878158 1.2798138
-1.7497561 4.5835047 1.2896298
-1.7575674 4.5834956 1.2791013
-1.7620802 4.5898628 1.277018
-1.7668377 4.5863481 1.2787575
-1.7698303 4.5855398 1.2868719
-1.7750009 4.5786715 1.2792579
-1.7827626 4.5706339 1.2824575
-1.8002989 4.5750923 1.2929299
-1.8003389 4.5609441 1.2886754
-1.8067937 4.5575576 1.2949326
-1.8098968 4.56638 1.2793332
-1.8231804 4.5537734 1.2861884
-1.8269891 4.5630341 1.2818829
-1.8328774 4.5539126 1.2965437
-1.8370225 4.548171 1.2928866
-1.8530498 4.5436282 1.2848599
-1.8566873 4.5576892 1.291304
-1.8571216 4.5405755 1.284723
-1.8670799 4.5497808 1.2865196
-1.8812889 4.5388861 1.2874646
-1.8692371 4.53124 1.2797751
-1.892781 4.5366578 1.2820318
-1.889466 4.5246115 1.2961099
-1.8904529 4.5330172 1.2836369
-1.8967752 4.5236154 1.2880015
-1.9067509 4.5245194 1.290411
-1.9247496 4.5281162 1.2894781
-1.9163004 4.5176053 1.2940372
-1.9344283 4.5234585 1.290416
-1.9307559 4.5214214 1.2785233
-1.9461348 4.5177517 1.2816163
-1.9491993 4.5168495 1.2927681
-1.9500034 4.5055709 1.2945232
-1.9567255 4.499609 1.2873429
-1.9759167 4.4936256 1.2934278
-1.9707396 4.5039635 1.2830932
-1.9831491 4.5025959 1.2790403
-1.9764875 4.4959669 1.2871699
-1.985263 4.4974952 1.2838552
-1.9976557 4.4889784 1.2812148
-2.0019372 4.4913602 1.2776248
-2.0031219 4.4769521 1.2958618
-2.0131507 4.4880099 1.2855574
-2.0214205 4.4786124 1.2920378
-2.0368667 4.4762864 1.2952902
-2.0262239 4.4653969 1.2916442
-2.0459118 4.4683528 1.2894032
-2.0496485 4.464221 1.2833143
-2.0452516 4.4575615 1.2815443
-2.0641656 4.4647527 1.2940559
-2.0657158 4.4539018 1.2917572
-2.0708518 4.4481015 1.2778665
-2.0777471 4.4585047 1.2778587
-2.0749426 4.4468656 1.2912874
-2.0856533 4.4460039 1.2852327
-2.0931079 4.4420047 1.2911392
-2.1042044 4.4445333 1.2828615
-2.1175377 4.4295373 1.2933207
-2.1169555 4.4251461 1.2799976
-2.1181395 4.4280443 1.2767514
-2.1268075 4.4355927 1.2855489
-2.1377702 4.4242001 1.2914497
-2.1426194 4.4121041 1.2906651
-2.1474721 4.4090004 1.281162
-2.1588919 4.4213696 1.2937266
-2.1563623 4.4124632 1.2852297
-2.167922 4.3986359 1.2822082
-2.1677554 4.3976464 1.2871459
-2.177125 4.4034061 1.2906556
-2.1798134 4.394145 1.2800362
-2.1857438 4.4023747 1.2799459
-2.2028725 4.3857965 1.2914526
-2.1940961 4.3905191 1.2938617
-2.2060997 4.3765354 1.2961738
-2.2076023 4.377274 1.2938702
-2.216536 4.3866801 1.2856843
-2.2339621 4.3706603 1.2867037
-2.2344055 4.3809366 1.2897749
-2.2299068 4.3679681 1.2816554
-2.241894 4.3584323 1.2873331
-2.2444961 4.3690829 1.2843071
-2.2471843 4.3687172 1.2877781
-2.2583613 4.3632355 1.2790557
-2.2671247 4.3518543 1.2794422
-2.2735715 4.3450699 1.2836682
-2.2823176 4.3554468 1.2804096
-2.2792451 4.3544884 1.2842489
-2.2951486 4.3391733 1.2814912
-2.3079765 4.3344388 1.2889001
-2.3089194 4.3437948 1.2899168
-2.3041801 4.3366218 1.2847358
-2.3224623 4.3328295 1.2823496
-2.3172688 4.3239245 1.277651
-2.3207934 4.3323164 1.2847484
-2.3439267 4.3203173 1.2882475
-2.3428297 4.325623 1.2853179
-2.3449867 4.3200479 1.2846328
-2.3432996 4.3046117 1.2918438
-2.3643656 4.3023853 1.2775397
-2.3580182 4.3052492 1.2958199
-2.3706493 4.2988811 1.2901636
-2.3684571 4.3002553 1.2839601
-2.3886461 4.2928424 1.2921054
-2.3935294 4.28792 1.2919043
-2.3913102 4.2858753 1.2829742
-2.4055874 4.2909331 1.2826287
-2.4027896 4.2798362 1.2799951
-2.4206722 4.2764225 1.2852207
-2.4113388 4.2779355 1.2915238
-2.4163051 4.2717834 1.2840029
-2.422986 4.2589831 1.2934345
-2.4353189 4.254354 1.2875692
-2.4338503 4.2555089 1.2776283
-2.4442317 4.25775 1.2861109
-2.4548092 4.2481747 1.2959025
-2.4543121 4.2502813 1.2941145
-2.4741559 4.2411418 1.2845998
-2.4766283 4.2400694 1.2950507
-2.4738703 4.2342763 1.2904018
-2.4848044 4.2294579 1.2829965
-2.4832544 4.2238946 1.2861948
-2.4922681 4.2319298 1.2881759
-2.5071421 4.2273602 1.2947326
-2.5119519 4.2183313 1.2869592
-2.5082746 4.2246418 1.2930472
-2.5148005 4.2173615 1.2846878
-2.5231097 4.216145 1.2906418
-2.5409286 4.198359 1.2789856
-2.5282915 4.2092285 1.2850064
-2.5402982 4.1950574 1.289687
-2.5397055 4.188324 1.2922907
-2.5559094 4.1984606 1.2864245
-2.5701272 4.1796012 1.2794919
-2.5577834 4.1818051 1.2870414
-2.5732079 4.1735554 1.2844208
-2.5825393 4.1846433 1.2780479
-2.5802252 4.1732807 1.2939943
-2.5919518 4.1699533 1.2956986
-2.5953298 4.165112 1.2918249
-2.5926819 4.1541076 1.2773402
-2.6053481 4.1695352 1.2796906
-2.6154056 4.1545925 1.2957541
-2.6113243 4.1512609 1.2965431
-2.6341703 4.1460977 1.2831295
-2.6294618 4.1513281 1.2850671
-2.6273687 4.1330414 1.2817019
-2.6516433 4.1428781 1.2905917
-2.6399662 4.126791 1.2797796
-2.64658 4.1331253 1.2877595
-2.6570621 4.1279016 1.2883769
-2.6620235 4.1157999 1.2880714
-2.6646297 4.1194239 1.2964814
-2.6711669 4.1129079 1.2852259
-2.6769099 4.1093192 1.2924809
-2.6960614 4.1162076 1.288649
-2.6932697 4.1109514 1.2902205
-2.6938381 4.1071792 1.2853266
-2.7055116 4.1008363 1.2880523
-2.7079918 4.0936275 1.2808268
-2.7224867 4.0816789 1.2920996
-2.7163589 4.0905056 1.295001
-2.7305315 4.0824585 1.2852652
-2.7362885 4.0736012 1.2927599
-2.7332959 4.0647221 1.2804203
-2.7430427 4.062408 1.2787311
-2.7566164 4.0685959 1.2955565
-2.7486129 4.0599217 1.2923878
-2.7654979 4.0652747 1.2866627
-2.7596519 4.0538425 1.2775232
-2.7810259 4.0536051 1.2802372
-2.7711217 4.0451803 1.2955886
-2.7783105 4.0482626 1.2867111
-2.7952299 4.031261 1.292802
-2.8046491 4.0429211 1.293848
-2.8064024 4.0304976 1.2964218
-2.70151 3.8756566 1.35532
-2.7079005 3.8691249 1.3431156
-2.7174542 3.8713555 1.3601296
-2.712728 3.8650744 1.3495851
-2.7171359 3.8630557 1.3626848
-2.7188246 3.8565724 1.3512491
-2.7251563 3.848526 1.3467926
-2.7403605 3.8491807 1.3492399
-2.7494681 3.8460312 1.3472604
-2.7375245 3.8467379 1.356778
-2.7430019 3.8296113 1.3498853
-2.7558618 3.8314772 1.3602458
-2.7609208 3.8291669 1.3566296
-2.7689602 3.8169553 1.3505322
-2.767539 3.8257027 1.3462238
-2.7730124 3.8181231 1.3592472
-2.7899163 3.8095682 1.3480469
-2.791271 3.8111601 1.3613315
-2.7901731 3.80899 1.3553039
-2.791049 3.8041036 1.353828
-2.802402 3.7990751 1.359078
-2.68783 3.6352565 1.4163404
-2.695493 3.6431208 1.4288734
-2.7067671 3.6282642 1.4130697
-2.7041333 3.6201429 1.4098957
-2.7258024 3.6318564 1.4230318
-2.714443 3.611969 1.4115101
-2.7342784 3.616024 1.4254848
-2.740824 3.6064692 1.4212012
-2.7333918 3.6013246 1.4159508
-2.7474303 3.6101081 1.4095986
-2.7562132 3.605927 1.4146217
-2.7540147 3.5991418 1.4112926
-2.7592778 3.5861361 1.4168979
-2.760339 3.5808127 1.4181798
-2.764569 3.5788634 1.4149802
-2.7756577 3.5733111 1.4157051
-2.7782624 3.5729558 1.4243042
-2.7868872 3.5710821 1.4271744
-2.7797899 3.5616624 1.4287333
-2.7979376 3.563221 1.4229159
-2.8024321 3.5610075 1.4167645
-2.801898 3.5659981 1.4276822
-2.8046875 3.5507262 1.4094553
-2.7042556 3.411828 1.4760594
-2.6999409 3.4014134 1.4783031
-2.6988208 3.4048951 1.4788765
-2.7169702 3.3907506 1.4829838
-2.7065153 3.3929553 1.4891135
-2.7131848 3.3872252 1.4897264
-2.7182903 3.3883102 1.4758077
-2.7292078 3.3698578 1.4835923
-2.7262712 3.3768914 1.4802914
-2.7324119 3.3660817 1.4856491
-2.736774 3.3630342 1.4836061
-2.7408125 3.3690305 1.4949286
-2.7426026 3.3608713 1.4935194
-2.7638135 3.3592815 1.4817592
-2.7609117 3.35286 1.4760035
-2.7718751 3.3444772 1.4883244
-2.7622199 3.3356922 1.4855434
-2.7664781 3.340687 1.4881297
-2.7829461 3.3333111 1.4815758
-2.7827098 3.3244812 1.4880452
-2.7971101 3.3359711 1.4953063
-2.7935483 3.3280983 1.4924097
-2.7986584 3.3231065 1.4852064
-2.805172 3.3215694 1.4802719
-2.8034406 3.3075941 1.4927816
-2.8074591 3.3073101 1.4807806
-2.8191514 3.3013308 1.4838729
-2.6905305 3.152715 1.5421315
-2.7022069 3.1554637 1.5506192
-2.7004318 3.1430821 1.5541753
-2.712182 3.1409283 1.5531254
-2.716666 3.1469586 1.5481137
-2.7240412 3.1324959 1.5420278
-2.7186146 3.136131 1.5583284
-2.7381167 3.1261039 1.5445839
-2.7251039 3.1166584 1.5544924
-2.744087 3.120116 1.5423645
-2.7399721 3.1136951 1.5485924
-2.7438798 3.1199827 1.5613532
-2.7592943 3.1124244 1.5455226
-2.7511473 3.0974896 1.551334
-2.764045 3.1024396 1.5469782
-2.7619488 3.104378 1.5519682
-2.765933 3.0961008 1.5444078
-2.7736113 3.0926743 1.5506408
-2.7750287 3.0866079 1.5512551
-2.7865324 3.0859005 1.5591596
-2.7901583 3.0736446 1.5444824
-2.7875509 3.0818124 1.5599374
-2.7921772 3.0788915 1.551685
-2.7926288 3.0684383 1.5523549
-2.8072634 3.0694025 1.5418379
-2.8062482 3.0567727 1.5571282
-2.8202376 3.0644631 1.5480167
-2.8217819 3.048774 1.5593596
-2.8170879 3.0559614 1.5485231
-2.8317738 3.035933 1.5608724
-2.8185499 3.0365615 1.5448649
-2.8399975 3.0440748 1.5609301
-2.8259847 3.0312335 1.5579857
-2.8402188 3.022207 1.5485049
-2.8537772 3.0228069 1.5439113
-2.8578472 3.0286775 1.5506171
-2.8466213 3.0248084 1.5489479
-2.8645012 3.0036395 1.5555307
-2.9815328 3.147697 1.4869611
-2.9990854 3.1448264 1.4886023
-3.004283 3.1394076 1.4948305
-3.005482 3.1367631 1.4925364
-3.0106099 3.1323481 1.4813715
-3.0186765 3.1179101 1.4851564
-3.0162177 3.1141191 1.4935235
-3.0183468 3.1104581 1.4917489
-3.0337641 3.1022177 1.4900993
-3.0308447 3.100286 1.4912806
-3.0413368 3.0960059 1.4842317
-3.034106 3.0985413 1.478506
-3.0452282 3.1002409 1.4915613
-3.0501163 3.085098 1.4861783
-3.0572925 3.0891771 1.4805923
-3.0556276 3.0895343 1.4847864
-3.0701718 3.0766885 1.4894139
-3.0563428 3.0660462 1.4946108
-3.0642827 3.0643134 1.4758035
-3.0738661 3.0698209 1.4793068
-3.082262 3.0691512 1.4827787
-3.0777011 3.0600209 1.4930402
-3.0788596 3.0440717 1.4892621
-3.0869567 3.0475314 1.4946074
-3.100431 3.048106 1.4883045
-3.0994852 3.0346305 1.4866372
-3.0943391 3.0308905 1.4764086
-3.1045597 3.0252521 1.4798282
-3.1095772 3.0159414 1.4858115
-3.1133957 3.0213087 1.4816045
-3.1137049 3.0225348 1.4810361
-3.1305363 3.0125713 1.4756519
-3.2735572 3.1360211 1.4123522
-3.2640746 3.1250916 1.4231248
-3.2692404 3.1249187 1.418804
-3.2807026 3.1299167 1.4253461
-3.2738256 3.1242793 1.4124918
-3.2771711 3.1126342 1.418349
-3.2970903 3.1201782 1.4192512
-3.2910199 3.1081042 1.4098821
-3.3091502 3.0999155 1.4261066
-3.3078425 3.0990839 1.416741
-3.3119123 3.095871 1.4248757
-3.312989 3.0864985 1.4266566
-3.3232868 3.0763123 1.4128463
-3.3178985 3.0790088 1.4286216
-3.3259621 3.072921 1.4233536
-3.3268733 3.0678203 1.4110402
-3.3419209 3.0671263 1.410877
-3.3360596 3.0568223 1.4232517
-3.339561 3.0527012 1.4120559
-3.3468313 3.0541947 1.4246525
-3.3434606 3.0359187 1.4186662
-3.3519487 3.0408597 1.4279438
-3.3586495 3.0397902 1.4116772
-3.3591537 3.0283897 1.4227552
-3.3638761 3.0332003 1.4123995
-3.3738601 3.0213673 1.4216033
-3.3761508 3.0187483 1.4147791
-3.3785982 3.0062454 1.4223229
-3.5301111 3.1393852 1.3441372
-3.5315406 3.1244032 1.3584152
-3.5403666 3.1170268 1.3591068
-3.535172 3.1253908 1.3494351
-3.5406928 3.1112761 1.3433956
-3.5424731 3.1008725 1.3506632
-3.5531688 3.1099553 1.3474545
-3.554213 3.0932565 1.3571324
-3.5660465 3.0984623 1.3489164
-3.5646973 3.0854101 1.3529284
-3.5757973 3.0864742 1.3499215
-3.5787897 3.0704591 1.3568728
-3.5874972 3.0699608 1.361394
-3.5755062 3.0589938 1.3592319
-3.5931797 3.0668354 1.3479136
-3.5968857 3.057219 1.3511562
-3.5933173 3.0612228 1.3484523
-3.5929503 3.0484908 1.3540261
-3.6028984 3.0482271 1.3497885
-3.6010556 3.0336072 1.3574874
-3.6151936 3.0321753 1.351245
-3.6123316 3.0320315 1.3539881
-3.6225111 3.0274541 1.3612397
-3.6281624 3.0191348 1.3625368
-3.6359687 3.0174017 1.3566941
-3.7808056 3.1360986 1.2799733
-3.7768404 3.1225233 1.2785729
-3.795572 3.1135533 1.2894769
-3.7887223 3.1188667 1.2851595
-3.7861028 3.1102476 1.2912705
-3.7957771 3.0917079 1.2810036
-3.8116863 3.1002407 1.295653
-3.8048449 3.0827971 1.2907909
-3.8107445 3.0838988 1.2826812
-3.8153398 3.0813832 1.2779161
-3.8257699 3.0639324 1.2770482
-3.8266275 3.074789 1.2878977
-3.8288777 3.071249 1.2950763
-3.8402164 3.0588863 1.2928733
-3.835865 3.0534632 1.2873622
-3.8453953 3.0426786 1.2886286
-3.8451848 3.0402901 1.2837508
-3.8503175 3.0290408 1.2867587
-3.8603046 3.0361822 1.2962033
-3.8583939 3.0230114 1.2884735
-3.8612409 3.0236862 1.2886403
-3.8649483 3.0077715 1.2850165
-4.0271311 3.1292186 1.2169257
-4.0329561 3.12802 1.2281233
-4.0209761 3.1154182 1.2192687
-4.0344992 3.1175241 1.2250063
-4.0467482 3.1040709 1.2137384
-4.0438671 3.0897081 1.2166098
-4.0379705 3.0895734 1.2120173
-4.0426211 3.0755575 1.2196547
-4.0549936 3.0828948 1.2133731
-4.0671916 3.0707178 1.216589
-4.063005 3.0698757 1.2113186
-4.0606151 3.0675473 1.2104822
-4.0670199 3.0615296 1.2226826
-4.0822711 3.0463114 1.2226337
-4.0917768 3.0431592 1.2147824
-4.0925426 3.0471954 1.218225
-4.0904288 3.0414274 1.2271956
-4.0928998 3.0353003 1.2278191
-4.1077251 3.0210841 1.2214546
-4.1088243 3.0189455 1.2285938
-4.106699 3.0052607 1.2205778
-4.2624865 3.1091497 1.1496396
-4.2666068 3.1197484 1.1446687
-4.2785187 3.0993392 1.1501842
-4.2704711 3.0936604 1.1582581
-4.2902665 3.0914433 1.1560844
-4.2866106 3.0955596 1.1538651
-4.2939758 3.0814168 1.1512469
-4.3007092 3.0766523 1.1601464
-4.2937989 3.0749846 1.1526473
-4.2997408 3.0596294 1.1572095
-4.3136902 3.0653164 1.1604882
-4.3122835 3.0512094 1.1603364
-4.3158388 3.0495086 1.1457524
-4.3138704 3.0401654 1.1514722
-4.3238196 3.0353281 1.1609638
-4.3359342 3.0184395 1.1605666
-4.3302598 3.0184703 1.1520274
-4.3271947 3.0160439 1.1447307
-4.4906111 3.1118488 1.0954927
-4.506278 3.0987012 1.0832046
-4.4973741 3.0958552 1.0826283
-4.5051827 3.0986586 1.0939755
-4.5131345 3.0821404 1.0896587
-4.5156612 3.0918164 1.0820409
-4.5124593 3.0757604 1.0956343
-4.5197568 3.0717988 1.0783935
-4.5274429 3.0577121 1.0872436
-4.5436592 3.0508821 1.0797334
-4.5471635 3.0602083 1.0870469
-4.5336103 3.038192 1.0875078
-4.5523367 3.0293951 1.0914234
-4.5516305 3.0370963 1.0844493
-4.5595679 3.0211439 1.08727
-4.5518136 3.0269539 1.0860857
-4.5716677 3.0202463 1.09517
-4.735806 3.1138473 1.0203373
-4.7394342 3.1004694 1.0240409
-4.7342029 3.0951288 1.0272573
-4.7364726 3.0905287 1.0261488
-4.7514195 3.0837176 1.0293787
-4.7458963 3.0824072 1.030172
-4.7564483 3.0660214 1.0250331
-4.7539649 3.0659072 1.0303143
-4.7686515 3.0577478 1.0277838
-4.764513 3.0539258 1.0249295
-4.7712812 3.0480344 1.0187315
-4.7665863 3.0428326 1.0257719
-4.7781787 3.0271709 1.0140941
-4.7865453 3.0335386 1.0244447
-4.796011 3.0092494 1.0146184
