# .PCD v0.7 - Point Cloud Data file format
VERSION 0.7
FIELDS x y z
SIZE 4 4 4
TYPE F F F
COUNT 1 1 1
WIDTH 1510
HEIGHT 1
VIEWPOINT 0 0 0 1 0 0 0
POINTS 1510
DATA ascii
-3.4674854 -3.8550568 1.5582409
-3.4464943 -3.8643215 1.5629218
-3.445574 -3.8785548 1.5534241
-3.4355989 -3.8784943 1.5579901
-3.4365354 -3.8917201 1.5588139
-3.4291019 -3.8905108 1.5507193
-3.4217486 -3.8992674 1.5584825
-3.4254918 -3.8885691 1.5496725
-3.4235561 -3.9034839 1.5620975
-3.4081347 -3.9170427 1.5661315
-3.4117403 -3.9192333 1.5657696
-3.3970284 -3.9258389 1.560984
-3.3976293 -3.9169366 1.5667988
-3.5136158 -4.069294 1.5037597
-3.5189314 -4.0823736 1.5060537
-3.5034158 -4.073452 1.5143678
-3.4959884 -4.0826159 1.4987288
-3.5007908 -4.1009688 1.4985837
-3.4943962 -4.102839 1.508312
-3.47557 -4.0947461 1.5092617
-3.472703 -4.1157246 1.5127937
-3.470191 -4.1074638 1.5144851
-3.4724579 -4.1252828 1.5098366
-3.4489033 -4.1186786 1.5033964
-3.4546404 -4.123086 1.5087944
-3.438077 -4.1376805 1.5080241
-3.4331925 -4.1305575 1.5029916
-3.4439406 -4.1339531 1.5044998
-3.4348269 -4.1366777 1.5090241
-3.4159782 -4.146306 1.506519
-3.416173 -4.1588044 1.5079051
-3.4128294 -4.1545343 1.502414
-3.4077876 -4.1582813 1.5039577
-3.4073875 -4.1642313 1.4969512
-3.3934212 -4.1816821 1.5103751
-3.5154076 -4.337954 1.4602937
-3.4965911 -4.3256745 1.4558971
-3.5028005 -4.329927 1.4529183
-3.4874947 -4.3508563 1.4520203
-3.4876578 -4.3387341 1.4462913
-3.470319 -4.3526106 1.4528533
-3.4715874 -4.3489542 1.4484664
-3.4583404 -4.3660731 1.4451052
-3.4635425 -4.3686161 1.4605589
-3.4557445 -4.3630228 1.4433181
-3.4545157 -4.3838959 1.4441679
-3.4496214 -4.3920054 1.4422066
-3.4291172 -4.3923841 1.4608942
-3.4315848 -4.383523 1.4435451
-3.4149437 -4.4008985 1.4432025
-3.4240248 -4.4070158 1.4538587
-3.4065371 -4.4004879 1.4530388
-3.4134297 -4.4068065 1.4599586
-3.4036772 -4.424428 1.4491856
-3.3984642 -4.4203587 1.4488472
-3.507618 -4.5741186 1.3987285
-3.498569 -4.5763245 1.3990651
-3.4914746 -4.5841527 1.4038392
-3.4856856 -4.6005821 1.4022814
-3.4772389 -4.6065111 1.3881469
-3.4691281 -4.6076689 1.3926855
-3.4703541 -4.6174927 1.3885336
-3.4523935 -4.6203694 1.4028357
-3.4475062 -4.6196609 1.4042808
-3.4533851 -4.6199126 1.3945509
-3.4395959 -4.6183662 1.3887523
-3.442178 -4.634172 1.4056499
-3.424417 -4.6292901 1.3996122
-3.421875 -4.6450338 1.4020284
-3.4208844 -4.638752 1.4033908
-3.4140213 -4.6507874 1.3884615
-3.4026129 -4.6504836 1.3885655
-3.3953502 -4.6586604 1.3906407
-3.507031 -4.8242373 1.3445231
-3.5037897 -4.8264675 1.3367236
-3.4902716 -4.8213692 1.3352914
-3.4825454 -4.8453217 1.3428656
-3.4779146 -4.8379874 1.3401244
-3.4593148 -4.8545933 1.3464332
-3.458292 -4.8566961 1.3438084
-3.4559002 -4.8584309 1.3539239
-3.4484308 -4.8552589 1.3491098
-3.4408507 -4.8713322 1.3408762
-3.4311886 -4.8723483 1.3476532
-3.4338973 -4.8768625 1.3370973
-3.4243984 -4.8746047 1.3365273
-3.4163253 -4.8913732 1.3368835
-3.4006712 -4.8902707 1.3494426
-3.4077518 -4.8973346 1.3502555
-3.3885169 -4.8901482 1.3538154
-6.2596955 -2.9828403 1.1257826
-6.2591553 -3.0055544 1.1274955
-6.2524281 -3.0125933 1.1179651
-6.2494955 -3.0091989 1.1265804
-6.2313676 -3.0239966 1.1196283
-6.2314553 -3.0366645 1.1315739
-6.2347937 -3.0529597 1.1327055
-6.2264218 -3.04689 1.1279966
-6.2191997 -3.0587804 1.1338637
-6.2218657 -3.0694289 1.1179979
-6.0385308 -2.98471 1.1694592
-6.044631 -3.0092113 1.1746231
-6.0290065 -3.0111897 1.1814897
-6.0229006 -3.0144515 1.1804866
-6.0281677 -3.0238135 1.1734159
-6.0203748 -3.0375035 1.1824013
-6.0206246 -3.0387845 1.1838095
-6.0197315 -3.0559583 1.1799996
-6.0035357 -3.0701869 1.1730053
-6.0014606 -3.0713704 1.184063
-5.9952397 -3.0864305 1.1827232
-5.8183045 -3.0033281 1.2376596
-5.8278899 -2.9970224 1.2267276
-5.8105969 -3.0088279 1.2209688
-5.8142962 -3.0301294 1.2342774
-5.8050542 -3.0278785 1.2223191
-5.8068156 -3.0301299 1.2374971
-5.807158 -3.055752 1.2239125
-5.7912984 -3.0494537 1.2245048
-5.7824221 -3.0653677 1.232313
-5.7824769 -3.07936 1.2334545
-5.7838597 -3.0723004 1.2376298
-5.612433 -2.9879441 1.2885836
-5.6022477 -3.001348 1.2835368
-5.5978098 -3.0026727 1.2853189
-5.6000528 -3.0189886 1.2774758
-5.594243 -3.0213106 1.2754997
-5.5932446 -3.02823 1.2760137
-5.5858192 -3.0435572 1.2909324
-5.5777912 -3.054286 1.2780374
-5.581944 -3.0493591 1.2792444
-5.5649443 -3.0701163 1.2755997
-5.5637584 -3.073952 1.273313
-5.5639391 -3.0717983 1.2854612
-5.3805118 -2.9954946 1.3364486
-5.3840666 -2.9993355 1.326616
-5.3754539 -3.0015955 1.3422828
-5.3688073 -3.027097 1.3388453
-5.3616357 -3.029424 1.3278898
-5.3595352 -3.0279846 1.3340087
-5.3703189 -3.0349703 1.3328519
-5.3598852 -3.0492396 1.3387293
-5.353086 -3.0466177 1.3285563
-5.3485627 -3.0684812 1.3283166
-5.351881 -3.0798771 1.3382347
-5.3365326 -3.0790234 1.3318436
-5.3310061 -3.0937631 1.3307186
-5.1628914 -2.9891078 1.3839434
-5.1652508 -2.9982398 1.3900244
-5.158555 -3.0095084 1.3850532
-5.1457305 -3.0158091 1.3805987
-5.1540527 -3.0159347 1.389371
-5.1364875 -3.03353 1.3882561
-5.1290851 -3.0308816 1.3927619
-5.1419129 -3.0558412 1.3933506
-5.1248121 -3.0497527 1.3822653
-5.1340923 -3.0624485 1.3839068
-5.1244874 -3.0582616 1.3806995
-5.1139793 -3.0806301 1.3955818
-5.1173797 -3.0805087 1.3864111
-5.1057415 -3.0917792 1.3781493
-4.9335637 -2.9953895 1.4492968
-4.9377279 -3.0056489 1.4377159
-4.9229975 -3.0127523 1.4359753
-4.9237514 -3.0169396 1.4364611
-4.9239068 -3.0282927 1.4302155
-4.9151382 -3.0332024 1.4384482
-4.9047184 -3.032794 1.4380358
-4.9174962 -3.0461733 1.4424173
-4.9153824 -3.0472598 1.434076
-4.9024291 -3.0610242 1.4416143
-4.8977284 -3.0719216 1.4324778
-4.8942018 -3.0711792 1.4399897
-4.8822465 -3.0799119 1.4473
-4.8920226 -3.0936141 1.4373189
-4.8813028 -3.091697 1.4428747
-4.7139702 -3.0016043 1.482736
-4.7013888 -3.0087504 1.4975528
-4.7092113 -3.0129285 1.4858625
-4.6926427 -3.0192561 1.4999522
-4.7044067 -3.0169041 1.4871377
-4.688623 -3.0341341 1.4902803
-4.6819668 -3.03213 1.5010136
-4.687789 -3.0424724 1.4898566
-4.6862922 -3.0469019 1.4918337
-4.674767 -3.0449328 1.4825581
-4.6776772 -3.0628104 1.486558
-4.673048 -3.0723023 1.4900026
-4.6535931 -3.0738208 1.4958543
-4.6658192 -3.0829844 1.5019573
-4.6439462 -3.0881345 1.4969857
-4.6548791 -3.1017327 1.5013514
-4.4821663 -2.985662 1.5466137
-4.4793549 -3.0066931 1.5357581
-4.4676914 -3.0104868 1.5470225
-4.4740424 -3.0070243 1.5467997
-4.4696603 -3.0107496 1.5352366
-4.4612694 -3.0341322 1.5407133
-4.4494247 -3.0223558 1.5511971
-4.4517202 -3.0271103 1.5390369
-4.4479041 -3.0343063 1.5482402
-4.4490504 -3.0567579 1.5503529
-4.4458227 -3.0513229 1.5477846
-4.4296551 -3.0672677 1.5504564
-4.4243345 -3.0757494 1.5356001
-4.4277406 -3.0747907 1.5504659
-4.4313607 -3.0736675 1.5478605
-4.4265356 -3.0883796 1.5481201
-4.416225 -3.0954826 1.5463983
-4.415422 -3.0891244 1.546158
-4.249023 -2.99195 1.5972829
-4.2513151 -2.9912155 1.5998493
-4.2314863 -3.0115232 1.594069
-4.2342172 -3.0199418 1.5985562
-4.2342687 -3.0273271 1.6007677
-4.2291675 -3.0224142 1.5901382
-4.2291927 -3.0254266 1.6068261
-4.2118149 -3.0279267 1.5949901
-4.214169 -3.0444381 1.6022334
-4.2182369 -3.044477 1.6020108
-4.2025371 -3.0602036 1.5938803
-4.208035 -3.0624146 1.5924281
-4.1909585 -3.0689969 1.5966061
-4.1996536 -3.0625193 1.5982976
-4.1838536 -3.0803099 1.5985301
-4.1858339 -3.0772247 1.5895956
-4.1784358 -3.0783982 1.6035632
-4.1743412 -3.0864356 1.6009393
-4.1820745 -3.1010773 1.5877063
-4.0078154 -2.9886475 1.6526622
-4.0086732 -2.9999657 1.6554509
-3.9976535 -3.0010569 1.6419134
-4.0080781 -3.0093544 1.6476722
-3.9943171 -3.0106385 1.6457812
-3.9988565 -3.020422 1.6519663
-3.983156 -3.0164936 1.6470972
-3.976382 -3.0294826 1.6469092
-3.9756327 -3.0427012 1.6445326
-3.9774995 -3.0479853 1.6533568
-3.9725914 -3.0380917 1.6450497
-3.9750507 -3.0532427 1.6510385
-3.9547136 -3.0615687 1.6415449
-3.9679062 -3.0645225 1.6493566
-3.9553325 -3.0779254 1.641481
-3.9446421 -3.0800867 1.6494126
-3.9477587 -3.0707731 1.6468579
-3.9357367 -3.0789196 1.656893
-3.9438949 -3.0905585 1.6592829
-3.934422 -3.0883138 1.641956
-3.9361172 -3.105418 1.6400841
-3.9261119 -3.1092467 1.6486167
-3.758986 -2.9969151 1.7067033
-3.7726381 -3.0019417 1.6950488
-3.758471 -2.9986825 1.6955286
-3.7521722 -3.0090294 1.6993787
-3.7579343 -3.0067964 1.6980678
-3.7462442 -3.0168531 1.6941296
-3.7445114 -3.019387 1.7040659
-3.7403812 -3.0367751 1.7017543
-3.7335708 -3.0401931 1.7078398
-3.7286251 -3.0379481 1.6955919
-3.7351394 -3.0440512 1.7010688
-3.7158909 -3.047996 1.7067915
-3.7082896 -3.0619707 1.7010394
-3.7202013 -3.0538514 1.710201
-3.7082555 -3.0557058 1.7068502
-3.6976135 -3.0700889 1.6986911
-3.6909022 -3.0669656 1.693241
-3.6942477 -3.083946 1.6956394
-3.6998973 -3.078357 1.6998508
-3.6794543 -3.0920706 1.7115321
-3.691252 -3.096554 1.7023294
-3.6775656 -3.1060517 1.6943949
-3.6781492 -3.1122181 1.6976928
-3.6644778 -3.1145735 1.6943111
-3.514622 -2.9841764 1.7466013
-3.5153005 -2.9923153 1.7573663
-3.5041308 -2.9980423 1.7564378
-3.4984047 -3.0114214 1.7637058
-3.5102732 -3.0147638 1.761734
-3.4979234 -3.0219841 1.7512137
-3.4938855 -3.0253303 1.761369
-3.4790435 -3.0193255 1.7471796
-3.4921291 -3.0382469 1.7519706
-3.4819102 -3.0278466 1.759547
-3.4750659 -3.0389631 1.7575638
-3.4682558 -3.0549469 1.7523652
-3.470674 -3.0439575 1.7463571
-3.4540138 -3.0514448 1.7518817
-3.450079 -3.0550101 1.7589698
-3.4481089 -3.0704424 1.7637374
-3.4566526 -3.0660603 1.7500529
-3.4550343 -3.0710664 1.7472614
-3.4475985 -3.0733953 1.7504308
-3.4353652 -3.0897489 1.7488768
-3.4355485 -3.0835092 1.7610767
-3.4377084 -3.0947168 1.7621571
-3.4250603 -3.0926065 1.7590854
-3.4184134 -3.0981073 1.7533791
-3.4062355 -3.103951 1.7489537
-3.4069626 -3.1121094 1.7539366
-3.4029155 -3.1131024 1.7481362
-3.4125462 -3.1167753 1.7621582
-3.4049616 -3.1373172 1.7586739
-3.394201 -3.1299369 1.7636523
-3.5266366 -3.2781961 1.70735
-3.5250337 -3.2819998 1.6969756
-3.5223436 -3.2774868 1.6935096
-3.5227182 -3.2906649 1.7093351
-3.5087922 -3.2960095 1.7041034
-3.4992847 -3.2864327 1.6954933
-3.5047877 -3.2971668 1.7106643
-3.496084 -3.3018963 1.7069304
-3.4933517 -3.3034124 1.7074165
-3.4940968 -3.3185461 1.7000386
-3.4898565 -3.308851 1.7002889
-3.4895806 -3.3221276 1.7016766
-3.4796727 -3.3372953 1.692512
-3.4732237 -3.3374257 1.6950978
-3.4709423 -3.3282254 1.6972609
-3.453886 -3.3341193 1.6939161
-3.4654331 -3.3501248 1.7047462
-3.4618022 -3.3420424 1.6957496
-3.4418988 -3.3558502 1.710133
-3.4415023 -3.3550322 1.6942724
-3.428477 -3.3746099 1.6929899
-3.4351947 -3.3785546 1.7033075
-3.4205182 -3.3772409 1.7033278
-3.4149992 -3.3741348 1.7080811
-3.4268878 -3.3934104 1.7068921
-3.4166067 -3.3803 1.7046598
-3.4096637 -3.4034131 1.7112659
-3.4118838 -3.4075789 1.7107921
-3.4030941 -3.3965316 1.7013415
-3.3999143 -3.4097846 1.6975335
-3.3925884 -3.414716 1.6989655
-3.5223799 -3.5482194 1.6489331
-3.5258141 -3.5548091 1.6573501
-3.5092211 -3.5606031 1.6536713
-3.5078678 -3.5630159 1.6555084
-3.5076966 -3.5798848 1.6552408
-3.4897511 -3.5745542 1.6566384
-3.4851925 -3.5761938 1.6586416
-3.481101 -3.5938005 1.6564574
-3.4864533 -3.5929909 1.6457784
-3.4756067 -3.6096253 1.6549197
-3.4633212 -3.6049867 1.6524465
-3.4687304 -3.6087568 1.6483116
-3.4657159 -3.6209161 1.6433035
-3.4663734 -3.6167107 1.6407963
-3.4451869 -3.6173298 1.6463273
-3.4442613 -3.6250057 1.6420888
-3.4419315 -3.6331322 1.6411036
-3.4375918 -3.6421833 1.6473976
-3.4354293 -3.6416094 1.6593802
-3.4239392 -3.6552186 1.6396002
-3.423301 -3.6615787 1.6493236
-3.4251294 -3.6583912 1.6401346
-3.4110861 -3.657239 1.6436369
-3.4020443 -3.6618011 1.6561885
-3.395503 -3.6702402 1.6529573
-3.403424 -3.6828239 1.6468799
-3.3955767 -3.6781547 1.6574984
-3.5192845 -3.8363957 1.59155
-3.5059168 -3.8355806 1.6033148
-3.5005593 -3.828372 1.6062715
-3.4949753 -3.8456287 1.587662
-3.499661 -3.8498242 1.5970268
-3.4935288 -3.845093 1.5923233
-3.4838874 -3.8564434 1.5878303
-3.4816878 -3.8663826 1.5996636
-3.4627123 -3.8693798 1.6036712
-3.4698076 -3.869673 1.5970989
-3.4662776 -3.8682477 1.5991958
-3.4563582 -3.8788097 1.6070267
-3.4546673 -3.8893766 1.6069773
-3.4500129 -3.8997285 1.5945749
-3.4439611 -3.9001417 1.6028734
-3.4285381 -3.8998053 1.6007917
-3.4378116 -3.9152169 1.5922407
-3.4315715 -3.9138253 1.5986241
-3.4134912 -3.9188609 1.6068765
-3.411397 -3.9164019 1.5996943
-3.415868 -3.9158292 1.5987881
-3.3982356 -3.9307604 1.5921633
-3.3927658 -3.9294307 1.5998073
-3.3873386 -3.9488835 1.6019276
-3.5200472 -4.0941896 1.5361245
-3.4985061 -4.1032367 1.5478015
-3.4990399 -4.1070137 1.5488722
-3.4881177 -4.110014 1.5361326
-3.4908054 -4.1204047 1.5431472
-3.485234 -4.1141772 1.5374035
-3.4668379 -4.1179042 1.537007
-3.4693413 -4.1294889 1.5464463
-3.4584625 -4.1211004 1.5419747
-3.459933 -4.1327882 1.542802
-3.4592764 -4.1369543 1.5495287
-3.4520853 -4.1453004 1.5521201
-3.4332101 -4.1399083 1.5358379
-3.4332578 -4.1493292 1.5414511
-3.4260383 -4.1671791 1.5415615
-3.4317973 -4.165206 1.552779
-3.4232936 -4.1705918 1.5451409
-3.4151797 -4.1642432 1.5507816
-3.3976197 -4.1727848 1.5496662
-3.4045248 -4.1885724 1.5417106
-3.3905959 -4.1894855 1.5544283
-3.5113258 -4.3390813 1.4913
-3.5078557 -4.3456826 1.4907179
-3.5006611 -4.3581338 1.4855301
-3.4878464 -4.349174 1.4872993
-3.4949143 -4.3717895 1.4958404
-3.4707582 -4.3717232 1.4837861
-3.4742332 -4.3693719 1.4828628
-3.4720607 -4.3752961 1.4981725
-3.4709969 -4.3739676 1.4824607
-3.4578819 -4.3845596 1.4905938
-3.4520423 -4.4003444 1.4839654
-3.4369936 -4.3987312 1.4956468
-3.4425201 -4.3960023 1.4997797
-3.4332275 -4.4065437 1.4977661
-3.422159 -4.4102459 1.4980229
-3.4225428 -4.4158907 1.4832228
-3.4149742 -4.4111166 1.4956427
-3.4083221 -4.4302826 1.4869978
-3.406354 -4.4345045 1.4845327
-3.4000907 -4.4317374 1.4963186
-3.5028422 -4.5826793 1.4448225
-3.4948468 -4.5914602 1.4320965
-3.495163 -4.6119137 1.4469166
-3.4913397 -4.6092272 1.4360036
-3.469523 -4.6216321 1.4461883
-3.4674428 -4.6205869 1.4355193
-3.4601557 -4.6181459 1.4344072
-3.4604423 -4.6352329 1.4389029
-3.4493668 -4.6365376 1.443942
-3.4407496 -4.6377716 1.4365046
-3.44034 -4.6508026 1.4362887
-3.4390883 -4.6422582 1.4321948
-3.4305563 -4.6604576 1.4325413
-3.4271975 -4.6612678 1.4404587
-3.4147449 -4.6667018 1.4408469
-3.4121008 -4.6565037 1.4471471
-3.4001191 -4.6654725 1.4407459
-3.3892429 -4.6811895 1.4421068
-3.5071266 -4.8286099 1.3946717
-3.4864841 -4.8377347 1.3831639
-3.4932721 -4.852931 1.3834468
-3.480269 -4.853364 1.3970864
-3.4713531 -4.851759 1.39733
-3.4620841 -4.8532963 1.3815579
-3.4648907 -4.8688889 1.3851368
-3.4473023 -4.8683524 1.3836902
-3.4434071 -4.8823552 1.3780414
-3.4459062 -4.8720098 1.3814337
-3.4270377 -4.8928199 1.3784654
-3.4232666 -4.8797474 1.3912698
-3.4109964 -4.9002295 1.3937659
-3.418437 -4.8944812 1.3807082
-3.412231 -4.9065967 1.3941245
-3.4057748 -4.9162302 1.3908632
-3.3950841 -4.9154639 1.3968593
-6.275187 -2.9980867 1.1844501
-6.2556343 -3.0025949 1.185088
-6.2662745 -3.0168805 1.1802185
-6.2619224 -3.0182958 1.1822444
-6.2459021 -3.0249426 1.1754802
-6.2388067 -3.0323081 1.1805408
-6.2369227 -3.0452783 1.1844583
-6.2484426 -3.0585287 1.1738164
-6.2376504 -3.0637088 1.1864074
-6.0623555 -2.9821763 1.2243174
-6.0595298 -3.0062845 1.2340689
-6.0577912 -3.0150402 1.2280767
-6.0354028 -3.0186474 1.236558
-6.0378718 -3.0221272 1.2323768
-6.0383034 -3.033823 1.230296
-6.0254874 -3.0426724 1.2295905
-6.0275989 -3.0538986 1.22465
-6.0257812 -3.0609176 1.2351885
-6.0145936 -3.0614297 1.2292699
-6.0108032 -3.0843124 1.2278647
-5.8479791 -3.0001705 1.2817395
-5.8275466 -3.00664 1.284403
-5.8330946 -3.0149343 1.2719165
-5.8301497 -3.009923 1.284402
-5.8313751 -3.0295804 1.2736373
-5.8146696 -3.0406704 1.2824628
-5.8186584 -3.0381324 1.2884961
-5.8075762 -3.0580492 1.2759379
-5.805944 -3.0510623 1.2712896
-5.8102193 -3.0645809 1.2721744
-5.7958884 -3.0716138 1.2772219
-5.6279373 -2.9913893 1.3348827
-5.6080918 -2.9917021 1.321488
-5.6207213 -3.0132887 1.3212564
-5.6008549 -3.0203302 1.3295134
-5.611742 -3.0349078 1.3348205
-5.5937929 -3.0377266 1.3307997
-5.5897994 -3.0337274 1.3349904
-5.5983534 -3.0523713 1.33429
-5.5915446 -3.0595772 1.3281873
-5.5838399 -3.0567503 1.3231618
-5.5710769 -3.0809345 1.3354446
-5.5715613 -3.0894663 1.3352747
-5.5654292 -3.0948324 1.3213724
-5.5595179 -3.104547 1.3282766
-5.5653391 -3.109375 1.3284456
-5.3971319 -3.0259166 1.3845509
-5.3817773 -3.0170515 1.3815672
-5.3822212 -3.0409989 1.3877641
-5.3833551 -3.0424078 1.3745736
-5.3705812 -3.0403931 1.3720227
-5.3628221 -3.049907 1.3730943
-5.3627696 -3.0642078 1.3734345
-5.3628769 -3.0766902 1.3762033
-5.3568759 -3.0675857 1.3770459
-5.3439603 -3.0886376 1.380843
-5.1834922 -2.9976177 1.4322197
-5.1653361 -2.9921548 1.4290775
-5.1701531 -3.0113711 1.4295166
-5.1687632 -3.0159671 1.4360698
-5.1605535 -3.0320456 1.4321549
-5.1548848 -3.024632 1.4262372
-5.1481347 -3.0414433 1.4335238
-5.1410341 -3.0426495 1.435827
-5.151155 -3.0621531 1.434728
-5.1404228 -3.0530498 1.4400643
-5.1458836 -3.0751703 1.426981
-5.1308765 -3.0833285 1.426602
-5.1190019 -3.080508 1.4342424
-5.126678 -3.0805118 1.4245163
-4.9623442 -2.9963572 1.4768547
-4.9475017 -3.0107107 1.4729056
-4.9385676 -3.0025585 1.4793571
-4.942337 -3.0115604 1.4918083
-4.9437938 -3.0149477 1.4919561
-4.9263401 -3.0318778 1.4884013
-4.9235401 -3.0385532 1.4899141
-4.9138141 -3.0345166 1.4904506
-4.9244571 -3.0429099 1.4809837
-4.9074502 -3.0632942 1.4786831
-4.9201598 -3.0691161 1.4875278
-4.9114404 -3.0642908 1.4889463
-4.9066606 -3.0747354 1.485438
-4.8954196 -3.0931637 1.4798431
-4.8917179 -3.0972726 1.4777703
-4.7245464 -3.0045447 1.53659
-4.7243776 -2.9966481 1.5247128
-4.7226863 -3.003278 1.5237638
-4.7204499 -3.0048137 1.5413071
-4.7076707 -3.0136144 1.5253459
-4.6971831 -3.0194063 1.5304365
-4.6978412 -3.0407701 1.5272204
-4.697072 -3.0416546 1.5404212
-4.6998019 -3.0556083 1.5420494
-4.6881175 -3.0501804 1.5264184
-4.6784968 -3.0652225 1.5267431
-4.6809659 -3.0642898 1.5415739
-4.6753035 -3.0658696 1.5363784
-4.6705809 -3.0894248 1.5362453
-4.6683054 -3.0844231 1.5339036
-4.6619825 -3.0931642 1.532356
-4.4896026 -2.9995654 1.5869437
-4.5015368 -2.9964604 1.5763023
-4.4802613 -3.000344 1.5782752
-4.4773488 -3.0168109 1.5922387
-4.4700584 -3.0079339 1.5777161
-4.4824347 -3.0258124 1.5906767
-4.4799714 -3.0223234 1.5886019
-4.4626951 -3.0384159 1.5895102
-4.4655428 -3.0365467 1.5819528
-4.4507241 -3.0526767 1.5921805
-4.4574437 -3.0617156 1.5752887
-4.440486 -3.0668795 1.5877914
-4.4541612 -3.0749676 1.5826944
-4.4458542 -3.0643513 1.5874083
-4.4435759 -3.070662 1.5872711
-4.435811 -3.093575 1.5755216
-4.4350767 -3.0982592 1.5935212
-4.416409 -3.0899103 1.5816824
-4.2586126 -2.9974122 1.6288801
-4.2667317 -3.005384 1.635271
-4.2446151 -3.0043452 1.6388593
-4.2393818 -3.0106268 1.6435139
-4.2416377 -3.0148706 1.6263051
-4.2489824 -3.0151036 1.6259307
-4.2316046 -3.0373621 1.6254581
-4.2343559 -3.0361688 1.6282789
-4.2288485 -3.0385633 1.6326156
-4.2253332 -3.0466199 1.6314956
-4.2136483 -3.0594304 1.6378127
-4.2056766 -3.0645525 1.6421194
-4.2113056 -3.0717583 1.6334203
-4.2133379 -3.0779395 1.644389
-4.2107077 -3.0705936 1.6370577
-4.2052779 -3.0748174 1.6354312
-4.2002144 -3.0858972 1.637478
-4.1956153 -3.1039701 1.6266441
-4.1881876 -3.1007853 1.6393359
-4.0212092 -2.9829371 1.680804
-4.0307097 -2.9928606 1.6844506
-4.013885 -2.9990871 1.6888775
-4.0127454 -3.0152259 1.6919945
-4.0002971 -3.0176888 1.6948205
-3.9968724 -3.021821 1.6908767
-4.0007715 -3.0248313 1.6885871
-3.9862888 -3.0270941 1.6810899
-3.9897516 -3.0290821 1.6813859
-3.9840407 -3.0479743 1.6907265
-3.98563 -3.0394342 1.6883628
-3.9766624 -3.0445817 1.6817069
-3.9840405 -3.0570996 1.6944499
-3.966984 -3.0726812 1.6766735
-3.9668026 -3.0600257 1.682048
-3.9637873 -3.0681641 1.6888981
-3.9647083 -3.0844281 1.6783396
-3.947911 -3.0904438 1.6911144
-3.9586034 -3.0841646 1.6874913
-3.948992 -3.0964246 1.6905599
-3.9300323 -3.0945315 1.6877469
-3.9334285 -3.1079366 1.6853585
-3.7718856 -2.9928739 1.7469374
-3.7693474 -3.0049434 1.727576
-3.7645779 -3.0011203 1.7464243
-3.7744267 -3.0185788 1.7426825
-3.7574182 -3.0212626 1.7282189
-3.7509606 -3.0114617 1.7332758
-3.7517209 -3.0166731 1.730142
-3.7560971 -3.0366008 1.7402725
-3.7373972 -3.0419042 1.7378141
-3.741503 -3.0349467 1.7274626
-3.7279899 -3.0423846 1.7375607
-3.7238095 -3.0514746 1.740878
-3.7189832 -3.059993 1.7333007
-3.7153013 -3.0625656 1.7335415
-3.715354 -3.0723422 1.736369
-3.7098629 -3.0798812 1.7342622
-3.7193079 -3.072408 1.7322029
-3.7118793 -3.0735452 1.7354689
-3.6943128 -3.080225 1.7386787
-3.6991975 -3.0952597 1.7340869
-3.6944268 -3.1010377 1.7272925
-3.6995504 -3.1068995 1.7366375
-3.6813495 -3.112206 1.742687
-3.6907189 -3.118109 1.7313813
-3.5323625 -2.9832206 1.7864292
-3.5188239 -2.9920583 1.7882243
-3.5273852 -2.9946411 1.7826922
-3.5179992 -3.0141032 1.7812158
-3.5053401 -3.0203137 1.778247
-3.5094643 -3.0157313 1.7854248
-3.4981735 -3.0307074 1.7919996
-3.4936702 -3.0351436 1.7978817
-3.4998152 -3.025723 1.7836202
-3.4999039 -3.0300229 1.7886127
-3.4912913 -3.047802 1.7885144
-3.478543 -3.0562332 1.7845174
-3.4839926 -3.0574234 1.7828705
-3.4749677 -3.0534315 1.7866888
-3.4674125 -3.0609918 1.7892178
-3.4628191 -3.0568943 1.7812446
-3.4710412 -3.065731 1.783205
-3.4526818 -3.074296 1.7856328
-3.4484334 -3.0732446 1.7823789
-3.4584398 -3.0765269 1.7797171
-3.4434471 -3.0954492 1.7841619
-3.4485457 -3.0858819 1.7850554
-3.4376349 -3.1060302 1.7896327
-3.428364 -3.1014261 1.7830697
-3.4352682 -3.1135461 1.7938086
-3.4196367 -3.1053586 1.7935007
-3.4119716 -3.1096864 1.7892063
-3.4223394 -3.1199543 1.7811909
-3.4102728 -3.1302805 1.7790648
-3.4014535 -3.1349261 1.7784882
-3.3952894 -3.1288986 1.7838154
-3.4046738 -3.1522965 1.7835296
-3.393158 -3.149117 1.7879094
-3.5386162 -3.2927966 1.7307822
-3.5288887 -3.2961345 1.7372556
-3.5284157 -3.2881942 1.7367117
-3.5082433 -3.2969484 1.7366298
-3.5123587 -3.3004372 1.7310634
-3.5044825 -3.3162324 1.7399482
-3.4987257 -3.3075883 1.7289585
-3.4935386 -3.3171666 1.7287612
-3.4830174 -3.3205221 1.7299248
-3.4927752 -3.3367617 1.7390208
-3.4781463 -3.3413081 1.7409739
-3.4697189 -3.340724 1.744527
-3.4748116 -3.3442709 1.740952
-3.4604409 -3.3522563 1.7335477
-3.4661455 -3.3489747 1.7275733
-3.4574099 -3.3624418 1.7307156
-3.4597826 -3.3547835 1.7274079
-3.4531384 -3.3665762 1.7394211
-3.4466846 -3.372493 1.7329715
-3.4390604 -3.3728192 1.7351686
-3.4423335 -3.3831756 1.737699
-3.4236467 -3.38977 1.7456865
-3.4214003 -3.3861291 1.7349941
-3.4227221 -3.392797 1.7411761
-3.4114416 -3.4098554 1.7354933
-3.4061289 -3.4028704 1.7411906
-3.3976669 -3.4029579 1.7393866
-3.3925064 -3.4211071 1.7306237
-3.3953257 -3.4175155 1.7407714
-3.3845878 -3.4310193 1.7354136
-3.5275617 -3.5701244 1.6935945
-3.5118909 -3.5778635 1.6809075
-3.5082259 -3.5680957 1.6766621
-3.5152464 -3.5843956 1.6905431
-3.496078 -3.5941679 1.6921535
-3.5025854 -3.5833871 1.6855295
-3.5033889 -3.5889103 1.6835923
-3.4859896 -3.5940459 1.6882737
-3.4773462 -3.6067801 1.6813076
-3.4785485 -3.6135626 1.6855919
-3.4651017 -3.6121964 1.6931207
-3.4625483 -3.620151 1.6778409
-3.4726751 -3.6294391 1.6772525
-3.4670405 -3.630753 1.6852807
-3.4475181 -3.6379106 1.6884458
-3.4463787 -3.6365948 1.6872944
-3.4518564 -3.641108 1.685515
-3.4392645 -3.653255 1.6834887
-3.4419847 -3.6617978 1.6936096
-3.4316642 -3.656589 1.6818223
-3.4170527 -3.6629865 1.6762685
-3.4149055 -3.6718905 1.68762
-3.4080317 -3.675988 1.6945368
-3.4017394 -3.6795239 1.6849858
-3.4074125 -3.6886179 1.6931159
-3.3899136 -3.6816592 1.6873939
-3.3935597 -3.685272 1.6819832
-3.5096109 -3.8440199 1.6383244
-3.51685 -3.8481505 1.641852
-3.5139613 -3.847074 1.6353917
-3.5028534 -3.8565061 1.6273299
-3.4972923 -3.8689179 1.6351533
-3.4803724 -3.8595891 1.6436611
-3.4765294 -3.8691084 1.6334075
-3.4822304 -3.8694477 1.6388273
-3.4797945 -3.8774414 1.6359661
-3.4630737 -3.8942413 1.6342452
-3.4717572 -3.8816264 1.6411489
-3.4531734 -3.9016235 1.6288428
-3.4510555 -3.9041111 1.6425266
-3.4553909 -3.9008772 1.6316841
-3.4477816 -3.9174752 1.633328
-3.4323421 -3.9225535 1.6291913
-3.4283879 -3.9091952 1.6404184
-3.4346809 -3.9269519 1.6361821
-3.4155471 -3.9276927 1.6288199
-3.4192681 -3.93714 1.6295184
-3.4047031 -3.9407046 1.6276844
-3.403228 -3.9511261 1.6306987
-3.394052 -3.9448769 1.6360629
-3.391186 -3.9484177 1.629491
-3.5049365 -4.0967331 1.5802246
-3.5110502 -4.1083288 1.5816137
-3.5012939 -4.1214442 1.5811678
-3.5003037 -4.1263332 1.5877651
-3.4835429 -4.1175761 1.5784131
-3.4741375 -4.1380343 1.5843979
-3.4840269 -4.1294279 1.5915946
-3.4757433 -4.1448541 1.5931385
-3.4644387 -4.1366181 1.5856923
-3.4677632 -4.1510367 1.5794588
-3.4576528 -4.1589522 1.5765789
-3.445883 -4.158721 1.5870166
-3.4327176 -4.1544795 1.5892439
-3.4399912 -4.1750002 1.5914794
-3.4406607 -4.1645203 1.5873611
-3.4306757 -4.1704011 1.587666
-3.4146991 -4.1719446 1.5814503
-3.4115191 -4.1909847 1.5846735
-3.4067886 -4.1845069 1.5809895
-3.4094977 -4.1871471 1.5877357
-3.3984334 -4.2054777 1.5914068
-3.511662 -4.348393 1.5292231
-3.5128167 -4.3535786 1.5270243
-3.4917369 -4.3718581 1.5291208
-3.4884148 -4.3766341 1.5265056
-3.4892042 -4.3772588 1.5428095
-3.4896817 -4.3877473 1.5423617
-3.4763684 -4.3809028 1.5276576
-3.459825 -4.3951812 1.5242068
-3.4669588 -4.3980293 1.5428827
-3.4473398 -4.39568 1.5279874
-3.4440427 -4.4110136 1.5254751
-3.4520037 -4.4135923 1.5426894
-3.4421568 -4.4211888 1.526528
-3.4302068 -4.4115672 1.5304855
-3.4208653 -4.4288464 1.5387049
-3.4152129 -4.4327207 1.5413138
-3.4100018 -4.4294066 1.5356365
-3.399488 -4.4356804 1.5405415
-3.3924186 -4.435226 1.5274507
-3.3866665 -4.4412975 1.5415525
-3.5129719 -4.6041031 1.474237
-3.5043991 -4.6073127 1.480088
-3.498605 -4.6068397 1.4831606
-3.4889657 -4.6205888 1.4806638
-3.4753623 -4.6311741 1.4856886
-3.4735324 -4.6222925 1.4916308
-3.4690871 -4.6343913 1.4856706
-3.4503121 -4.6421747 1.4782112
-3.4466252 -4.6490936 1.4759719
-3.4560227 -4.6564722 1.4924183
-3.4313114 -4.6592054 1.4846869
-3.4429901 -4.6598053 1.4786494
-3.4288108 -4.6610584 1.4779788
-3.4115524 -4.6791258 1.4884446
-3.4167843 -4.6700497 1.4732012
-3.4169846 -4.6856108 1.4917065
-3.3912361 -4.6832004 1.4829712
-3.3914411 -4.6884956 1.4913017
-3.4923635 -4.8533659 1.4266344
-3.5020349 -4.8575115 1.4303386
-3.4952531 -4.8634458 1.4361316
-3.4761958 -4.8675661 1.426137
-3.4831691 -4.8640213 1.4396932
-3.4708064 -4.8697386 1.4399768
-3.4679711 -4.8872151 1.4341218
-3.4603724 -4.8914261 1.4374821
-3.4542618 -4.8964291 1.42802
-3.4368794 -4.8881841 1.4380207
-3.43116 -4.8941507 1.4246745
-3.4191823 -4.8965683 1.4320807
-3.4234934 -4.8989906 1.4384408
-3.4220052 -4.9091487 1.425559
-3.4105048 -4.9130797 1.4410914
-3.4054415 -4.9314551 1.435766
-3.4000881 -4.9338088 1.4378142
-6.2810612 -3.0003836 1.222299
-6.279479 -2.9950869 1.2285607
-6.286767 -3.0203664 1.2221538
-6.273602 -3.0209754 1.218459
-6.2772431 -3.0222042 1.2205018
-6.2668376 -3.0473197 1.2334964
-6.2587595 -3.0523381 1.2185587
-6.252667 -3.0515096 1.2193419
-6.244144 -3.066082 1.2360939
-6.2403698 -3.0703471 1.2191706
-6.0793686 -2.9985793 1.2730489
-6.0707192 -2.9950812 1.2715069
-6.0557966 -3.0230787 1.2734668
-6.0472693 -3.0221317 1.2835934
-6.0624247 -3.0290577 1.2812606
-6.0555253 -3.0298226 1.282576
-6.0356197 -3.0467668 1.2676306
-6.0306401 -3.0618865 1.2822655
-6.0448651 -3.0727649 1.2710737
-6.0223269 -3.0641625 1.2843564
-5.8642187 -2.9842458 1.3217459
-5.8543296 -3.0079525 1.3216146
-5.8459706 -3.000946 1.3219652
-5.83564 -3.0096333 1.3317364
-5.8351717 -3.0177095 1.3230491
-5.8370252 -3.0431314 1.3220584
-5.8375516 -3.0329046 1.3325795
-5.8330116 -3.0419664 1.3364303
-5.8138256 -3.0495343 1.3178467
-5.8258204 -3.0588555 1.3363031
-5.8045211 -3.0668538 1.3347925
-5.8153248 -3.0891547 1.3177602
-5.8062482 -3.0873003 1.3359135
-5.7968097 -3.0993307 1.3335525
-5.7975888 -3.115119 1.3312829
-5.787044 -3.1169984 1.3317527
-5.7774787 -3.1236532 1.3306048
-5.7773809 -3.130029 1.3285446
-5.7734213 -3.1414907 1.3270602
-5.7680335 -3.14923 1.3243922
-5.7641783 -3.1599646 1.3218576
-5.7618222 -3.1658084 1.3251475
-5.7564874 -3.1668935 1.3184115
-5.7529879 -3.1828685 1.3277586
-5.7518382 -3.1839628 1.3294247
-5.7529469 -3.1988633 1.3173131
-5.7335749 -3.2085607 1.3266417
-5.7353392 -3.2025342 1.3176838
-5.7391524 -3.2169328 1.3253474
-5.7244391 -3.23034 1.3333485
-5.3951192 -3.0533779 1.417694
-5.3858533 -3.0489295 1.425252
-5.3732862 -3.0635765 1.4197834
-5.3674455 -3.0591657 1.426392
-5.3722463 -3.078058 1.4199523
-5.355371 -3.0825231 1.426652
-5.1827707 -2.9952211 1.4811916
-5.1887927 -2.9908059 1.4802811
-5.1837626 -3.0147018 1.472993
-5.1710587 -3.0083935 1.4803123
-5.1703439 -3.0145485 1.4816805
-5.1642814 -3.0357018 1.4750285
-5.1706505 -3.0285633 1.4812548
-5.1624784 -3.0398688 1.4794112
-5.1676874 -3.0602717 1.4661888
-5.1593261 -3.0681055 1.4760084
-5.1442552 -3.0554817 1.4837612
-5.1441388 -3.0730722 1.4831903
-5.1449227 -3.0698342 1.4659787
-5.1329846 -3.0781045 1.4823248
-4.9678168 -2.9897501 1.5292634
-4.9673109 -2.9994659 1.5327822
-4.9534478 -2.9997938 1.530671
-4.9533482 -3.016202 1.5244799
-4.9550829 -3.0220821 1.5251055
-4.9500299 -3.0238738 1.5251112
-4.9351482 -3.0348775 1.5249482
-4.9325037 -3.0500574 1.5343968
-4.9304204 -3.0503242 1.5342788
-4.925539 -3.0629661 1.5330802
-4.9243021 -3.0606632 1.5272877
-4.925621 -3.062048 1.5187256
-4.9234118 -3.073772 1.5167761
-4.9033036 -3.0896091 1.5253526
-4.9093776 -3.0914028 1.5149773
-4.7310491 -2.988791 1.579237
-4.7366171 -2.9988945 1.5699054
-4.7223387 -3.0106049 1.5723046
-4.7186027 -3.0044925 1.5813416
-4.7149749 -3.0177698 1.5646358
-4.7125368 -3.03409 1.5771253
-4.7158823 -3.0360188 1.5751169
-4.7077804 -3.0400376 1.5682653
-4.7016187 -3.0482574 1.5724514
-4.7068715 -3.046869 1.5817126
-4.7024903 -3.0552475 1.5768639
-4.6833444 -3.0733867 1.5685397
-4.693521 -3.0814495 1.5751276
-4.6812892 -3.0699875 1.5744439
-4.6800113 -3.0791187 1.5670936
-4.6754298 -3.0900416 1.5700275
-4.5169377 -3.001332 1.6271352
-4.5020065 -2.99576 1.6173128
-4.4939184 -3.0082839 1.6258574
-4.5016356 -3.0103271 1.6223708
-4.500083 -3.0122652 1.6170808
-4.4833698 -3.0193427 1.6202204
-4.4749722 -3.0208905 1.62186
-4.4799776 -3.0345099 1.6215184
-4.4856586 -3.0511637 1.6185963
-4.4786806 -3.0475578 1.6312962
-4.4687605 -3.0512028 1.6320276
-4.4712276 -3.0641067 1.6246386
-4.4635086 -3.0731215 1.6310271
-4.4472365 -3.0740609 1.6216679
-4.454442 -3.0776637 1.6166602
-4.4469285 -3.0887785 1.6308593
-4.4362674 -3.0957294 1.6297883
-4.4439573 -3.0919287 1.6213697
-4.2733135 -2.9868212 1.6720675
-4.2644057 -2.9900136 1.6831273
-4.2627897 -3.0075545 1.6767962
-4.2604337 -3.0118403 1.6638093
-4.2654586 -3.0126939 1.6680498
-4.2440867 -3.02157 1.6775872
-4.2520657 -3.0219555 1.669752
-4.2450438 -3.0391402 1.6770262
-4.2438145 -3.0499849 1.6635674
-4.2436481 -3.0528495 1.6801213
-4.2318921 -3.0480759 1.6767499
-4.2189341 -3.0585861 1.6761649
-4.2149081 -3.0716805 1.6640114
-4.2172046 -3.066627 1.6735387
-4.2124801 -3.0708153 1.6681736
-4.2035065 -3.0778563 1.6798872
-4.2049875 -3.0971096 1.6771644
-4.1942954 -3.0935826 1.6831999
-4.196321 -3.0930762 1.664328
-4.0361366 -2.9812534 1.7180268
-4.035212 -2.9971318 1.7129203
-4.0376511 -3.0043271 1.7232229
-4.0206671 -3.0117793 1.7263446
-4.0158286 -3.0058196 1.7204269
-4.0214553 -3.0194349 1.7162225
-4.0124388 -3.0283847 1.7308723
-4.0117011 -3.0231314 1.7321581
-3.9936783 -3.0315104 1.7228541
-3.9896123 -3.0462472 1.7199337
-4.0044103 -3.040801 1.7192991
-3.9950058 -3.0586176 1.7284336
-3.9907002 -3.0630684 1.716015
-3.976084 -3.0547385 1.7217801
-3.9783382 -3.0657816 1.7191352
-3.9665024 -3.0666699 1.7284993
-3.9788635 -3.0827687 1.7145321
-3.9565668 -3.0823646 1.7314308
-3.9529767 -3.0881798 1.7255571
-3.9586825 -3.0941796 1.730547
-3.9473011 -3.0992353 1.7265778
-3.9565468 -3.0991526 1.7303808
-3.7846072 -2.998903 1.7648197
-3.7772894 -3.0082409 1.7636613
-3.784199 -3.004123 1.7770307
-3.7737463 -3.0124662 1.7750766
-3.773922 -3.0174754 1.7625824
-3.7680573 -3.0245006 1.7760452
-3.7652867 -3.0322561 1.7692393
-3.7683825 -3.0300457 1.7819744
-3.7664812 -3.0407896 1.7751883
-3.7485416 -3.0451229 1.7740136
-3.7467916 -3.0539107 1.7784764
-3.7400994 -3.059572 1.7789052
-3.7345583 -3.0563412 1.7687504
-3.7356405 -3.0668635 1.7755449
-3.7386696 -3.0617747 1.7626168
-3.7341855 -3.075042 1.7679441
-3.7162313 -3.0697668 1.7707907
-3.7250757 -3.0918226 1.7811166
-3.7211778 -3.0962198 1.7659614
-3.7040586 -3.0869274 1.7717301
-3.708107 -3.1001422 1.7739618
-3.7076855 -3.1109297 1.7757776
-3.7068276 -3.1004479 1.7660631
-3.6961176 -3.1153278 1.7710595
-3.5306733 -2.992362 1.8158759
-3.5262573 -2.9941609 1.8231421
-3.5365069 -3.0023067 1.8208987
-3.5239031 -3.0036056 1.8218085
-3.5209665 -3.0053227 1.8235242
-3.5131783 -3.0142436 1.8197297
-3.5196145 -3.0315433 1.8279111
-3.5038121 -3.0327587 1.8304901
-3.506187 -3.0374615 1.8287297
-3.4982696 -3.0358062 1.8172623
-3.5053489 -3.0409985 1.8287662
-3.4971092 -3.0459661 1.8234257
-3.4815962 -3.0453823 1.8148875
-3.4883201 -3.0563998 1.8299928
-3.4741271 -3.0686932 1.8283178
-3.4782116 -3.0774171 1.8226525
-3.466084 -3.0768034 1.8246123
-3.4657681 -3.0846202 1.8302754
-3.4628665 -3.0790517 1.8161485
-3.4617183 -3.0898123 1.8285841
-3.4520309 -3.0919056 1.8207284
-3.4508328 -3.0900192 1.8128003
-3.4549687 -3.0968871 1.8303452
-3.4476359 -3.1147528 1.8217556
-3.4451909 -3.102706 1.82575
-3.4244144 -3.1190314 1.8258914
-3.4292963 -3.1275234 1.8315117
-3.4322119 -3.1200004 1.8141745
-3.4294574 -3.1338837 1.8272591
-3.4208233 -3.1309335 1.8144301
-3.4197471 -3.142617 1.824349
-3.4065197 -3.1374307 1.8209894
-3.4012136 -3.1407151 1.8155907
-3.3983564 -3.1610079 1.8171495
-3.3840818 -3.1632042 1.8155719
-3.5274484 -3.3012168 1.7729756
-3.5288401 -3.2964327 1.7761961
-3.5246043 -3.2989323 1.7717382
-3.5176992 -3.3030524 1.7781894
-3.5177026 -3.3229198 1.7723773
-3.5105278 -3.3260989 1.7796615
-3.4934275 -3.3204455 1.7769064
-3.49968 -3.3338878 1.7756348
-3.4913244 -3.3288805 1.778832
-3.4814029 -3.3340137 1.7645886
-3.4930525 -3.3452926 1.7693199
-3.4777873 -3.342576 1.7637761
-3.4792948 -3.3602433 1.7806672
-3.4652534 -3.3556318 1.7783662
-3.4647541 -3.3556571 1.7811193
-3.4700603 -3.3731482 1.7656082
-3.4480753 -3.3781857 1.7806591
-3.4488387 -3.37413 1.7671698
-3.4508669 -3.386379 1.7635831
-3.4496913 -3.3933744 1.7797523
-3.4427521 -3.3966935 1.7695251
-3.4310751 -3.3894286 1.7668903
-3.4249351 -3.4083593 1.7714576
-3.4218974 -3.3979435 1.765499
-3.421154 -3.4117298 1.7643714
-3.4176507 -3.4155307 1.7706025
-3.4096518 -3.4220614 1.7766389
-3.4065955 -3.4340775 1.7715676
-3.3970215 -3.4328504 1.7790771
-3.3910279 -3.4351828 1.7644144
-3.5248389 -3.5733714 1.7217453
-3.5126972 -3.5867682 1.720655
-3.5231833 -3.5987802 1.7254373
-3.5090952 -3.5925164 1.7254323
-3.5009589 -3.5902774 1.7164308
-3.4939432 -3.6093104 1.7284119
-3.5006897 -3.6051264 1.7186389
-3.4813929 -3.6226745 1.7216197
-3.4871607 -3.6154442 1.7305909
-3.4854121 -3.6270218 1.7219862
-3.4783192 -3.6212382 1.7179959
-3.4643848 -3.6283209 1.7255416
-3.471534 -3.6309047 1.7260011
-3.4538939 -3.6444218 1.7176434
-3.4562521 -3.6548312 1.7164363
-3.4476051 -3.6432602 1.7211009
-3.4469702 -3.6634781 1.7148472
-3.4361017 -3.6694481 1.7159361
-3.4422455 -3.6662419 1.729139
-3.4194112 -3.6663494 1.7156408
-3.4251752 -3.6844337 1.7327955
-3.4149227 -3.6736598 1.7277298
-3.4171178 -3.695118 1.7249357
-3.3988469 -3.6840258 1.7134725
-3.4089267 -3.7003884 1.7164409
-3.4002073 -3.6932073 1.715814
-3.3868165 -3.7105012 1.7197961
-3.5103536 -3.8451233 1.6731236
-3.5219145 -3.848115 1.6639739
-3.5002656 -3.8534021 1.679522
-3.5121081 -3.86959 1.6817838
-3.486789 -3.8806684 1.6796104
-3.4865289 -3.879092 1.6807625
-3.4890559 -3.8844011 1.6777833
-3.4830391 -3.8849533 1.6832106
-3.4740474 -3.9019561 1.6805812
-3.4656758 -3.8907444 1.6654127
-3.4733152 -3.8975723 1.6634498
-3.4581163 -3.9013507 1.6634178
-3.4520602 -3.9088767 1.6830136
-3.4504492 -3.9136486 1.6713293
-3.4465699 -3.9185114 1.6734663
-3.4448571 -3.9285312 1.6820724
-3.4219856 -3.9265018 1.6702541
-3.4220865 -3.9438865 1.6827608
-3.4167535 -3.9377167 1.6831346
-3.4140432 -3.9486196 1.6795818
-3.4064946 -3.9526126 1.6740556
-3.4009025 -3.9468648 1.6695977
-3.3953354 -3.9605253 1.6824533
-3.390166 -3.9580462 1.6753683
-3.5224884 -4.1245432 1.6187403
-3.5066471 -4.1276102 1.6264129
-3.502193 -4.1332965 1.6209233
-3.4895501 -4.1245818 1.6228499
-3.4843938 -4.1360383 1.6157395
-3.478857 -4.1502957 1.6225116
-3.4768662 -4.1425228 1.6300684
-3.4803948 -4.1546817 1.6281431
-3.4683743 -4.1468053 1.6173196
-3.4634917 -4.159297 1.6337298
-3.4456871 -4.1638417 1.6157675
-3.4549997 -4.1783018 1.6196529
-3.4366329 -4.1740718 1.6227583
-3.4437492 -4.1829696 1.6194769
-3.428932 -4.1924882 1.6296293
-3.4212186 -4.1822543 1.6304066
-3.4267261 -4.1958208 1.6238313
-3.4046705 -4.1987138 1.6299629
-3.4045334 -4.1953907 1.6288292
-3.3952131 -4.2129965 1.6200536
-3.3894758 -4.2186155 1.6315751
-3.3816946 -4.2193723 1.6334701
-3.5112493 -4.3787665 1.5749165
-3.4962525 -4.3801117 1.5817866
-3.4845304 -4.3924847 1.5839471
-3.4826491 -4.3829951 1.5811422
-3.4799836 -4.384872 1.5695636
-3.4838867 -4.3905578 1.5798769
-3.4616513 -4.401978 1.5782894
-3.4605427 -4.409956 1.5838645
-3.4482031 -4.4180818 1.5685802
-3.4443352 -4.4243174 1.5772909
-3.4385655 -4.4247775 1.5825233
-3.4418387 -4.4363565 1.5713147
-3.438235 -4.4223366 1.5726291
-3.4324641 -4.4325647 1.5683198
-3.4094915 -4.4462633 1.5670123
-3.4180908 -4.4500084 1.5648892
-3.4163702 -4.4576678 1.5762073
-3.3962302 -4.4503751 1.5644002
-3.3905087 -4.4569063 1.5693116
-3.4972403 -4.6200747 1.5233191
-3.4978633 -4.6294789 1.5311975
-3.4932473 -4.6283398 1.5323149
-3.4798329 -4.6297865 1.532262
-3.4850972 -4.6316595 1.5267822
-3.4746642 -4.6367631 1.5323957
-3.4655318 -4.6566758 1.5190481
-3.4585159 -4.6610847 1.5228161
-3.460175 -4.6515775 1.5186427
-3.4536345 -4.6625781 1.5326957
-3.4421756 -4.6693716 1.5226641
-3.4271986 -4.6832471 1.5281317
-3.4243364 -4.6789722 1.5196334
-3.4203503 -4.6877556 1.5345734
-3.4164102 -4.688283 1.5325172
-3.3979435 -4.6848631 1.5302247
-3.3938565 -4.6988034 1.5328776
-3.4031103 -4.6922278 1.5159708
-3.5018501 -4.8710485 1.4839077
-3.4912765 -4.8727689 1.4751788
-3.4866431 -4.8695502 1.4844782
-3.4720345 -4.8778806 1.484715
-3.4719515 -4.8898821 1.4740301
-3.4603598 -4.8844371 1.4793566
-3.4538214 -4.9015985 1.4689413
-3.4493327 -4.906846 1.4667222
-3.4471295 -4.8945661 1.4753295
-3.4422669 -4.8981066 1.4752704
-3.4343042 -4.9136992 1.4783701
-3.4288938 -4.9255176 1.4846467
-3.4122057 -4.9195089 1.47903
-3.4062114 -4.925704 1.4699612
-3.3999736 -4.9386358 1.4737598
-3.4044142 -4.9268026 1.467863
-3.3835216 -4.9352646 1.4696546
-6.3022723 -2.9927695 1.2798291
-6.2987533 -3.0042605 1.2775096
-6.2934632 -3.0105603 1.2802169
-6.2829142 -3.0201514 1.2744739
-6.2934952 -3.0266631 1.2869077
-6.274662 -3.034014 1.2888615
-6.2772751 -3.0379901 1.273082
-6.2683663 -3.0624766 1.2832459
-6.2660379 -3.0710652 1.284737
-6.2640939 -3.0799482 1.2775564
-6.0876803 -2.993715 1.334352
-6.072535 -2.9937248 1.3203791
-6.0796976 -3.0126481 1.32891
-6.0641408 -3.025238 1.3366472
-6.0743151 -3.0326364 1.3266642
-6.0720439 -3.0454421 1.3181161
-6.0678072 -3.0451128 1.3343716
-6.0593376 -3.0601397 1.3349142
-6.0606928 -3.0571148 1.3356363
-6.040545 -3.0764349 1.3362371
-6.0475659 -3.0777795 1.3260127
-6.045866 -3.0881722 1.3242854
-6.0381274 -3.0899327 1.3321356
-6.0218458 -3.1003537 1.3358911
-6.0178156 -3.1051781 1.3207371
-6.023756 -3.1119721 1.3212608
-6.0182333 -3.1387818 1.330591
-6.0164433 -3.1413867 1.3333653
-6.0140986 -3.1496232 1.32763
-6.0110207 -3.1619997 1.3310338
-6.0073299 -3.1656971 1.3215466
-5.9938517 -3.1720061 1.3301138
-5.982089 -3.1749001 1.3253616
-5.9824648 -3.1858475 1.3186238
-5.979073 -3.1971116 1.3354906
-5.9708238 -3.1986754 1.3339865
-5.9620395 -3.2190866 1.3340895
-5.963913 -3.22209 1.3199985
-5.9630003 -3.2271426 1.3260758
-5.9678116 -3.2335229 1.3281752
-5.9492073 -3.2406294 1.3349695
-5.9400787 -3.258687 1.3238409
-5.9423714 -3.2694228 1.3181984
-5.9494042 -3.2649865 1.329982
-5.9431639 -3.2816226 1.3188691
-5.9400444 -3.2944853 1.3345538
-5.9184179 -3.3030505 1.3181823
-5.916677 -3.2979884 1.3271562
-5.9090152 -3.3165245 1.3194199
-5.9152646 -3.324394 1.3336394
-5.8994031 -3.3381929 1.329082
-5.8967357 -3.327409 1.3347906
-5.9051857 -3.3434746 1.3180805
-5.3932438 -3.0628185 1.4783772
-5.3759327 -3.0681193 1.4660822
-5.3697233 -3.0748935 1.4692225
-5.1995492 -2.9878316 1.5201756
-5.1941414 -3.0002227 1.5163891
-5.1997495 -3.0095794 1.5223452
-5.1930838 -3.0098243 1.5287038
-5.1921887 -3.0188582 1.509529
-5.1758404 -3.0298865 1.5093973
-5.1737738 -3.0340378 1.5214523
-5.1684065 -3.0369549 1.514086
-5.1669927 -3.046854 1.5289521
-5.1778636 -3.054848 1.5245712
-5.1655841 -3.0652518 1.5179598
-5.1504283 -3.0744374 1.5262376
-5.1590486 -3.0734308 1.5124333
-5.1417027 -3.0899682 1.5256524
-4.971643 -2.9897463 1.565187
-4.9672332 -2.9972579 1.5728635
-4.962945 -3.0069432 1.5636393
-4.9665928 -3.015512 1.5587428
-4.9575968 -3.0269272 1.5711863
-4.9537249 -3.0334842 1.5628688
-4.9542246 -3.0320423 1.5713744
-4.9413257 -3.0397353 1.5579154
-4.9401393 -3.0403492 1.5726781
-4.9327478 -3.0479286 1.5581123
-4.9321275 -3.056114 1.5708873
-4.9400492 -3.064081 1.5631154
-4.9202852 -3.0719607 1.5726171
-4.9297357 -3.0876985 1.5605029
-4.9240727 -3.0986602 1.5639206
-4.761744 -2.9864345 1.6158092
-4.7520804 -3.0022645 1.6079884
-4.7339025 -3.009445 1.6194038
-4.7491741 -3.0196979 1.6171287
-4.7296734 -3.0268283 1.6141918
-4.72473 -3.0176165 1.6099807
-4.7270017 -3.0406146 1.6247084
-4.7170367 -3.048146 1.6184556
-4.7175603 -3.0494354 1.6233586
-4.7101889 -3.0493786 1.6241872
-4.7193909 -3.0555325 1.6205772
-4.7047815 -3.0562143 1.6077834
-4.6979837 -3.0629184 1.6144495
-4.6997609 -3.069104 1.6174967
-4.6838045 -3.0800083 1.6200423
-4.6907759 -3.0901971 1.6184224
-4.5200896 -2.9997072 1.6685075
-4.5166759 -2.9904611 1.6695852
-4.519506 -3.0059948 1.6559786
-4.5174246 -3.0184226 1.6690274
-4.5145054 -3.0243268 1.6625154
-4.4951873 -3.0199051 1.6619084
-4.4886546 -3.0329785 1.661178
-4.4954467 -3.0321319 1.6608369
-4.4791827 -3.0396397 1.6561605
-4.4803648 -3.0384395 1.6678581
-4.4831576 -3.0527418 1.6694143
-4.4839435 -3.0678191 1.6665415
-4.4636426 -3.0699244 1.6544539
-4.4569402 -3.0741541 1.6562515
-4.4571795 -3.0796804 1.6584524
-4.4639225 -3.0901127 1.6713761
-4.4512639 -3.0982449 1.6575217
-4.4593267 -3.0974112 1.6708037
-4.2886071 -2.9933422 1.7109478
-4.2818255 -3.0057139 1.7104831
-4.2833381 -3.0051467 1.7019879
-4.2832861 -3.0096421 1.7046808
-4.2660985 -3.0181224 1.7115283
-4.2609901 -3.0241942 1.7203995
-4.254076 -3.0348086 1.7099923
-4.2649527 -3.0364778 1.7153944
-4.242897 -3.0498085 1.7188998
-4.2546873 -3.0555315 1.7094687
-4.2531877 -3.0539873 1.7191082
-4.2396221 -3.0498526 1.7023716
-4.2265129 -3.07143 1.7121916
-4.2218909 -3.0771627 1.7034998
-4.2345676 -3.0699244 1.7123054
-4.2203884 -3.0818019 1.7210112
-4.2173295 -3.0909979 1.7050682
-4.20467 -3.0953114 1.7134163
-4.2066002 -3.1018188 1.7143877
-4.0489082 -2.9889712 1.7636709
-4.0369086 -2.9940751 1.7523538
-4.0352616 -3.0098879 1.7511075
-4.0303435 -3.0168743 1.7542142
-4.0355973 -3.0035295 1.7575122
-4.0295353 -3.0271606 1.753967
-4.0146599 -3.02092 1.7644564
-4.0110703 -3.0359366 1.7516559
-4.0234165 -3.0426176 1.7604421
-4.0074062 -3.0355606 1.7686149
-4.010417 -3.0512605 1.7601204
-4.0122232 -3.0591483 1.7521859
-4.0053387 -3.0495844 1.754097
-3.9996929 -3.0593054 1.7546741
-3.9909322 -3.0784912 1.7542423
-3.9788661 -3.075834 1.7558202
-3.9903371 -3.0825276 1.7692732
-3.9713111 -3.0898666 1.7533383
-3.9650776 -3.0937941 1.7563455
-3.9700506 -3.1059616 1.7520263
-3.9668427 -3.1053979 1.7576183
-3.9521215 -3.1109064 1.7609274
-3.7928367 -2.9936614 1.8074862
-3.8042912 -2.9949818 1.8018303
-3.7951617 -3.0118313 1.8025756
-3.7864561 -3.0009117 1.8115593
-3.7761655 -3.0057685 1.7994243
-3.7724144 -3.0159121 1.8055192
-3.784591 -3.024143 1.8132498
-3.7737527 -3.0216749 1.8143698
-3.7672265 -3.0403349 1.8016042
-3.7551007 -3.0486181 1.808875
-3.7596583 -3.0544581 1.7987866
-3.7457366 -3.0559444 1.8126978
-3.7574635 -3.0525 1.8150733
-3.7484376 -3.0645561 1.8136764
-3.7504206 -3.0705354 1.8127251
-3.7445314 -3.0769846 1.8069264
-3.7325401 -3.0798385 1.7981873
-3.7328107 -3.0760901 1.8172008
-3.7319543 -3.0900583 1.8028326
-3.723856 -3.0961516 1.8054541
-3.7084799 -3.0910602 1.8075022
-3.7031846 -3.0963123 1.8133246
-3.7039709 -3.1175635 1.8078463
-3.7023745 -3.114069 1.8155606
-3.5537879 -2.9916601 1.8506249
-3.5547004 -2.9926341 1.8563904
-3.5414045 -3.0059185 1.8645326
-3.5368407 -3.0037827 1.861648
-3.5332565 -3.0051072 1.8500139
-3.5240335 -3.0226574 1.8574992
-3.5321822 -3.0291622 1.8552827
-3.518276 -3.0347102 1.8530145
-3.5185404 -3.0253901 1.8546896
-3.5042763 -3.0388265 1.8650477
-3.502291 -3.0364163 1.8578124
-3.5133209 -3.0391109 1.8545727
-3.4985788 -3.0527086 1.8630117
-3.4956875 -3.065949 1.8585438
-3.4956739 -3.0598183 1.857703
-3.4872875 -3.0686846 1.8642577
-3.4914091 -3.0699263 1.8492473
-3.4777405 -3.0814955 1.8536229
-3.4663332 -3.07757 1.8522463
-3.473244 -3.0836277 1.8623552
-3.46979 -3.0919547 1.8597906
-3.4535644 -3.0955727 1.8594414
-3.4605718 -3.1087167 1.8503984
-3.4591334 -3.1032443 1.8530134
-3.4421563 -3.12204 1.8466513
-3.4460132 -3.1167381 1.8563091
-3.4433086 -3.1198533 1.8496052
-3.4356074 -3.1336017 1.8562062
-3.4235244 -3.1402519 1.8516009
-3.432811 -3.1381285 1.8657999
-3.431982 -3.1368737 1.856528
-3.4137108 -3.1437225 1.8484881
-3.4157825 -3.1419148 1.8521482
-3.4068902 -3.1630118 1.8461186
-3.3953762 -3.1514807 1.846125
-3.3902178 -3.1681631 1.8562592
-3.395395 -3.1665037 1.8480979
-3.3872693 -3.1815128 1.8510017
-3.5340683 -3.3216925 1.8039763
-3.5237482 -3.3228621 1.8119619
-3.5192223 -3.3275924 1.8059975
-3.5239611 -3.3184478 1.7979733
-3.5167329 -3.3357778 1.8165396
-3.5058379 -3.3286247 1.7987858
-3.5009656 -3.3343742 1.8173335
-3.4960799 -3.3393881 1.8039633
-3.4810534 -3.3540087 1.8170106
-3.4941814 -3.3649397 1.7998006
-3.4843986 -3.3655801 1.8000339
-3.4735479 -3.3605356 1.8040345
-3.4747047 -3.3756068 1.8082353
-3.4618194 -3.3800657 1.8065047
-3.4569514 -3.381952 1.8123618
-3.4535103 -3.3776057 1.8102829
-3.4478161 -3.3930566 1.8073591
-3.4435675 -3.388298 1.8043194
-3.4526825 -3.3931959 1.8115505
-3.4487433 -3.3959115 1.8127356
-3.4420075 -3.4135408 1.7981583
-3.4350317 -3.4050231 1.8134974
-3.4240484 -3.4223723 1.7986305
-3.4288578 -3.4315531 1.8041632
-3.4153912 -3.4205897 1.8126616
-3.4160604 -3.4309154 1.8103516
-3.3988023 -3.4402845 1.8174295
-3.4044611 -3.4501488 1.814098
-3.3931532 -3.4538791 1.8106941
-3.3946073 -3.4584274 1.8093935
-3.5307136 -3.5996914 1.767189
-3.525353 -3.6002526 1.7663945
-3.5046463 -3.614608 1.7530495
-3.4987998 -3.6185567 1.7553158
-3.5074136 -3.6138296 1.7533312
-3.4875221 -3.6145689 1.7657994
-3.4899337 -3.6228542 1.7536707
-3.485261 -3.6216087 1.7564428
-3.4839127 -3.6338727 1.7602433
-3.4859614 -3.6324146 1.7642472
-3.4693041 -3.6360495 1.7504195
-3.4667578 -3.6593547 1.7609584
-3.4649992 -3.646991 1.7620627
-3.456579 -3.6538253 1.7641319
-3.4458857 -3.654325 1.7558351
-3.4371703 -3.6599913 1.7516985
-3.4359798 -3.6731346 1.7641693
-3.4269114 -3.686677 1.7627709
-3.4350643 -3.6839497 1.7539871
-3.4194098 -3.6883569 1.7515326
-3.4197447 -3.7011991 1.7503072
-3.4139006 -3.6965942 1.7506337
-3.4175112 -3.6953366 1.7681739
-3.4000106 -3.7107713 1.7637227
-3.4004343 -3.7206321 1.7636074
-3.3891478 -3.7269037 1.7626541
-3.5127125 -3.8606436 1.7052922
-3.5128782 -3.8671112 1.7072886
-3.5144355 -3.8668773 1.7168192
-3.5047698 -3.876142 1.7067423
-3.4975517 -3.8909009 1.7086157
-3.4915521 -3.8849819 1.7198793
-3.4852192 -3.8878458 1.7171786
-3.4813392 -3.8983886 1.7038139
-3.4819036 -3.8945413 1.7053519
-3.4625766 -3.9046001 1.7053747
-3.4641962 -3.9127021 1.7199327
-3.4550841 -3.9263761 1.7129472
-3.463969 -3.9270205 1.7111121
-3.4433165 -3.9234195 1.7049215
-3.4527342 -3.9380271 1.7088733
-3.4402719 -3.9320693 1.703638
-3.4365392 -3.945219 1.7204249
-3.4355004 -3.9399362 1.7115475
-3.4278195 -3.9606721 1.7113886
