# .PCD v0.7 - Point Cloud Data file format
VERSION 0.7
FIELDS x y z
SIZE 4 4 4
TYPE F F F
COUNT 1 1 1
WIDTH 1511
HEIGHT 1
VIEWPOINT 0 0 0 1 0 0 0
POINTS 1511
DATA ascii
-3.6491473 -4.5916524 1.8306438
-3.637867 -4.5998178 1.8239775
-3.6298974 -4.6024451 1.8291565
-3.7430975 -4.7670574 1.7828096
-3.735956 -4.7724304 1.7819425
-3.7409575 -4.7751231 1.784773
-3.73264 -4.7782307 1.7905818
-3.7218537 -4.789969 1.7834039
-3.7276502 -4.7989502 1.7762879
-3.7155681 -4.7918386 1.7913057
-3.7118244 -4.8058338 1.7835096
-3.7085521 -4.79497 1.7926545
-3.6919389 -4.8025665 1.7842692
-3.6901395 -4.8084321 1.7903312
-3.6751494 -4.8138142 1.7762688
-3.6810193 -4.830864 1.784753
-3.6640515 -4.8262696 1.7753595
-3.6612675 -4.8375692 1.7794482
-3.6456547 -4.8413529 1.7797663
-3.6371505 -4.8397498 1.792398
-3.6336215 -4.8411055 1.7762274
-5.5023427 -3.002012 1.7914847
-5.4983454 -3.0060661 1.7999566
-5.498517 -3.0181844 1.8000479
-5.5059514 -3.0080333 1.7927794
-5.4971766 -3.0284615 1.7982432
-5.4817381 -3.0287697 1.7950659
-5.4735255 -3.0347412 1.7961956
-5.4762521 -3.0450528 1.7840904
-5.4842062 -3.0632501 1.7809362
-5.4676099 -3.0694551 1.7880937
-5.4747276 -3.060817 1.7891723
-5.4598513 -3.0723734 1.7938992
-5.4564924 -3.0883052 1.7942041
-5.2823062 -2.9989238 1.8304471
-5.2862387 -3.0017149 1.8358504
-5.2646971 -3.013303 1.8286238
-5.2663231 -3.0209246 1.8230987
-5.2668085 -3.0155294 1.834929
-5.2593889 -3.0423563 1.8362229
-5.2551131 -3.036865 1.8389665
-5.2436695 -3.0427802 1.8379973
-5.2511373 -3.0581186 1.8331146
-5.2538681 -3.0544083 1.819937
-5.2362833 -3.0715582 1.8268105
-5.2405419 -3.0768363 1.8382792
-5.239387 -3.0847795 1.8255408
-5.0565109 -2.9985206 1.8706521
-5.0482273 -2.9967821 1.8704309
-5.0481033 -3.0118613 1.8707458
-5.0466757 -3.0069122 1.863909
-5.0424943 -3.0147777 1.8585081
-5.0392728 -3.0343785 1.865114
-5.0409236 -3.0409884 1.8627692
-5.0357423 -3.0343022 1.870608
-5.0236778 -3.0561733 1.8604956
-5.0201349 -3.0611982 1.8697612
-5.0093207 -3.0566039 1.872557
-5.0114818 -3.0679154 1.8641647
-5.013854 -3.083302 1.8677605
-4.9959016 -3.0814703 1.863367
-5.004776 -3.0996764 1.8581638
-4.8322368 -2.9953296 1.8985058
-4.8200316 -3.0001996 1.9011854
-4.8101616 -3.004137 1.8975891
-4.8124437 -3.0202684 1.8991537
-4.8048291 -3.0171251 1.9027193
-4.8079391 -3.0274456 1.8978992
-4.8082438 -3.024215 1.9087816
-4.7969317 -3.0476542 1.9112855
-4.8020144 -3.0374484 1.9026231
-4.791481 -3.0604346 1.9027506
-4.7861414 -3.0620134 1.9106551
-4.7785473 -3.0755789 1.9004408
-4.7682638 -3.0834761 1.9130343
-4.7815676 -3.0778663 1.8962356
-4.7732973 -3.0888615 1.9093136
-4.7614522 -3.0871964 1.8987986
-4.5899677 -3.0028148 1.9363326
-4.5921917 -2.9983997 1.9390465
-4.5919027 -3.0033252 1.938676
-4.580267 -3.0219846 1.942023
-4.5684948 -3.0195808 1.9504892
-4.5688095 -3.0338688 1.9520816
-4.5593295 -3.0221686 1.9524624
-4.5572472 -3.0480766 1.9451331
-4.5519543 -3.0500283 1.9334823
-4.553575 -3.0444579 1.9501644
-4.5457015 -3.0561855 1.9506297
-4.5383816 -3.0543289 1.9419363
-4.5483389 -3.0763841 1.9347376
-4.5386577 -3.0710135 1.935294
-4.5256205 -3.0780892 1.9446625
-4.5241084 -3.0897071 1.9461457
-4.5209951 -3.0960813 1.9457258
-4.3556337 -2.9934857 1.9838849
-4.3596067 -3.0007586 1.9883809
-4.3552217 -2.9939153 1.9848262
-4.354146 -3.0034709 1.9759165
-4.3525968 -3.0099876 1.9752303
-4.3397326 -3.0307517 1.97885
-4.3340583 -3.0261335 1.9741952
-4.3278193 -3.0327861 1.9888136
-4.3322034 -3.0422432 1.9781569
-4.3150959 -3.0529127 1.9874628
-4.3183999 -3.0444133 1.9745623
-4.3216324 -3.0640745 1.9804876
-4.3003607 -3.0635469 1.9793491
-4.3026352 -3.066149 1.9747423
-4.2938113 -3.0714147 1.9896998
-4.3056645 -3.088038 1.9899687
-4.2938905 -3.0832171 1.980925
-4.2867622 -3.0963962 1.9912921
-4.2850075 -3.0982063 1.9782597
-4.273901 -3.1071644 1.9806095
-4.2734804 -3.1036901 1.9775045
-4.2659516 -3.1077211 1.9807779
-4.2724895 -3.1147611 1.9906124
-4.2601576 -3.128365 1.9838727
-4.2524238 -3.1374424 1.9778888
-4.2497244 -3.1426792 1.9812975
-4.246748 -3.1404562 1.9755365
-4.2528067 -3.1554277 1.9826
-4.2484899 -3.1529756 1.9738511
-4.2371974 -3.1637566 1.9821355
-4.223547 -3.1784649 1.9798796
-4.2329931 -3.1700006 1.9795722
-4.2191577 -3.1924388 1.9781978
-4.2154794 -3.1869175 1.9891869
-4.2185326 -3.1980441 1.9770596
-4.2075615 -3.1908605 1.9856503
-4.2131739 -3.2050982 1.9824128
-4.2045383 -3.2098005 1.9901464
-4.1888313 -3.2146008 1.9862685
-4.1818652 -3.2325311 1.9775398
-4.1866064 -3.2212417 1.9800271
-4.173595 -3.2438376 1.9768963
-4.1808834 -3.2370455 1.977239
-4.1695375 -3.2510309 1.9890083
-4.1671948 -3.2525332 1.9755503
-4.156971 -3.2675366 1.9751688
-4.1581488 -3.2726321 1.9864365
-4.1625552 -3.273581 1.9788821
-4.1592202 -3.2833197 1.9724015
-4.1397552 -3.290597 1.9738585
-4.1490107 -3.2871284 1.9724663
-4.1357708 -3.2951698 1.9743334
-4.1256537 -3.2950287 1.9888417
-4.1351857 -3.3080795 1.9752071
-4.1129403 -3.303333 1.9859062
-4.124145 -3.3129168 1.9874319
-4.1157231 -3.3282399 1.9896854
-4.1160254 -3.3325398 1.9768071
-4.1038742 -3.3380828 1.9800009
-4.0981956 -3.3487468 1.9817216
-4.0910516 -3.3532608 1.9727088
-4.0852923 -3.3491371 1.9814461
-4.0776577 -3.3595068 1.9761094
-4.0755067 -3.364027 1.9835005
-4.0669823 -3.3709288 1.9814099
-4.0677509 -3.3736694 1.9755013
-4.0669861 -3.3726311 1.9800287
-4.0639596 -3.3765457 1.986009
-4.0538034 -3.3929677 1.9721924
-4.0604458 -3.3883777 1.9734511
-4.0453591 -3.4013188 1.9759291
-4.0392776 -3.413183 1.9882572
-4.0444512 -3.4221034 1.9759355
-4.0349531 -3.4135714 1.9848069
-4.0180564 -3.421222 1.9724836
-4.023242 -3.4343557 1.9831197
-4.0143285 -3.4314468 1.9804879
-4.0208797 -3.450242 1.9796287
-4.0014429 -3.4436195 1.9880277
-3.9958148 -3.4483855 1.9866905
-3.9889202 -3.4628193 1.9780794
-3.9995399 -3.4559336 1.9832644
-3.9978237 -3.478991 1.9851831
-3.9884214 -3.4773283 1.9812807
-3.9701397 -3.4835546 1.9753683
-3.9641738 -3.4797604 1.9819559
-3.9675639 -3.491854 1.9770794
-3.973578 -3.4953082 1.9790281
-3.9604435 -3.5041425 1.9732128
-3.9589024 -3.5121739 1.9882386
-3.9586906 -3.5181432 1.9744306
-3.9470823 -3.5195727 1.9731016
-3.9302812 -3.5241344 1.9743018
-3.9315538 -3.5241499 1.9827443
-3.9367211 -3.5307479 1.9905336
-3.927793 -3.5362513 1.9876834
-3.9122698 -3.5500243 1.9782989
-3.9216154 -3.5546985 1.9910128
-3.9090044 -3.5511332 1.980438
-3.9022014 -3.5709293 1.9873708
-3.9003649 -3.575424 1.9738662
-3.8923287 -3.5732284 1.9844571
-3.8856139 -3.5791576 1.9760047
-3.8776913 -3.5912926 1.9730481
-3.8813186 -3.5935361 1.9889981
-3.8771491 -3.5918007 1.9849422
-3.8758221 -3.599498 1.972604
-3.8638721 -3.6015053 1.9810753
-3.8592005 -3.6158736 1.9785886
-3.8450963 -3.628418 1.9817754
-3.8440518 -3.6241128 1.9859304
-3.8365042 -3.6367662 1.9777368
-3.8383584 -3.627707 1.9890629
-3.8286574 -3.635735 1.9736956
-3.8219054 -3.6524076 1.9815197
-3.8191962 -3.6499357 1.9765072
-3.8205352 -3.6511693 1.9892179
-3.8142049 -3.665493 1.9853351
-3.799396 -3.6601927 1.9724909
-3.8070664 -3.6658435 1.9725019
-3.7915425 -3.6755123 1.9822105
-3.7918561 -3.682704 1.9846512
-3.7803559 -3.6968272 1.9815294
-3.7775221 -3.6863348 1.9757509
-3.7700484 -3.6941831 1.9786638
-3.7747431 -3.7044222 1.9894058
-3.7644429 -3.701108 1.984264
-3.7614248 -3.7165787 1.9901414
-3.7622821 -3.722363 1.9866545
-3.7559762 -3.7209475 1.9828453
-3.7496521 -3.7291455 1.9746884
-3.7336118 -3.7428019 1.9846541
-3.7351239 -3.7501101 1.9858032
-3.7397501 -3.7397444 1.9827446
-3.7301476 -3.7470717 1.9771299
-3.7176249 -3.7642682 1.9865614
-3.7143531 -3.7563462 1.984585
-3.7162156 -3.7705953 1.9724088
-3.7121937 -3.7708979 1.9797115
-3.6916513 -3.7700984 1.973686
-3.6949108 -3.7881858 1.9847113
-3.6863201 -3.7954516 1.9873219
-3.6877565 -3.7894547 1.9878584
-3.6880364 -3.7933173 1.9839877
-3.6713679 -3.8128176 1.9780093
-3.6603067 -3.8050427 1.9800467
-3.659807 -3.8192508 1.9752111
-3.6612766 -3.8205836 1.9813242
-3.6549151 -3.8231635 1.9723248
-3.6412439 -3.8304775 1.9893079
-3.6335912 -3.826335 1.973379
-3.7699234 -3.981437 1.9372561
-3.7684214 -3.9809175 1.9503872
-3.7663753 -3.9859829 1.9448092
-3.7481925 -3.999692 1.9448767
-3.755981 -4.0076594 1.9378574
-3.7417247 -4.0004539 1.941761
-3.7322965 -4.0200515 1.9494556
-3.7367482 -4.0186286 1.9396864
-3.7301917 -4.0288825 1.9477117
-3.7266452 -4.0368385 1.9449806
-3.7190201 -4.0314717 1.9347857
-3.7094142 -4.0301709 1.9503847
-3.70667 -4.0524001 1.9461851
-3.6894965 -4.0420294 1.9335351
-3.6922486 -4.0450382 1.9381686
-3.6820123 -4.0593882 1.9352511
-3.6878655 -4.0699148 1.9379715
-3.6660168 -4.0705056 1.9473423
-3.6739302 -4.0701599 1.9516791
-3.653811 -4.0718946 1.9532717
-3.6564157 -4.0916381 1.9454354
-3.6492083 -4.0874171 1.944096
-3.6463947 -4.0861011 1.9457157
-3.6477735 -4.093267 1.9428861
-3.7719615 -4.2558365 1.904124
-3.7611372 -4.2670336 1.914273
-3.7532232 -4.2697606 1.8990518
-3.7425816 -4.2763238 1.9083881
-3.7425616 -4.2764921 1.9032111
-3.7381976 -4.2822399 1.9014323
-3.7322335 -4.2762985 1.9050345
-3.7140987 -4.2888622 1.8979744
-3.7172959 -4.3043332 1.8973393
-3.7188661 -4.30691 1.9146388
-3.7032588 -4.3092432 1.9014498
-3.7083097 -4.3066988 1.9023299
-3.6832044 -4.3221946 1.9057407
-3.6933131 -4.3130102 1.907838
-3.6740785 -4.3297749 1.9150085
-3.6800134 -4.3281517 1.9016644
-3.6677201 -4.3265476 1.8994863
-3.6718173 -4.3327999 1.9099603
-3.6629677 -4.3482471 1.9101716
-3.6547458 -4.3512697 1.9130056
-3.6492174 -4.3646975 1.8986975
-3.6368709 -4.3691959 1.9121163
-3.7492275 -4.5255322 1.8571172
-3.7523649 -4.5272703 1.8745645
-3.7533977 -4.5358148 1.8604047
-3.7472527 -4.5363426 1.8730171
-3.7344446 -4.5306325 1.8723737
-3.7238073 -4.5350819 1.8706102
-3.7226887 -4.5567517 1.8585232
-3.7213514 -4.5562763 1.8685285
-3.6971731 -4.5563564 1.8702124
-3.7072954 -4.5701809 1.872496
-3.7039919 -4.57687 1.874449
-3.6975837 -4.5730128 1.8599199
-3.6737208 -4.5765119 1.8620936
-3.6840107 -4.5801964 1.868978
-3.6616812 -4.5974112 1.8668023
-3.6599877 -4.5903339 1.8653978
-3.6600504 -4.6084905 1.8675355
-3.6521931 -4.6116695 1.8753517
-3.6343236 -4.6170373 1.8682817
-3.7563059 -4.7730966 1.8344758
-3.7542391 -4.7782087 1.8372535
-3.750212 -4.7833014 1.8290558
-3.7407064 -4.7909269 1.8225175
-3.7290201 -4.7952452 1.8374439
-3.7304418 -4.8036437 1.8202964
-3.7140322 -4.7967658 1.8353577
-3.7190197 -4.8163753 1.8373848
-3.7018623 -4.814559 1.8213463
-3.6968815 -4.8213115 1.8250444
-3.6989636 -4.814949 1.8319733
-3.6767478 -4.8331881 1.8190461
-3.6717472 -4.834075 1.8262731
-3.674937 -4.83214 1.8311121
-3.6646581 -4.8452082 1.836861
-3.6594453 -4.846396 1.81943
-3.6513729 -4.8578787 1.8340859
-3.6482322 -4.8610611 1.8343325
-5.5076742 -2.9970791 1.8447016
-5.5151558 -3.0126688 1.837701
-5.5068474 -3.009398 1.8316749
-5.5076785 -3.0179114 1.8446637
-5.4949689 -3.0319164 1.8414266
-5.4937873 -3.0268829 1.8409612
-5.4961762 -3.0355301 1.8457896
-5.4944935 -3.0541837 1.8432672
-5.4793439 -3.0666904 1.8291839
-5.4777975 -3.0764554 1.8443594
-5.4784861 -3.0654807 1.8345492
-5.476336 -3.0861859 1.8368623
-5.2900777 -2.9859347 1.8668141
-5.2810683 -3.0073526 1.879293
-5.2790604 -3.0002916 1.8654624
-5.2802787 -3.0162902 1.8643547
-5.2819519 -3.0189297 1.8822833
-5.2787871 -3.0241494 1.8692359
-5.2781339 -3.0384929 1.8713531
-5.2715535 -3.035574 1.8713712
-5.2697878 -3.0576386 1.8700234
-5.257822 -3.0618589 1.8756239
-5.2435327 -3.0752354 1.8722659
-5.2559419 -3.0637939 1.8748928
-5.2358618 -3.0745459 1.8719774
-5.2296023 -3.0907283 1.8804544
-5.0552678 -2.9926236 1.9103374
-5.0523067 -2.9955332 1.9057195
-5.0623832 -3.002033 1.9141314
-5.0503325 -3.026206 1.9128294
-5.0582542 -3.032877 1.9168241
-5.0475135 -3.0318558 1.9039538
-5.0311627 -3.0408297 1.9050566
-5.0381598 -3.0465071 1.9049441
-5.0225205 -3.0564094 1.901417
-5.0297866 -3.0643668 1.9090389
-5.0285659 -3.0714872 1.9019077
-5.0141129 -3.0798421 1.91895
-5.0042677 -3.0824785 1.9165696
-5.0060015 -3.0772796 1.9170877
-4.841845 -2.9807563 1.9546608
-4.8410106 -3.0009646 1.9436541
-4.8330374 -3.0090668 1.9507271
-4.8239517 -3.0084207 1.9391705
-4.8149691 -3.0163996 1.9447533
-4.8095045 -3.015919 1.9494145
-4.8164082 -3.0385015 1.9539851
-4.8104339 -3.0309248 1.9372246
-4.8074079 -3.0378067 1.9448454
-4.8067527 -3.0507355 1.9446771
-4.8055706 -3.0510132 1.9445671
-4.7834659 -3.074645 1.9510151
-4.7923589 -3.074501 1.9561214
-4.7741694 -3.069479 1.9486285
-4.7875271 -3.0796907 1.9399053
-4.7752929 -3.0886636 1.9384056
-4.6135588 -2.9815967 1.977721
-4.5922241 -2.9997492 1.9746834
-4.5876403 -2.99913 1.9914889
-4.595427 -3.0021198 1.9820846
-4.5833731 -3.0081999 1.9791158
-4.5914207 -3.0164583 1.9792224
-4.5730104 -3.0379012 1.9861739
-4.5694852 -3.0454559 1.9848428
-4.5734444 -3.0506787 1.9799889
-4.5661173 -3.0479872 1.9928453
-4.5602813 -3.0527196 1.9922664
-4.5517817 -3.0603058 1.9799761
-4.5463104 -3.0675063 1.9747398
-4.5440249 -3.0667 1.992943
-4.5511346 -3.0780551 1.9914894
-4.5412045 -3.081682 1.9881949
-4.5311584 -3.0911324 1.9898689
-4.5341525 -3.1013 1.9903939
-4.5184689 -3.0996778 1.9920956
-4.5276299 -3.1149888 1.9828826
-4.5239258 -3.1087329 1.9753247
-4.520792 -3.1182551 1.9865625
-4.5099392 -3.1265929 1.9769756
-4.5043144 -3.1369412 1.9745647
-4.5004773 -3.1387038 1.9871624
-4.498085 -3.1548495 1.9824909
-4.4989786 -3.1652722 1.9747207
-4.4981894 -3.1630199 1.9831285
-4.4768662 -3.1694241 1.9794983
-4.4738331 -3.1693382 1.9868904
-4.4800038 -3.1899059 1.9868659
-4.4737239 -3.1917064 1.9836406
-4.4761972 -3.1870296 1.9783925
-4.4682488 -3.2011123 1.9891052
-4.4627023 -3.2157507 1.9843584
-4.4445496 -3.2123988 1.9897624
-4.4510598 -3.2143509 1.9910345
-4.4453316 -3.219933 1.9808433
-4.4311867 -3.2286201 1.9905263
-4.4406633 -3.2387106 1.9865673
-4.422739 -3.2394176 1.9883063
-4.4248309 -3.2582984 1.9745045
-4.4301395 -3.2641158 1.9916328
-4.4206872 -3.2664566 1.9809258
-4.4205136 -3.2677314 1.9818212
-4.4050784 -3.2753427 1.9923031
-4.4042306 -3.2739618 1.9870614
-4.402102 -3.2913592 1.9824595
-4.3901558 -3.2991269 1.9753863
-4.3885183 -3.3008947 1.984432
-4.3908315 -3.3092713 1.9789739
-4.3713965 -3.3042808 1.9808315
-4.3657551 -3.3091483 1.9830623
-4.3629766 -3.3291221 1.9891363
-4.3708968 -3.3334894 1.9801131
-4.357913 -3.326997 1.98965
-4.3544388 -3.3442409 1.9867324
-4.3561978 -3.3439491 1.992576
-4.3425503 -3.3563125 1.976804
-4.3359675 -3.3516483 1.9854096
-4.3403306 -3.3739157 1.9917778
-4.330143 -3.3813753 1.9892693
-4.3380895 -3.3878291 1.9880195
-4.3237967 -3.3761487 1.9929154
-4.3234215 -3.3970411 1.9795572
-4.3120608 -3.389611 1.978798
-4.3111548 -3.4033763 1.9868951
-4.3131585 -3.403579 1.9813777
-4.3093095 -3.4148207 1.9895838
-4.3012247 -3.4241745 1.9885347
-4.2845254 -3.422595 1.9912922
-4.2814498 -3.4355402 1.9926575
-4.2808743 -3.4411523 1.97363
-4.2815404 -3.4372008 1.9923369
-4.2773018 -3.4576113 1.9761989
-4.2664137 -3.4514072 1.973532
-4.2562757 -3.4690518 1.9831339
-4.2580328 -3.4734623 1.9785609
-4.2452989 -3.4787953 1.9887673
-4.2443504 -3.4808226 1.9756339
-4.2444429 -3.4909387 1.9900876
-4.2417693 -3.4827754 1.977597
-4.2377224 -3.4988413 1.9854884
-4.2326951 -3.500386 1.9833188
-4.2289519 -3.5025139 1.9867195
-4.2213392 -3.5185828 1.9822981
-4.2163844 -3.5293524 1.9861995
-4.2018199 -3.5267251 1.9916509
-4.2118201 -3.5362184 1.977723
-4.1916056 -3.5496261 1.9877146
-4.1845164 -3.5479975 1.9735302
-4.1829653 -3.5485749 1.9934423
-4.1738968 -3.5499933 1.9832149
-4.1769285 -3.5712798 1.9773623
-4.1821213 -3.5737278 1.9752946
-4.1639056 -3.5734751 1.9830637
-4.1701035 -3.5731888 1.9859624
-4.1523914 -3.5832667 1.9773805
-4.14922 -3.5882819 1.9851905
-4.1399684 -3.5980279 1.985471
-4.1407166 -3.6056383 1.9932516
-4.1356416 -3.6166594 1.9863189
-4.1306462 -3.6235814 1.9838258
-4.1358705 -3.6185133 1.9858965
-4.1269388 -3.6236246 1.9913628
-4.1200671 -3.6355145 1.9829184
-4.1054182 -3.6386044 1.98059
-4.1078629 -3.648993 1.9740063
-4.0988808 -3.6412287 1.988223
-4.1020808 -3.6492395 1.9785022
-4.0849929 -3.663034 1.9869725
-4.0801158 -3.6767962 1.9902163
-4.0821633 -3.6706142 1.9923254
-4.0666966 -3.6747153 1.9852831
-4.0691509 -3.6749523 1.9789028
-4.0661306 -3.6933928 1.9863988
-4.0515471 -3.7022674 1.976564
-4.0592842 -3.6986778 1.9820927
-4.053597 -3.7112057 1.9811305
-4.0536852 -3.7120411 1.977895
-4.0434861 -3.7209034 1.9865959
-4.0448089 -3.7300122 1.987258
-4.0228801 -3.7262998 1.9798182
-4.0188341 -3.7322595 1.9739865
-4.0218225 -3.745821 1.9736197
-4.0111833 -3.7415173 1.9805071
-4.0130405 -3.7477932 1.9842074
-4.0047245 -3.7669771 1.9771773
-3.9908721 -3.7656524 1.9832923
-3.9979742 -3.7696028 1.9742378
-3.9883037 -3.768549 1.9819796
-3.9899247 -3.7740204 1.9862639
-3.970876 -3.7827735 1.9799044
-3.979259 -3.7926991 1.9932218
-3.9734662 -3.7908392 1.9786073
-3.9680321 -3.8035743 1.9739184
-3.955703 -3.8034084 1.9885684
-3.959666 -3.8201761 1.9896419
-3.9506514 -3.8283491 1.97764
-3.935514 -3.8288891 1.9872805
-3.9294233 -3.825032 1.9835601
-3.9355831 -3.8280766 1.9799461
-3.9174511 -3.8373613 1.9931498
-3.9256709 -3.8403254 1.9819909
-3.9205656 -3.8428006 1.9782478
-3.9100671 -3.8651538 1.9873178
-3.9042499 -3.8604975 1.9820946
-3.9037752 -3.8651316 1.9856371
-3.8822193 -3.8660862 1.9865328
-3.8926575 -3.8772459 1.9924067
-3.8734479 -3.8876655 1.9876491
-3.8779509 -3.8896031 1.9853501
-3.8660603 -3.8987746 1.9792628
-3.8609586 -3.9015393 1.9757
-3.8670082 -3.9045796 1.9751431
-3.8567934 -3.9025104 1.9777063
-3.857501 -3.9200203 1.9903917
-3.8434243 -3.9224594 1.9839015
-3.8457975 -3.9287541 1.9819076
-3.8272676 -3.9309063 1.9741973
-3.8228564 -3.9392755 1.9815029
-3.8231952 -3.937582 1.9922992
-3.8058255 -3.94944 1.9793445
-3.8145359 -3.9616458 1.9890381
-3.8068013 -3.965358 1.9810966
-3.7996163 -3.9643202 1.9806219
-3.7898607 -3.9694617 1.9880275
-3.7874124 -3.9860063 1.9783762
-3.7714467 -3.990411 1.9878049
-3.7774677 -3.9817805 1.9804484
-3.7711916 -3.9942408 1.990082
-3.7576025 -3.9925494 1.9867606
-3.7532096 -3.9990051 1.9769251
-3.7617643 -3.9996955 1.9802201
-3.740618 -4.0181832 1.9851311
-3.7474058 -4.0150256 1.976401
-3.7346609 -4.0276589 1.9878421
-3.7345033 -4.0233979 1.9880439
-3.7239895 -4.0287323 1.9891384
-3.7240398 -4.0456567 1.9841529
-3.7114394 -4.0418816 1.9919893
-3.709198 -4.0501003 1.9867909
-3.7102706 -4.0595179 1.9804031
-3.7011719 -4.0630875 1.9785832
-3.6887708 -4.0711169 1.9835261
-3.6914513 -4.0715466 1.9768696
-3.6828549 -4.0848522 1.9828147
-3.6828101 -4.0836272 1.978248
-3.6625564 -4.0775232 1.9735657
-3.661201 -4.0971117 1.9771701
-3.664824 -4.0897489 1.9897534
-3.6606035 -4.1058016 1.9793131
-3.6415741 -4.1085906 1.9846433
-3.6489253 -4.1079516 1.9915832
-3.7682312 -4.2679644 1.939005
-3.7522392 -4.2691503 1.9478211
-3.7428968 -4.2674322 1.9484878
-3.7476015 -4.271369 1.9555273
-3.736866 -4.2807584 1.9538105
-3.7308054 -4.2945065 1.9376371
-3.7211328 -4.2975988 1.9539503
-3.7188699 -4.3021984 1.9393268
-3.7070398 -4.3135042 1.9470221
-3.7098722 -4.3179035 1.940456
-3.7057579 -4.3172164 1.9463434
-3.6975536 -4.3264999 1.9563103
-3.7005262 -4.3324108 1.9532523
-3.6828249 -4.3290038 1.9515061
-3.6780767 -4.3408451 1.9456106
-3.6750383 -4.3326182 1.9511989
-3.6681659 -4.3407173 1.9389185
-3.6649733 -4.35256 1.9472536
-3.6563971 -4.3585868 1.9494897
-3.6401184 -4.353466 1.9525248
-3.6503985 -4.3702593 1.9414369
-3.634784 -4.3648839 1.9462469
-3.7547498 -4.519825 1.9136585
-3.752001 -4.5319881 1.9063023
-3.7509911 -4.5454593 1.9122605
-3.7358692 -4.5419564 1.9115936
-3.735152 -4.557652 1.9079663
-3.7267077 -4.5562329 1.9176269
-3.7099211 -4.5523233 1.9063834
-3.7108912 -4.5582271 1.9053738
-3.7088189 -4.5805106 1.9126761
-3.6978271 -4.5732865 1.9104506
-3.7020183 -4.5865879 1.9096736
-3.6821299 -4.5834727 1.9019881
-3.6895907 -4.5856867 1.906077
-3.6710861 -4.5991263 1.9189059
-3.6732411 -4.5982027 1.9012671
-3.6590164 -4.6151958 1.9102664
-3.6551237 -4.6217713 1.9083858
-3.6424675 -4.6156931 1.9058026
-3.6508138 -4.6139255 1.9061283
-3.7533474 -4.7821355 1.882201
-3.7563868 -4.7865252 1.8668075
-3.7401958 -4.797431 1.8796947
-3.7316828 -4.8022094 1.8755242
-3.7390735 -4.7949018 1.883062
-3.7136285 -4.8161755 1.8766621
-3.7258148 -4.8096581 1.8783985
-3.7089944 -4.8256884 1.87868
-3.6940477 -4.8155098 1.8701515
-3.7016766 -4.8201323 1.8684932
-3.6889729 -4.8322535 1.8782972
-3.6835287 -4.8340988 1.8689659
-3.6734707 -4.8464456 1.8739734
-3.6705182 -4.8569784 1.8794379
-3.6717291 -4.8616095 1.8774358
-3.6453953 -4.8675089 1.8793764
-3.6454539 -4.8723159 1.8730419
-3.643769 -4.8670316 1.8758748
-5.5217156 -2.9939911 1.8840067
-5.5311055 -3.0073175 1.8926201
-5.5180883 -3.0147238 1.8825725
-5.5149302 -3.023746 1.8751863
-5.5169182 -3.0196455 1.879909
-5.5059032 -3.0291197 1.8750861
-5.4962244 -3.0351071 1.8839589
-5.4986339 -3.0484154 1.874927
-5.5015569 -3.0591803 1.8890629
-5.487875 -3.0700123 1.8866365
-5.4763651 -3.0615134 1.8762029
-5.480927 -3.0865972 1.8801721
-5.4768648 -3.0828681 1.8844583
-5.291512 -3.0032082 1.9226625
-5.3049979 -3.0065093 1.917456
-5.2937503 -3.0030315 1.910481
-5.2873154 -3.014122 1.9252182
-5.2919974 -3.0318797 1.914341
-5.2857013 -3.0368288 1.9203868
-5.2852588 -3.0323753 1.923282
-5.2672319 -3.0407021 1.9223522
-5.2596288 -3.0578911 1.9240083
-5.2680459 -3.0553291 1.9170575
-5.2521667 -3.0630634 1.9204375
-5.2532959 -3.0684805 1.9279289
-5.2596211 -3.0868573 1.9263049
-5.0833726 -2.9829369 1.956214
-5.0620551 -3.0077701 1.9605377
-5.0716047 -3.0105453 1.9473013
-5.055099 -3.0171268 1.9459013
-5.0556879 -3.0299411 1.9435517
-5.0571966 -3.0194211 1.9513842
-5.0570397 -3.0415983 1.949144
-5.0438237 -3.032186 1.9465287
-5.0472174 -3.0482032 1.9458494
-5.0431104 -3.0548561 1.9541404
-5.040617 -3.0591195 1.9536128
-5.023428 -3.0662563 1.9553504
-5.0219049 -3.0871439 1.9614054
-5.0136085 -3.0757363 1.9479655
-5.0067024 -3.0891383 1.9487923
-4.8547306 -2.9846706 1.9824367
-4.8424668 -3.0076616 1.9857501
-4.8324342 -3.0016868 1.9855388
-4.825007 -3.0233665 1.9963676
-4.8182497 -3.025209 1.9875947
-4.8231916 -3.0288382 1.9816036
-4.8286524 -3.0395677 1.9955148
-4.8123655 -3.0330739 1.9955715
-4.8100147 -3.0425932 1.994063
-4.8010941 -3.0495257 1.9861737
-4.8113375 -3.056221 1.9861583
-4.8031497 -3.0748463 1.9899273
-4.7916389 -3.0676417 1.9864404
-4.7803302 -3.0772231 1.9880377
-4.7781835 -3.0842693 1.9945503
-4.7848001 -3.1004891 1.9841856
-4.7773986 -3.1064107 1.9898371
-4.7760768 -3.100296 1.9887223
-4.7746887 -3.1160901 1.9848222
-4.7547998 -3.127233 1.9807177
-4.7627907 -3.1328976 1.9966401
-4.7507877 -3.1346626 1.9806533
-4.7550068 -3.1492143 1.978581
-4.7427034 -3.1567638 1.9936315
-4.7487936 -3.1464827 1.9883339
-4.7283616 -3.1671436 1.9935083
-4.7382851 -3.1647377 1.9794474
-4.722548 -3.1853538 1.9981809
-4.7279162 -3.188935 1.987794
-4.7171755 -3.19699 1.992932
-4.7105303 -3.197408 1.979067
-4.707953 -3.2102041 1.9900924
-4.7013535 -3.2116098 1.9932157
-4.6968174 -3.205112 1.9954325
-4.6972213 -3.2291129 1.9945675
-4.6829138 -3.2371001 1.9796726
-4.6834226 -3.2394385 1.9938083
-4.6779828 -3.2504766 1.9939463
-4.6738009 -3.2513287 1.9971153
-4.6799965 -3.2458954 1.9788353
-4.6610451 -3.258281 1.9867375
-4.6559496 -3.2725632 1.9884367
-4.6598196 -3.2647285 1.9953177
-4.6605568 -3.2768495 1.9952775
-4.6590686 -3.2938757 1.9978113
-4.6384358 -3.3011043 1.9789262
-4.6326895 -3.2933609 1.9842649
-4.6327982 -3.3047071 1.9851213
-4.6327596 -3.3164086 1.991675
-4.6295428 -3.3188527 1.9902052
-4.6245975 -3.326901 1.9828866
-4.6117406 -3.334419 1.9878162
-4.6171756 -3.3303812 1.9871044
-4.6157203 -3.3516638 1.9807892
-4.6142964 -3.3560507 1.9839592
-4.5903296 -3.3644063 1.9864053
-4.5852394 -3.3716257 1.9830929
-4.5948009 -3.3635733 1.9949265
-4.5834975 -3.380111 1.9815438
-4.5856314 -3.3780696 1.992196
-4.5692258 -3.3957293 1.9812722
-4.5801301 -3.4051878 1.9892963
-4.5660958 -3.4047458 1.9878179
-4.5527644 -3.4075227 1.9915094
-4.5657392 -3.4135582 1.9972606
-4.5555353 -3.4203186 1.981096
-4.5428762 -3.4266891 1.9841452
-4.5335207 -3.427331 1.9816734
-4.5323229 -3.4413879 1.989084
-4.5244989 -3.442306 1.9849494
-4.5260139 -3.4515553 1.9895618
-4.5184436 -3.456454 1.991116
-4.52284 -3.4720728 1.9795057
-4.5087066 -3.4791234 1.9915055
-4.5108728 -3.4839211 1.98385
-4.5072789 -3.4832954 1.9958076
-4.4998407 -3.4948008 1.9877617
-4.4893446 -3.5017493 1.9854339
-4.4813113 -3.5123074 1.9954027
-4.4858589 -3.5198581 1.9908
-4.4745326 -3.5137486 1.9832883
-4.4785848 -3.5249033 1.997211
-4.4610739 -3.5252976 1.9818412
-4.4551649 -3.5364099 1.9857407
-4.4572473 -3.534549 1.9911554
-4.4469762 -3.5539634 1.9835019
-4.4447389 -3.550818 1.9906423
-4.4505386 -3.5620635 1.9971266
-4.4386578 -3.5701714 1.9793383
-4.4367995 -3.5677314 1.9802781
-4.4395351 -3.5788782 1.9935992
-4.4297738 -3.5789988 1.9820307
-4.4260812 -3.5865395 1.9963262
-4.4177499 -3.5931106 1.9857605
-4.4055104 -3.6067121 1.9833
-4.4078474 -3.6149993 1.9876624
-4.3978295 -3.6260149 1.9814008
-4.4006624 -3.6278048 1.9901174
-4.3970027 -3.6226964 1.9969425
-4.3911223 -3.6407211 1.9924171
-4.384294 -3.6464815 1.9829477
-4.3841357 -3.6474898 1.9795531
-4.3755374 -3.6498227 1.9948063
-4.3726349 -3.6688502 1.9896702
-4.3602901 -3.6606731 1.997107
-4.3503966 -3.6798761 1.982424
-4.3561325 -3.6741133 1.9828858
-4.3481216 -3.6762438 1.9877114
-4.3313856 -3.6997836 1.9837916
-4.327816 -3.7025206 1.9879862
-4.3287635 -3.7035155 1.9925523
-4.3191714 -3.7094467 1.9822352
-4.3129659 -3.7118831 1.995703
-4.3114986 -3.7165287 1.996254
-4.3151593 -3.7339494 1.9910856
-4.3113747 -3.7266061 1.9928106
-4.3022647 -3.7301357 1.9863876
-4.2926841 -3.7508001 1.9839162
-4.2782698 -3.7598829 1.9839798
-4.2877669 -3.7505589 1.9873738
-4.2730613 -3.7673531 1.9958334
-4.2737808 -3.7597353 1.9844148
-4.2648091 -3.7711 1.9966059
-4.2623615 -3.7861941 1.99019
-4.2593546 -3.7901535 1.9923846
-4.2415075 -3.7955415 1.9879466
-4.2419271 -3.7970409 1.9859958
-4.2287617 -3.7941902 1.9893899
-4.2380595 -3.8021634 1.9897034
-4.2272854 -3.8248806 1.9853359
-4.2131085 -3.8181472 1.9901617
-4.210464 -3.8373969 1.9885852
-4.2192302 -3.832947 1.9816169
-4.2157969 -3.8313296 1.9855199
-4.198771 -3.8519936 1.9914215
-4.1995425 -3.8601074 1.9978857
-4.1847439 -3.853946 1.9887937
-4.1918879 -3.8599324 1.9884882
-4.1756296 -3.8605382 1.9861377
-4.1790495 -3.8756995 1.9869909
-4.1668286 -3.8820224 1.9804909
-4.1697741 -3.8910472 1.9806472
-4.1542878 -3.8941927 1.9911517
-4.1457615 -3.8992674 1.9891648
-4.1533246 -3.9126878 1.9923974
-4.1349778 -3.9122586 1.9933921
-4.1301584 -3.9224184 1.9864166
-4.1344233 -3.9251177 1.9793154
-4.1189852 -3.9169624 1.9974619
-4.1258898 -3.9376388 1.986293
-4.1119332 -3.9315145 1.9946393
-4.1044683 -3.953764 1.9797913
-4.0968394 -3.9459634 1.9876208
-4.0986977 -3.955081 1.9961911
-4.0825348 -3.9572141 1.9971489
-4.0831318 -3.9664609 1.9843359
-4.082726 -3.976357 1.9871557
-4.0692873 -3.9759948 1.9930611
-4.062942 -3.9856794 1.9928991
-4.0584426 -3.9877617 1.99783
-4.065104 -4.0013881 1.9946471
-4.0434108 -3.9930584 1.994969
-4.0565581 -4.0026169 1.9888381
-4.0418677 -4.0195589 1.979328
-4.0385995 -4.0258713 1.9934161
-4.0343652 -4.018321 1.9839805
-4.0229363 -4.0359139 1.9903642
-4.0286798 -4.0256257 1.982818
-4.0085096 -4.0345569 1.9912871
-4.0084939 -4.0445609 1.9833661
-4.0035396 -4.0468073 1.9875032
-4.00176 -4.052949 1.9856462
-3.999651 -4.0578351 1.9798996
-3.983665 -4.0736351 1.9828719
-3.9771812 -4.0717788 1.985185
-3.9766016 -4.0713086 1.9806935
-3.9654498 -4.0850377 1.9842464
-3.9679067 -4.0901461 1.9837173
-3.957902 -4.1007285 1.9798788
-3.9594202 -4.0969467 1.9916497
-3.9488518 -4.1138697 1.9867803
-3.9341388 -4.1146808 1.9813665
-3.9412749 -4.1190572 1.996657
-3.93415 -4.133131 1.9817295
-3.9240451 -4.1264114 1.9942321
-3.9116194 -4.1448107 1.9927709
-3.9036777 -4.1377645 1.9831387
-3.9121752 -4.1388884 1.9939482
-3.9011943 -4.1557298 1.9797177
-3.8940444 -4.1598186 1.9948032
-3.8951159 -4.1590762 1.9984916
-3.8810492 -4.1693654 1.9868875
-3.8723886 -4.172543 1.9964166
-3.8684301 -4.1743555 1.9973742
-3.8593915 -4.1918316 1.9905453
-3.8578427 -4.1826572 1.990803
-3.8577476 -4.1913238 1.9835848
-3.8472772 -4.1942792 1.9807121
-3.8459897 -4.2120519 1.9864599
-3.8389251 -4.2084804 1.9935722
-3.8367677 -4.2117939 1.9868724
-3.8309143 -4.226862 1.9953208
-3.8166575 -4.2190981 1.9860206
-3.8128643 -4.233212 1.9803284
-3.8081062 -4.2441316 1.9825733
-3.7901692 -4.2393532 1.9793972
-3.7919674 -4.2403383 1.9929506
-3.7809763 -4.2567201 1.9889371
-3.7728503 -4.257688 1.9925311
-3.7789693 -4.2574725 1.9850681
-3.7779684 -4.2609887 1.979655
-3.76366 -4.2845478 1.9845294
-3.760896 -4.2797542 1.9825144
-3.7474246 -4.2770786 1.9917244
-3.7396383 -4.2955632 1.9953457
-3.7295997 -4.3020377 1.9890677
-3.7427299 -4.2962432 1.987118
-3.7222993 -4.3053989 1.9940926
-3.7258751 -4.3123765 1.9853966
-3.7058496 -4.3114295 1.982205
-3.71328 -4.3154445 1.9807779
-3.7061157 -4.3311214 1.9810638
-3.6940703 -4.3300118 1.9914075
-3.6840324 -4.3414164 1.9896826
-3.6847775 -4.351027 1.9947201
-3.6818938 -4.3565989 1.9985224
-3.6652813 -4.3613081 1.9933496
-3.6706109 -4.3516011 1.9842433
-3.6689589 -4.3714914 1.9933727
-3.6559958 -4.3773851 1.9886546
-3.6462171 -4.3767452 1.9851185
-3.6378584 -4.3749843 1.9910938
-3.7549286 -4.5387325 1.9481356
-3.7557142 -4.5471725 1.9541671
-3.7582176 -4.5424223 1.9557511
-3.7356761 -4.5608602 1.9569176
-3.7293251 -4.5487642 1.9585211
-3.7281394 -4.5680847 1.954969
-3.716053 -4.571847 1.9566557
-3.7148297 -4.5687461 1.9575691
-3.7183173 -4.5819745 1.9442343
-3.7053337 -4.5729589 1.9577634
-3.7063677 -4.5814133 1.9441429
-3.6951299 -4.5969944 1.9473443
-3.6778533 -4.6014271 1.9605488
-3.6789856 -4.6096735 1.9605591
-3.6789441 -4.6179314 1.9579002
-3.6572921 -4.6113734 1.9611467
-3.6591849 -4.6191063 1.9458486
-3.6593838 -4.6320004 1.9588596
-3.6386623 -4.6347742 1.9438416
-3.6312685 -4.6309633 1.9630295
-3.751781 -4.789547 1.9237216
-3.7442477 -4.8085213 1.9092276
-3.733506 -4.7966394 1.9154646
-3.7295523 -4.8123169 1.91861
-3.7255809 -4.8143883 1.9186429
-3.7242613 -4.821249 1.9103702
-3.7196877 -4.816452 1.919492
-3.7104051 -4.8383098 1.9208381
-3.7081044 -4.8259096 1.92452
-3.7008142 -4.8325858 1.9171134
-3.694329 -4.8448095 1.9111691
-3.671922 -4.8562007 1.9115022
-3.6640017 -4.8635588 1.9089599
-3.669837 -4.8536787 1.9159726
-3.6525199 -4.8665504 1.9261378
-3.6551626 -4.8648329 1.9146562
-3.6460712 -4.8852797 1.9131765
-3.6478505 -4.8831882 1.9150344
-5.5312657 -2.9976633 1.9382659
-5.53652 -3.0150037 1.9218317
-5.5278106 -3.0166886 1.9339291
-5.5286031 -3.0249524 1.9303927
-5.5216556 -3.0199423 1.9195496
-5.5049877 -3.0280585 1.9206916
-5.5116816 -3.0469363 1.9385774
-5.5104008 -3.0580642 1.9279828
-5.5025649 -3.0511909 1.9297708
-5.4912114 -3.0707924 1.9370029
-5.4853659 -3.0647604 1.9267442
-5.4817348 -3.0881808 1.9268843
-5.3028455 -2.9902298 1.9668554
-5.3036656 -2.9939229 1.9725071
-5.3080115 -3.0148995 1.9708906
-5.3031902 -3.0234497 1.968873
-5.2972164 -3.0229461 1.9556875
-5.2933464 -3.025425 1.9590776
-5.2800612 -3.0443423 1.9570388
-5.284977 -3.0361907 1.9630898
-5.2826509 -3.0464888 1.9628587
-5.2705727 -3.057462 1.9668868
-5.2783446 -3.0655444 1.9596682
-5.2599177 -3.078639 1.9561843
-5.2558289 -3.0802817 1.9591459
-5.2533464 -3.081316 1.9609736
-5.0831156 -3.0003912 2.004498
-5.0759554 -2.9998016 1.9991652
-5.0653954 -3.0101702 2.0023134
-5.0768647 -3.0097094 2.0010056
-5.0622725 -3.0311866 1.9967866
-5.0679016 -3.0248606 1.9889749
-5.0494933 -3.0305917 2.0004554
-5.0582933 -3.0421913 2.0062101
-5.0505672 -3.0540078 1.9976844
-5.0398698 -3.0676575 1.9954811
-5.0473347 -3.0651581 2.0013447
-5.0450482 -3.0796955 1.9949054
-5.0280852 -3.0878789 2.0051992
-5.0279636 -3.0917475 2.0030496
-5.02914 -3.0852501 2.0065129
-5.0145259 -3.1086183 2.0033858
-5.0077133 -3.1178231 2.0016057
-5.0094109 -3.120084 1.9952985
-5.0053439 -3.1188843 2.0042408
-5.0097928 -3.1312628 1.9865935
-4.9964352 -3.1353912 1.9984996
-4.9972038 -3.1415284 2.0029168
-4.9844027 -3.1550071 2.0061927
-4.9812975 -3.1526792 1.9926361
-4.9803324 -3.1558521 1.992607
-4.9758945 -3.168745 1.9962339
-4.9745736 -3.1791699 1.9976739
-4.9750228 -3.1956458 2.0038648
-4.9617701 -3.1924183 1.9982613
-4.9595652 -3.1980131 1.9872792
-4.954998 -3.2146335 1.9991622
-4.9385152 -3.2164156 1.9918954
-4.9376054 -3.2297993 1.9981314
-4.9334097 -3.2244899 1.9936703
-4.9427614 -3.2426376 1.9930054
-4.9321322 -3.2407792 2.0064101
-4.9178667 -3.2420413 1.9963467
-4.9221516 -3.2482042 1.9967577
-4.9202356 -3.2655752 1.9873403
-4.903914 -3.2652118 1.9992659
-4.8985643 -3.2847614 2.001503
-4.9013228 -3.2923179 1.988883
-4.8913379 -3.283464 1.9897987
-4.8951077 -3.2949238 2.0029364
-4.8833289 -3.3002541 2.0048327
-4.8922057 -3.3194835 1.9954878
-4.8876681 -3.3089857 1.9917746
-4.8731842 -3.3273203 1.9887857
-4.8782802 -3.3282964 1.9953073
-4.8727837 -3.3375177 1.9890668
-4.8553524 -3.3459659 1.9901452
-4.8556743 -3.3417583 1.9905288
-4.8486066 -3.3521616 1.986622
-4.8406143 -3.3709397 1.9981042
-4.8394742 -3.3625538 1.9910989
-4.8364286 -3.3876688 1.9917002
-4.8227181 -3.39288 1.9896289
-4.8327122 -3.3882506 1.9960463
-4.825685 -3.3933697 1.9883043
-4.8121271 -3.3976548 1.9981512
-4.8048 -3.4091804 2.0063536
-4.8163853 -3.425709 2.0055606
-4.8075776 -3.4198608 2.0011551
-4.8026676 -3.4307203 2.0047553
-4.7862654 -3.4451494 2.0035188
-4.7968597 -3.4412518 2.0039382
-4.7868433 -3.4483726 2.0059109
-4.7788887 -3.4502249 1.9992703
-4.7845073 -3.4697976 1.9942615
-4.7778587 -3.4805691 1.991712
-4.7613535 -3.4887798 2.0043747
-4.7566371 -3.4933512 1.9872398
-4.7527041 -3.4939001 2.0026772
-4.7531676 -3.4943328 1.993973
-4.7500215 -3.5031676 1.9975506
-4.7481022 -3.5074093 1.99173
-4.7257547 -3.5264571 2.005486
-4.7214251 -3.5223818 2.0040803
-4.7237267 -3.5287662 1.9897859
-4.7110281 -3.5333524 1.9913973
-4.72087 -3.5462933 1.9914683
-4.7180395 -3.5593865 1.9936314
-4.7123351 -3.5534251 2.0019026
-4.6911836 -3.5728142 1.9963907
-4.6987276 -3.5739541 1.9886873
-4.6826844 -3.5780811 2.0033782
-4.6924534 -3.5847757 2.005651
-4.6884565 -3.5920653 1.9986212
-4.6658564 -3.6065903 1.9918228
-4.6775417 -3.6133597 1.987047
-4.6676064 -3.6149228 1.995932
-4.6575909 -3.6186168 1.9983187
-4.6654034 -3.621577 1.9932548
-4.6449351 -3.6283658 1.9953825
-4.6499701 -3.627687 2.0029442
-4.6426992 -3.6359637 1.9929461
-4.6407285 -3.6590159 2.0028136
-4.636476 -3.6630881 1.9919443
-4.6192441 -3.6695855 1.9930961
-4.6288018 -3.6728027 1.9940175
-4.623126 -3.6711285 1.9999075
-4.6085563 -3.6844914 1.9886284
-4.6115909 -3.6907289 2.0009067
-4.5996799 -3.7015693 1.9929072
-4.5856328 -3.7025247 1.9920899
-4.5840149 -3.7012982 1.9894925
-4.5923858 -3.7231994 1.9903322
-4.5708809 -3.7259552 1.9935821
-4.580236 -3.7365954 1.9968095
-4.5684304 -3.7419183 2.0032876
-4.5556946 -3.7466998 1.9979006
-4.5570593 -3.7420547 2.0056043
-4.549695 -3.7455966 1.9935169
-4.5500431 -3.7623894 1.9970284
-4.5383816 -3.7703049 2.0060163
-4.5275288 -3.7817819 2.0026553
-4.5392647 -3.786818 2.0038106
-4.5301518 -3.7755461 1.9886202
-4.5177803 -3.798835 1.9891926
-4.5221725 -3.7955337 1.9908378
-4.5000777 -3.8047202 1.9940897
-4.5033612 -3.8005047 1.9883678
-4.4989319 -3.8141661 2.0054777
-4.4865818 -3.8134263 1.9921612
-4.4907112 -3.8262846 1.997288
-4.4858437 -3.8335583 1.9972897
-4.4843283 -3.8378451 1.9985995
-4.4816494 -3.8383048 1.9975182
-4.4741521 -3.8516879 1.9994773
-4.466073 -3.8547666 1.9910599
-4.4563408 -3.8610632 1.9997706
-4.4433475 -3.8759644 1.9990042
-4.4360676 -3.8717668 1.9908761
-4.4316688 -3.8805575 1.9897802
-4.4405785 -3.8988252 2.0021107
-4.4243522 -3.8975818 1.9934448
-4.4281154 -3.9001882 1.9867622
-4.4105606 -3.9054894 2.0058823
-4.4140782 -3.9086759 1.997874
-4.415628 -3.9291747 1.9930344
-4.4055867 -3.9253411 1.9881378
-4.3868265 -3.9339228 1.9945723
-4.3888235 -3.9406419 1.991429
-4.3789406 -3.9483886 2.005712
-4.3701444 -3.9504793 1.9879371
-4.3690095 -3.9617872 1.9976074
-4.3765321 -3.9623106 1.9908653
-4.3707285 -3.9707394 2.0050087
-4.3657961 -3.9681549 2.0021448
-4.3488641 -3.9925985 2.0049531
-4.3367624 -3.9924872 1.997759
-4.3495493 -3.9991105 1.9881392
-4.3358932 -3.9932344 1.9979483
-4.3253717 -4.0029874 2.0061514
-4.320559 -4.0094652 1.9983969
-4.3135128 -4.0203376 2.0054595
-4.3167877 -4.0242696 1.9981163
-4.3067961 -4.027945 1.988454
-4.3026528 -4.0322428 1.9874778
-4.3013654 -4.0451717 1.9881523
-4.2972608 -4.0515709 1.9950244
-4.2803421 -4.0563378 2.0013521
-4.273035 -4.0530367 1.9996263
-4.2759099 -4.0648122 1.9942106
-4.2705736 -4.0773797 1.9883721
-4.2529836 -4.0885158 1.9977086
-4.248323 -4.0885487 1.9891522
-4.2509966 -4.0842214 2.0029523
-4.2433248 -4.1013904 1.9984781
-4.2366204 -4.1029196 1.9870908
-4.2292337 -4.1059999 1.9953119
-4.2349663 -4.1178265 2.0047662
-4.2143631 -4.1280189 2.0035136
-4.215477 -4.1267672 1.9964697
-4.2019992 -4.1258693 2.0028343
-4.1943512 -4.1330791 2.0040312
-4.1973581 -4.1413341 1.9911551
-4.1889138 -4.1579776 1.9885585
-4.1866608 -4.1526718 1.9947373
-4.1888742 -4.1663933 2.0053232
-4.1824665 -4.1584668 1.9987565
-4.1678295 -4.1820207 2.0062838
-4.1637301 -4.1707273 1.9895309
-4.1608753 -4.1863122 1.9999336
-4.1450562 -4.1941915 1.9971303
-4.1428642 -4.2002029 1.9930052
-4.1394677 -4.1950107 2.0065048
-4.1289387 -4.207171 1.9892324
-4.1209984 -4.2228832 2.0031295
-4.1268716 -4.2266226 1.9891608
-4.1221504 -4.2297754 1.9889657
-4.1039877 -4.2241211 1.9910561
-4.09829 -4.2402048 1.9902709
-4.0893369 -4.2392797 1.9997237
-4.0899734 -4.2483892 1.9871122
-4.0934052 -4.2611694 1.9942955
-4.0809541 -4.2564225 1.9924693
-4.0749955 -4.2670255 2.0042732
-4.0663009 -4.2755742 2.0061467
-4.0637016 -4.2758904 1.9900545
-4.0550628 -4.2773881 1.996575
-4.0466113 -4.2866335 1.9945071
-4.0360618 -4.2960997 2.0021043
-4.046289 -4.3025393 1.996367
-4.0270562 -4.3155499 1.9872524
-4.0204263 -4.317935 1.9910818
-4.0266056 -4.3138189 2.0053735
-4.0146031 -4.3297029 1.9947698
-4.0107894 -4.3228583 2.0013163
-4.0050941 -4.3393893 1.9932371
-3.9954827 -4.3332634 1.9893429
-3.9993432 -4.3446765 2.0018773
-3.9852638 -4.3515377 1.9906108
-3.9835799 -4.3546324 1.998562
-3.9676251 -4.3645077 1.9991513
-3.960777 -4.3737755 2.0029962
-3.9500921 -4.3752518 1.9965889
-3.9451075 -4.3707633 1.9999213
-3.9507189 -4.3885055 1.9957129
-3.9497762 -4.3866057 2.0005803
-3.9369049 -4.4011559 1.9971716
-3.9279201 -4.4056349 1.9879396
-3.9263933 -4.4021111 1.9974276
-3.9161253 -4.4029875 1.9893935
-3.9178984 -4.4140015 1.9970483
-3.8990746 -4.4242668 2.0009909
-3.8963983 -4.4299545 1.9890044
-3.9001217 -4.4367733 1.9870449
-3.8805051 -4.4353266 1.992873
-3.8850892 -4.4390674 2.0061221
-3.8647983 -4.4560752 1.9903344
-3.8679085 -4.4502444 1.9955716
-3.8602433 -4.4690409 1.9898282
-3.8630824 -4.4637299 1.9886955
-3.8539481 -4.4663615 2.0020275
-3.8371518 -4.476346 1.9905639
-3.836405 -4.4898381 1.9988735
-3.8276372 -4.4932456 2.0058169
-3.8208218 -4.4832358 1.9996512
-3.8081706 -4.5040174 1.9951795
-3.8022625 -4.5107226 1.9991266
-3.8121352 -4.5067601 1.9943221
-3.7967629 -4.5213618 1.9961305
-3.7871265 -4.5250406 1.98865
-3.7786157 -4.5258293 2.0039294
-3.7767653 -4.5360742 1.9946076
-3.7663713 -4.5318322 1.9971676
-3.7676601 -4.5450897 2.0016856
-3.7619984 -4.537806 2.00157
-3.762495 -4.5441537 2.0060208
-3.7474558 -4.5508833 1.9891053
-3.7484622 -4.5537825 2.0014827
-3.734266 -4.5676136 2.0045795
-3.7182539 -4.5781202 1.9893104
-3.7297151 -4.5864358 1.9985561
-3.7058897 -4.5792274 2.002852
-3.7113786 -4.5879593 1.9966762
-3.6943004 -4.5843215 2.0025201
-3.692697 -4.6013703 2.0009158
-3.6912019 -4.6052723 1.9982234
-3.6852489 -4.6004987 1.9940523
-3.676204 -4.6231022 1.9922237
-3.6747746 -4.6178875 2.0017967
-3.6702414 -4.6230464 2.0060868
-3.66097 -4.6260586 1.9872763
-3.6424456 -4.6316457 2.0008802
-3.6396182 -4.6491289 1.9909494
-3.6429596 -4.6359482 1.9898444
-3.7618313 -4.8029089 1.9630866
-3.7407019 -4.8196497 1.9713798
-3.7422574 -4.8168731 1.9696078
-3.7279768 -4.8114948 1.9703845
-3.7355175 -4.8311372 1.961519
-3.7134778 -4.8327031 1.9726288
-3.7071412 -4.8314624 1.9658512
-3.6996074 -4.8381691 1.9586025
-3.6984625 -4.848527 1.9589777
-3.6872413 -4.848712 1.9576315
-3.6771176 -4.8528805 1.9697363
-3.6799619 -4.8626361 1.9703497
-3.6745059 -4.860672 1.958979
-3.6708145 -4.8711586 1.958217
-3.6663392 -4.8759251 1.9630336
-3.6507223 -4.8853979 1.9714953
-3.6439886 -4.8952875 1.9663996
-3.6440251 -4.8844037 1.9597898
-5.5439696 -2.9838424 1.9784143
-5.5487008 -2.9924695 1.9793049
-5.5459619 -3.0000241 1.9842942
-5.5385642 -3.0138993 1.9770365
-5.5276713 -3.0245116 1.9821284
-5.5311155 -3.0367022 1.9687276
-5.5176888 -3.0467691 1.9669505
-5.5157351 -3.0464919 1.9773322
-5.5205898 -3.0580149 1.9814031
-5.5137072 -3.0595584 1.9659994
-5.508297 -3.0752501 1.9654936
-5.4906526 -3.0798655 1.9841149
-5.4921074 -3.0859454 1.9829303
-5.3166695 -2.991852 2.0079546
-5.3205066 -3.0078409 1.997762
-5.3192415 -3.0115106 2.0031097
-5.311367 -3.026 2.0061157
-5.3052588 -3.0227938 2.0171177
-5.2887588 -3.0287104 2.0043097
-5.2881775 -3.0320237 1.9976653
-5.2829895 -3.0542164 2.0030303
-5.2782974 -3.0630655 2.0114748
-5.2749734 -3.0576808 2.0015287
-5.2728233 -3.0730727 2.0163689
-5.2779803 -3.0764987 2.0026572
-5.2733197 -3.0828676 2.0127072
-5.2633009 -3.0855796 2.0156927
-5.2502661 -3.1064117 2.009304
-5.2462192 -3.1149824 2.0044124
-5.2549696 -3.1072209 2.0036147
-5.2503543 -3.1185305 2.0080261
-5.2403636 -3.1294177 2.0109839
-5.2419181 -3.1412604 2.006716
-5.2334085 -3.1352437 2.0144401
-5.2300487 -3.1586843 2.0061154
-5.2203898 -3.1617751 1.9987937
-5.2206717 -3.159168 2.0161257
-5.217957 -3.1678574 1.999985
-5.2016211 -3.1768413 2.0026271
-5.2101669 -3.1789274 2.0003784
-5.1994996 -3.2007601 2.0141611
-5.2044115 -3.1969748 2.0043919
-5.1863551 -3.2191262 2.0101089
-5.1925564 -3.2171607 2.009166
-5.1910238 -3.2162385 2.012099
-5.1778054 -3.2300706 1.999252
-5.1718988 -3.2486076 2.0163164
-5.1686497 -3.2488637 2.0119896
-5.1615314 -3.2572272 2.005971
-5.1517611 -3.2585905 2.0051522
-5.1642294 -3.2737508 2.0097802
-5.1429052 -3.2782967 2.0054672
-5.15134 -3.2892706 2.0062697
-5.134047 -3.2909403 2.0162983
-5.1376877 -3.2955816 2.014504
-5.1383848 -3.3115194 2.0061257
-5.1319194 -3.3060751 2.0064523
-5.1283793 -3.3219168 2.0137584
-5.1291561 -3.3351853 1.9999301
-5.1159415 -3.3232384 2.0119615
-5.1035357 -3.3483245 2.0160491
-5.1064916 -3.3566618 2.0028009
-5.093751 -3.3580184 2.0057824
-5.1001978 -3.366678 2.0142915
-5.0966058 -3.3635828 2.0053504
-5.0947986 -3.3658006 2.0076556
-5.0813594 -3.386178 2.0025833
-5.067584 -3.3876505 2.0088403
-5.0664921 -3.3945451 2.0089941
-5.0592189 -3.4128802 2.0082533
-5.0599046 -3.4034746 2.0095782
-5.0564923 -3.4217005 2.0097115
-5.0463185 -3.4318707 2.0156267
-5.0531535 -3.4331827 2.000015
-5.0514693 -3.4356079 2.0146239
-5.0387168 -3.4409406 2.0141342
-5.0436487 -3.4575593 2.0003798
-5.0336437 -3.465137 2.012259
-5.0173712 -3.4763677 2.004343
-5.0209355 -3.46508 2.0051844
-5.0052304 -3.4792418 2.0025175
-5.0081906 -3.4947662 2.0087039
-5.0110083 -3.5049012 2.0117929
-5.0079007 -3.506665 2.0006359
-5.0003953 -3.5115488 2.0141129
-4.998271 -3.5084934 2.0093098
-4.9766264 -3.5151937 2.0149338
-4.9887266 -3.5367222 2.0000191
-4.9689379 -3.5468216 2.000906
-4.9770555 -3.5453382 2.0001061
-4.9643221 -3.5530124 2.0121632
-4.954246 -3.5485198 2.0157075
-4.957974 -3.571727 2.0161223
-4.9586029 -3.5767186 2.0017715
-4.9503789 -3.5791066 2.0095284
-4.9486685 -3.5842819 2.0073252
-4.9317517 -3.5927341 2.0053992
-4.9292011 -3.5982177 2.0089157
-4.921556 -3.6088533 2.0092967
-4.9130139 -3.6125572 1.9981182
-4.9052625 -3.6284878 2.0062153
-4.9054441 -3.6193123 2.005748
-4.9020715 -3.6388438 2.0090101
-4.8982749 -3.6439936 2.0142095
-4.8888197 -3.6459184 2.0039432
-4.8915977 -3.6511414 2.0154169
-4.8765693 -3.6644657 2.0053463
-4.8834577 -3.6602671 2.0166936
-4.8668194 -3.6734607 2.0042992
-4.869791 -3.6831594 2.0150881
-4.8639321 -3.6901629 2.0168264
-4.849966 -3.7024143 2.0146129
-4.8564577 -3.6963692 1.999734
-4.8396783 -3.7116127 2.0065641
-4.8376894 -3.7224958 1.9983211
-4.8459578 -3.7212613 2.0116994
-4.8427429 -3.7301126 1.9985909
-4.8295889 -3.7309754 2.0165112
-4.8250785 -3.7403336 2.0080609
-4.812953 -3.7578058 2.0167277
-4.810029 -3.7545707 2.0051997
-4.8053579 -3.7625313 2.0082216
-4.8028903 -3.7621546 2.0040829
-4.7952924 -3.7701788 2.011488
-4.7808552 -3.7814043 2.0147893
-4.7946515 -3.7860973 2.006098
-4.7750597 -3.7927842 2.0153203
-4.7685676 -3.8115356 2.0104377
-4.7641459 -3.8110042 2.0029476
-4.7681651 -3.8235843 2.0047286
-4.7635078 -3.8184869 2.0164807
-4.7503695 -3.8339744 2.0070007
-4.7542 -3.8322592 2.0046186
-4.7421598 -3.8482208 2.0009263
-4.7427058 -3.8550289 2.0127151
-4.7399406 -3.8609266 2.00651
-4.7258577 -3.8725357 2.0003095
-4.7225437 -3.8629644 2.0020421
-4.7241025 -3.8742926 2.0109828
-4.7131424 -3.8749704 2.0140128
-4.7003918 -3.8963313 2.0088022
-4.6958804 -3.8899031 2.0147586
-4.7008395 -3.8926635 2.0090773
-4.6881719 -3.9087515 2.0140736
-4.6791868 -3.9107623 1.998894
-4.6784043 -3.9153943 2.004441
-4.6638174 -3.9313388 2.0049958
-4.6754222 -3.9293735 2.0017312
-4.6652851 -3.934381 2.0137403
-4.6461983 -3.9538515 2.0116658
-4.6440721 -3.9460037 2.014817
-4.6471477 -3.9590859 2.0109758
-4.6442575 -3.9625778 2.0109453
-4.6270399 -3.9788616 2.0013905
-4.6248169 -3.9716294 2.0163813
-4.6177645 -3.9890926 2.0132885
-4.6251559 -3.9974563 2.000792
-4.6119838 -4.0029206 2.016794
-4.602067 -4.0037532 2.0143137
-4.600132 -4.0110135 1.998881
-4.6002626 -4.0216713 1.9978061
-4.5972328 -4.020937 2.0101514
-4.5780358 -4.0228548 2.0054991
-4.5788598 -4.0331054 2.01105
-4.5692301 -4.0466924 2.0103121
-4.5646005 -4.0587959 1.9985824
-4.563055 -4.063869 2.0049524
-4.553997 -4.0613561 2.0123136
-4.5489278 -4.0745225 2.00529
-4.5463305 -4.0713587 1.9974463
-4.5391564 -4.0739398 2.0053771
-4.5330486 -4.0991135 2.0004661
-4.5345869 -4.0907216 2.0000541
-4.5207686 -4.1087947 2.0158002
-4.52139 -4.1028876 2.0043597
-4.5027409 -4.1180096 2.0072086
-4.4958129 -4.1172528 2.0113695
-4.5025058 -4.1331148 2.00442
-4.4818287 -4.1295929 2.010673
-4.4881663 -4.1491671 2.0064509
-4.4823394 -4.1472702 2.006001
-4.4685726 -4.1449776 2.0067222
-4.4597082 -4.1499438 2.0021725
-4.4712467 -4.166821 2.0058784
-4.4470305 -4.1700583 2.0018129
-4.4542465 -4.1803932 2.0089383
-4.4386044 -4.1895556 2.0031254
-4.4387932 -4.1911759 2.0077477
-4.4259224 -4.1978927 2.0021808
-4.4267902 -4.1967292 2.0033205
-4.4118714 -4.2155294 2.0126295
-4.4173937 -4.2063627 2.0104959
-4.4021864 -4.2141399 2.0096524
-4.41152 -4.2192731 1.9981802
-4.3971391 -4.2260156 2.0097113
-4.3868151 -4.2458081 2.0171392
-4.3893571 -4.2558022 2.0016286
-4.3777037 -4.2518368 2.0107133
-4.3814192 -4.2608614 1.999289
-4.3706932 -4.2566223 2.0152276
-4.3588185 -4.2633429 1.9985567
-4.3576269 -4.2814717 2.0172355
-4.3585601 -4.2902884 2.014312
-4.3403282 -4.2943425 2.0124221
-4.3335605 -4.289928 2.0099475
-4.3352528 -4.3011103 2.0138302
-4.3295088 -4.3007636 2.0138602
-4.3192673 -4.3147016 2.0039892
-4.319932 -4.3183017 2.011219
-4.3120131 -4.317131 2.0088041
-4.308147 -4.330049 2.0057774
-4.3009434 -4.3277478 2.0107214
-4.2950525 -4.3523602 2.0129404
-4.2920766 -4.3447299 2.0171888
-4.2709827 -4.356329 2.0119269
-4.2723546 -4.3556271 2.001549
-4.2698359 -4.375195 1.9975755
-4.2672782 -4.3705444 2.0057137
-4.2545838 -4.3725901 2.016293
-4.2546511 -4.392756 2.0140762
-4.2371249 -4.3951044 2.0049653
-4.2426171 -4.3963056 2.0041721
-4.2231569 -4.3976808 2.0047736
-4.2214699 -4.402154 1.9990045
-4.2155256 -4.4116144 2.0076265
-4.2148356 -4.4285369 2.002933
-4.204515 -4.4290385 2.0046444
-4.1981597 -4.4330897 2.0169716
-4.1836581 -4.4305611 2.0132093
-4.1785688 -4.4342232 2.015229
-4.1756883 -4.4464903 2.0008392
-4.1819105 -4.4503899 2.011179
-4.1689177 -4.4609776 2.0060654
-4.1553154 -4.4760342 2.0023928
-4.1474738 -4.4713111 2.0151644
-4.1510019 -4.4720712 2.0169096
-4.1392159 -4.4886913 2.0040407
-4.1257105 -4.485146 2.0129993
-4.1198692 -4.4932957 2.0103569
-4.1177826 -4.502562 2.0099144
-4.1136684 -4.5151615 2.0030572
-4.1039357 -4.520205 1.9981449
-4.1038551 -4.518486 2.0084803
-4.0888801 -4.5294027 2.0095861
-4.0975699 -4.5387239 2.0012329
-4.0934801 -4.537828 1.9979289
-4.0876369 -4.5514088 2.0038052
-4.0746546 -4.557754 1.9990189
-4.0727057 -4.5445375 2.0118659
-4.0533915 -4.5555205 2.0012207
