# .PCD v0.7 - Point Cloud Data file format
VERSION 0.7
FIELDS x y z
SIZE 4 4 4
TYPE F F F
COUNT 1 1 1
WIDTH 1561
HEIGHT 1
VIEWPOINT 0 0 0 1 0 0 0
POINTS 1561
DATA ascii
7.9161072 0.79006118 0.29137409
7.9217124 0.80343097 0.29310134
7.9166865 0.8245815 0.29181048
7.9134817 0.82624578 0.29173887
7.7249737 0.82208443 0.35783377
7.7212276 0.82203799 0.3458356
7.717577 0.83826119 0.34636244
7.7186337 0.85411441 0.34674114
7.7205305 0.86296278 0.35871989
7.7152143 0.87575114 0.35212344
7.7127457 0.87626612 0.35583621
7.70892 0.90349048 0.34188056
7.7068062 0.90680844 0.35803872
7.7033868 0.90805602 0.34482607
7.7198806 0.93008465 0.35619211
7.7175488 0.92950517 0.35674253
7.5154228 0.92350435 0.40765393
7.5216217 0.94238871 0.41874704
7.5281849 0.94435292 0.40792418
7.5267119 0.96219879 0.41912696
7.5186281 0.97878885 0.42008367
7.5142426 0.9727807 0.41750544
7.5158868 0.98590171 0.40748757
7.5136743 0.99686098 0.40796146
7.5182347 1.0055869 0.41970992
7.5141463 1.0132687 0.42012659
7.5105939 1.0279083 0.40671486
7.5130324 1.0500326 0.42170101
7.5065498 1.0600202 0.40816674
7.5092297 1.0698498 0.42199546
7.3158002 1.0463362 0.48683867
7.310648 1.0661083 0.4702892
7.3029027 1.0688831 0.47638351
7.3051257 1.0708187 0.48296174
7.3078079 1.0787024 0.4877924
7.3022251 1.1039004 0.46983349
7.2970443 1.106963 0.47604474
7.2984371 1.1138963 0.47391284
7.2948027 1.1357929 0.47130305
7.2976193 1.1418303 0.48805949
7.2942505 1.1432111 0.47742975
7.2908053 1.1608922 0.47637424
7.2907963 1.1722952 0.48789769
7.2968674 1.1874022 0.47116306
7.1027608 1.1564424 0.53702605
7.1002545 1.171393 0.55299205
7.0997758 1.1826866 0.54183322
7.105495 1.1969115 0.54742217
7.1090679 1.1890538 0.54472476
7.0900173 1.2055793 0.53788376
7.0877094 1.2203165 0.54224491
7.0947576 1.2332034 0.53411061
7.1007366 1.2476904 0.54720497
7.0982256 1.2498717 0.54523432
7.0989661 1.2663257 0.55237889
7.0806499 1.2618828 0.54456723
7.0782862 1.2785842 0.53814471
7.0847502 1.2826412 0.5360449
7.0767889 1.2919217 0.53618747
6.9000487 1.2696673 0.60786343
6.9025698 1.2806721 0.59947592
6.8894382 1.3004173 0.61408246
6.8881588 1.3078476 0.61328536
6.8799605 1.3144864 0.60478157
6.8897781 1.3235989 0.60284597
6.8867269 1.3361425 0.60658419
6.8758507 1.3480836 0.61714309
6.8785386 1.348263 0.60188049
6.8791132 1.3622698 0.60602266
6.879817 1.3674064 0.61218578
6.8672776 1.376832 0.59974259
6.8663378 1.3949076 0.61743617
6.8799906 1.3934989 0.61295396
6.8728333 1.4057003 0.6055069
6.8571591 1.4095411 0.61757129
6.8595357 1.4321659 0.61258101
6.6804323 1.4072076 0.67484128
6.6771331 1.4050958 0.68278223
6.6785588 1.4254339 0.67513925
6.664113 1.4283645 0.68304485
6.675818 1.4406581 0.67079061
6.6750665 1.4539272 0.66702926
6.6719956 1.4627781 0.67227918
6.8492484 1.5067774 0.61524773
6.854166 1.5169523 0.61738789
6.8511343 1.5314726 0.61258096
6.8430991 1.5340765 0.61180192
6.8324056 1.5353227 0.5996033
6.8296394 1.5599488 0.61843771
6.8392172 1.5520968 0.6109004
6.8366871 1.5779301 0.60635716
6.8218894 1.585005 0.60578614
6.8233171 1.5910155 0.60477221
6.8299813 1.5914792 0.61810291
6.8245068 1.598949 0.61206222
6.8211589 1.6254892 0.61099845
6.8129907 1.6261097 0.60299802
6.8240299 1.6381651 0.60670638
6.8228574 1.6495966 0.60550636
6.8205061 1.6527607 0.60692286
6.8106046 1.6555635 0.60464406
6.8161459 1.6657505 0.59991491
6.8011036 1.6795602 0.61167377
6.8050337 1.7022429 0.61437702
6.9858375 1.7474364 0.55012834
6.9769673 1.7660089 0.5478124
6.9870195 1.7586613 0.53660691
6.9690576 1.7846144 0.54795015
6.9747906 1.7916697 0.54122114
6.97931 1.7986616 0.5481559
6.9652324 1.7980527 0.54839623
6.9688625 1.8252997 0.54932946
6.9677496 1.8198318 0.53458172
6.9583826 1.8406348 0.553029
6.9517045 1.8410395 0.54142147
6.9656701 1.8550051 0.53864926
6.9573064 1.861468 0.53879565
6.9577231 1.8724273 0.53516489
6.94947 1.8915919 0.54886258
6.954474 1.8977615 0.53982872
6.9463997 1.9123524 0.54046607
6.9385519 1.9130863 0.53863406
6.9316235 1.9152335 0.54162127
6.9299345 1.9305531 0.53570211
7.1088858 1.9926198 0.4755764
7.1139379 2.0006018 0.48461959
7.1162043 2.0227997 0.47042695
7.0986028 2.0280087 0.4774988
7.0973568 2.0275717 0.47404382
7.1097951 2.0347598 0.48707068
7.0931854 2.0565073 0.48500457
7.097199 2.073055 0.4739919
7.0993671 2.0653358 0.47544986
7.0845084 2.0786021 0.48255455
7.0837169 2.0913012 0.47118527
7.0876913 2.1118255 0.47787812
7.0806952 2.1174028 0.47685334
7.0794926 2.1281793 0.4711256
7.0853481 2.1405244 0.4750528
7.0677347 2.1481357 0.47626388
7.0631347 2.1619792 0.46932253
7.0764542 2.1626925 0.46903273
7.0587478 2.1684434 0.47113168
7.243279 2.237906 0.41170344
7.2340298 2.2540398 0.4199957
7.233397 2.2570589 0.41893226
7.2394433 2.2760065 0.41357017
7.2244506 2.27669 0.40911278
7.2237158 2.286181 0.40713283
7.2268944 2.3010244 0.42290062
7.2112699 2.3142476 0.42265263
7.2086902 2.3237841 0.4132627
7.2058067 2.3186212 0.41977268
7.205008 2.3402169 0.41021162
7.2096725 2.3556757 0.40668949
7.2026148 2.3536286 0.41609588
7.1944799 2.3607683 0.41436368
7.2009692 2.37607 0.42323309
7.2029867 2.393806 0.4115161
7.1830106 2.3979032 0.4045698
7.3582091 2.4695349 0.35587266
7.3536406 2.4820864 0.35155344
7.3596683 2.4949789 0.35201177
7.352191 2.4903116 0.34401083
7.3551388 2.5135615 0.34141839
7.3545499 2.513021 0.34673294
7.3433533 2.5276265 0.34914592
7.35041 2.532016 0.35682386
7.3463221 2.5417323 0.35220566
7.3305025 2.554795 0.34165734
7.3277225 2.566972 0.35275608
7.321137 2.5780156 0.34613761
7.3302174 2.5985353 0.34214795
7.3197422 2.5950415 0.34323204
7.3212519 2.6179731 0.35731202
7.3201547 2.6238077 0.34060231
7.4823942 2.7059066 0.28334838
7.4889069 2.7148767 0.28515008
7.4830828 2.7232931 0.28643343
7.4726257 2.719439 0.29054999
7.4716058 2.7363684 0.27661914
7.4616704 2.7502892 0.28351218
7.4651017 2.7568822 0.28071052
7.4645286 2.7766058 0.28420556
7.4650254 2.7814591 0.28042763
7.4595876 2.7888496 0.29228497
7.4574256 2.8040919 0.29209217
7.4429007 2.8095987 0.29043162
7.4501629 2.8130484 0.28675514
7.438694 2.8298221 0.28879753
7.6080794 2.9167945 0.21244183
7.6066732 2.9104657 0.22449589
7.6121449 2.9313931 0.21273181
7.5948 2.9355872 0.21028556
7.6009355 2.9441316 0.22229217
7.5832787 2.9711065 0.21129422
7.5774636 2.9798021 0.22514883
7.5914416 2.97787 0.21412612
7.583744 2.987112 0.21617416
7.5723553 3.008811 0.22462277
7.5629945 3.0070839 0.22225352
7.5621681 3.0279999 0.22294663
7.5533814 3.0384517 0.21396394
7.5528159 3.0556376 0.21857756
3.4119692 3.557821 1.3284309
3.3998516 3.5718486 1.3324497
3.4064791 3.5769441 1.3157504
3.3994031 3.5675836 1.3131914
3.3998365 3.5856402 1.3245002
3.382539 3.5882065 1.3281021
3.3757193 3.58569 1.3157163
3.3737378 3.6002097 1.3302212
3.3774598 3.5910232 1.3130845
3.3633208 3.5975723 1.3208884
3.35852 3.6122742 1.3263958
3.3494642 3.6198149 1.3211845
3.3444207 3.6189456 1.316329
3.3426712 3.6159694 1.3173807
3.3383563 3.618403 1.3317633
3.3453436 3.6285214 1.3239936
3.3359265 3.6368091 1.3289957
3.3341169 3.6481111 1.3238128
3.3268058 3.6481373 1.3247459
3.3223517 3.6590333 1.3275374
3.3056951 3.6501439 1.3203471
3.3145392 3.6572201 1.3160207
3.2981656 3.6642811 1.3261553
3.2969303 3.6746278 1.3286514
3.2967401 3.6657007 1.3289254
3.2909262 3.6888089 1.3146694
3.2773361 3.6875541 1.3240596
3.2687418 3.6895506 1.3201175
3.2749584 3.6893032 1.3315741
3.2621017 3.6896753 1.3293066
3.2520299 3.6984708 1.3135364
3.2547617 3.7011971 1.3202368
3.2531607 3.7126427 1.3293992
3.241688 3.7079523 1.3243165
3.2327051 3.7281775 1.3257221
3.2439899 3.7277009 1.3256583
3.2210124 3.7187529 1.3197695
3.2274189 3.7263353 1.3313141
3.2098768 3.7452657 1.3180553
3.2037852 3.7364767 1.3206198
3.2154198 3.7427599 1.3274381
3.2112782 3.7569253 1.3324482
3.1938305 3.7546463 1.3243768
3.1855392 3.7660575 1.3270949
3.1921587 3.7736549 1.3255255
3.1801779 3.7777126 1.3189739
3.1681271 3.7639744 1.3189759
3.1701813 3.7818305 1.3220694
3.1637738 3.787339 1.3196094
3.1641011 3.7919564 1.323884
3.1469872 3.7934151 1.3299726
3.1566854 3.7959452 1.3257645
3.1513877 3.8062468 1.3148228
3.1380122 3.8134823 1.3308449
3.1273489 3.8125691 1.3300242
3.1351099 3.804913 1.3288285
3.1163135 3.8104496 1.3294691
3.1175129 3.8232908 1.3235478
3.1217997 3.8349805 1.3187243
3.1036205 3.8322604 1.3141148
3.1097097 3.8376946 1.3265681
3.1018817 3.8381019 1.3171628
3.0898395 3.8384919 1.3136777
3.0868497 3.8507936 1.3130543
3.0798757 3.8577249 1.3271514
3.0720751 3.8577163 1.3292331
3.0630729 3.8642166 1.3124998
3.0747054 3.8572273 1.3242632
3.0604105 3.8598421 1.3233798
3.0612862 3.869601 1.3154467
3.0575466 3.8707786 1.328626
3.0462542 3.8894632 1.317898
3.0455506 3.8814471 1.3232532
3.0413561 3.8957884 1.3166103
3.0365322 3.8885093 1.3126068
3.0257995 3.8987889 1.3243102
2.3233173 3.0071285 1.7076694
2.3191762 3.0098069 1.7103369
2.3067939 3.0035696 1.7113572
2.313524 3.0235927 1.7178819
2.3123164 3.0252671 1.7213372
2.3042836 3.0210459 1.7192376
2.3055184 3.0215237 1.7048901
2.2921038 3.0232155 1.7206596
2.292042 3.0254979 1.704933
2.2879722 3.0424678 1.715277
2.2756014 3.0362072 1.7080619
2.2771523 3.0299826 1.7202991
2.2813666 3.0355575 1.7030785
2.2665968 3.0520482 1.7026668
2.258347 3.0515223 1.7207206
2.2535484 3.0471585 1.7113506
2.2466457 3.048229 1.7192613
2.2453911 3.0600889 1.7056729
2.2399015 3.0560951 1.7111815
2.2386813 3.0722446 1.710481
2.2478006 3.0602405 1.7203465
2.2297003 3.0740089 1.7208197
2.2238331 3.0762179 1.7037063
2.2207408 3.0678875 1.7199281
2.2172325 3.0755424 1.7124741
2.2117736 3.0826378 1.7175124
2.2169404 3.0870743 1.7204833
2.2100139 3.0945041 1.7121822
2.2094944 3.1006968 1.7167615
2.1944792 3.089926 1.7143701
2.1987596 3.0925355 1.7168604
2.1929009 3.1013105 1.7100112
2.1875114 3.1084878 1.7022687
2.1850042 3.116847 1.7030996
2.1787145 3.1059761 1.7084951
2.1649663 3.1139295 1.7179019
2.1762526 3.1113365 1.7086668
2.1705055 3.1261082 1.7037892
2.1564529 3.124656 1.7020382
2.1469755 3.1324885 1.7064562
2.1551025 3.1289055 1.7104294
2.1457157 3.1237721 1.7201294
2.1494756 3.137562 1.7139645
2.1454887 3.1331613 1.7131225
2.1423287 3.1467919 1.7183799
2.1245601 3.151 1.7085662
2.116194 3.1508238 1.7131417
2.1185887 3.1492341 1.7094768
2.1161017 3.1579299 1.7213538
2.1118596 3.1614902 1.7180636
2.1120315 3.1575239 1.7081966
2.0961723 3.1685214 1.7102087
1.9855366 3.009922 1.7679344
1.9934247 3.0092602 1.7733785
1.980467 3.0098014 1.7694839
1.9727627 3.0169413 1.7668341
1.9752409 3.0200865 1.7810509
1.9822909 3.0300021 1.7707269
1.9656721 3.0218105 1.7861537
1.9609265 3.0337605 1.782202
1.9528869 3.0302701 1.7713515
1.9549766 3.0353129 1.7685716
1.9590744 3.0385883 1.7819833
1.9559888 3.0339315 1.7719644
1.9383434 3.0405009 1.7797242
1.9367998 3.0435534 1.7718669
1.9326025 3.0532756 1.784404
1.9226183 3.0542428 1.7841116
1.9223063 3.0427904 1.7728882
1.9174173 3.0507953 1.7708814
1.928573 3.0549672 1.7826568
1.9088744 3.0654392 1.7767532
1.9063922 3.0642233 1.7714092
1.897318 3.0641398 1.7786987
1.8982213 3.0706327 1.7698535
1.9068805 3.0598075 1.7813629
1.887679 3.0690145 1.7799023
1.8810108 3.0724702 1.7767229
1.8940464 3.0798509 1.7794108
1.8758551 3.0865831 1.7674292
1.8756533 3.0887153 1.7769512
1.8672231 3.0753968 1.7742826
1.8728859 3.0838478 1.7677416
1.873201 3.0874801 1.7784663
1.8608019 3.0962746 1.7730393
1.8595542 3.0979912 1.7741486
1.8498122 3.1047726 1.781832
1.838606 3.1091561 1.7703445
1.8442168 3.1108489 1.7836168
1.832512 3.0986278 1.7810065
1.8288221 3.110486 1.7779194
1.8346505 3.1181986 1.7789111
1.8178068 3.1158626 1.7857569
1.8144186 3.1181333 1.7736442
1.8217515 3.1123006 1.7677411
1.803654 3.1295195 1.7809758
1.8066621 3.121299 1.7784193
1.7973502 3.1261785 1.7776792
1.7965472 3.1209788 1.7760713
1.789013 3.1283879 1.7796875
1.7988651 3.1364241 1.7726132
1.7856266 3.1346092 1.7707089
1.7733765 3.1402748 1.7839319
1.7679687 3.1468797 1.776895
1.7704446 3.1451485 1.7815011
1.7670141 3.1496546 1.7808074
1.7568148 3.1415071 1.7693807
1.7640556 3.1483893 1.7803273
1.750553 3.1588137 1.7835741
1.7554389 3.1460526 1.7717357
1.7439377 3.1474957 1.7854452
1.7453588 3.1600561 1.774858
1.7448722 3.1647253 1.7674603
1.7376052 3.1683493 1.7841977
1.7232981 3.1588151 1.7767403
1.7335936 3.1702197 1.7713313
1.7231921 3.1757979 1.7753233
1.7213607 3.1729929 1.7837521
1.6209558 3.0144098 1.8450716
1.6135439 3.011626 1.8462913
1.6142904 3.0217278 1.8465272
1.6087433 3.0176408 1.8369026
1.6126059 3.0174608 1.8495324
1.6090677 3.0144105 1.8433775
1.6022637 3.0214534 1.8452859
1.5879992 3.0231953 1.8362026
1.5883228 3.0189424 1.8503075
1.5926352 3.0372684 1.8392235
1.5853733 3.0291197 1.8338338
1.5745224 3.0377431 1.8434137
1.5648882 3.0313003 1.8408545
1.5754868 3.0435007 1.8319733
1.5564578 3.043757 1.8406827
1.5500555 3.0446715 1.8441185
1.5574954 3.0429819 1.8323796
1.5468405 3.0512304 1.8401709
1.5470995 3.0440083 1.8415036
1.5414602 3.0453074 1.8389626
1.544734 3.0635567 1.8460788
1.5426152 3.0551698 1.8396302
1.5300733 3.061367 1.8445567
1.5149693 3.0623839 1.8395072
1.5109811 3.0685956 1.8325437
1.5156994 3.0726326 1.8443303
1.5038505 3.0683391 1.8322687
1.5002598 3.0776241 1.846303
1.5044575 3.0714042 1.8509684
1.489985 3.0637841 1.834792
1.4929684 3.0836799 1.8347301
1.4830652 3.0857019 1.8441526
1.4867107 3.0794303 1.8376491
1.4752797 3.0823057 1.8500453
1.4787964 3.0854466 1.8465424
1.4753467 3.0775628 1.8449709
1.4636807 3.0820901 1.837007
1.4599503 3.0872891 1.8362348
1.4502513 3.1009517 1.8471553
1.4652148 3.0844102 1.8483745
1.4439994 3.0951238 1.8474141
1.4427191 3.1002083 1.8464065
1.4508584 3.0932157 1.8370638
1.4324914 3.0990722 1.8485389
1.426518 3.1127284 1.8411037
1.4370388 3.1072204 1.8437392
1.4259855 3.1143355 1.8488623
1.4269654 3.1020114 1.8371512
1.4071703 3.1042829 1.837075
1.4182931 3.1058152 1.838436
1.4106323 3.1104317 1.8484951
1.4020083 3.1180708 1.8416294
1.392374 3.1181548 1.8457675
1.3933944 3.1241801 1.8337649
1.385887 3.1285431 1.833427
1.3909417 3.1277411 1.845596
1.3786293 3.1202021 1.8429006
1.3714373 3.1379628 1.845908
1.3725317 3.1402504 1.8492197
1.3735471 3.1379859 1.8321023
1.355921 3.1323881 1.8376465
1.3683512 3.1424968 1.8488805
1.3539132 3.1473043 1.8382556
1.3436106 3.1374679 1.8317192
1.3413028 3.1444626 1.8476149
1.3386544 3.1408532 1.8407836
1.3481723 3.1492753 1.8444948
1.3349924 3.1548522 1.8440537
1.3248174 3.1458721 1.8439939
1.3179514 3.1422598 1.839769
1.3139656 3.1453757 1.8480518
1.3155212 3.1452789 1.844555
1.3083085 3.1551039 1.8439835
1.3104682 3.1589887 1.8516994
1.3060889 3.1649306 1.8445399
1.2976029 3.1525917 1.8319073
1.3022832 3.1541409 1.8458389
1.2906719 3.1668832 1.8434955
1.2786173 3.1738257 1.8503267
1.2865003 3.1782804 1.8317059
1.2701559 3.1631296 1.8343676
1.2820917 3.1739173 1.8351055
1.2705284 3.1818779 1.8438472
1.2583911 3.1763864 1.8346586
1.2539673 3.1709063 1.8496032
1.2623816 3.1813333 1.8504062
1.2581607 3.1808362 1.8509619
1.247869 3.1731262 1.8424696
1.2352316 3.177762 1.8391354
1.229423 3.1946843 1.8384778
1.2249912 3.1796675 1.8408974
1.1555414 3.0043395 1.8972446
1.1547512 3.0184197 1.9148873
1.1427003 3.024776 1.9052851
1.1414587 3.0111241 1.9084555
1.1351595 3.0103047 1.9003119
1.129661 3.029685 1.9099363
1.144716 3.0231969 1.9101218
1.1312765 3.0284967 1.9132208
1.1345007 3.0324159 1.9115254
1.1170652 3.0363333 1.9131031
1.1220469 3.0229111 1.914304
1.1184683 3.0328867 1.9079819
1.1125302 3.0350022 1.9064182
1.0969878 3.0400686 1.9096111
1.1046138 3.043031 1.9103987
1.1040939 3.0446918 1.9089867
1.0931963 3.0456071 1.8995124
1.0824821 3.0372844 1.9137697
1.0748647 3.0363898 1.9103837
1.08555 3.0422654 1.9093586
1.0778106 3.0373309 1.9133607
1.0712703 3.0530279 1.9057938
1.0584058 3.0469995 1.8988034
1.0639756 3.0496428 1.9153466
1.0527362 3.0441289 1.913325
1.0622822 3.0423141 1.9114431
1.0504143 3.0538223 1.9089612
1.0490701 3.0588393 1.8966473
1.0419811 3.0604641 1.9019353
1.0315042 3.0570016 1.9116013
1.0400001 3.0500288 1.9148412
1.0324961 3.0607471 1.9122925
1.0174232 3.0628343 1.9022354
1.015358 3.0547268 1.913348
1.0098339 3.0596173 1.8974786
1.0222864 3.0582936 1.8983321
1.0128549 3.0693436 1.909238
1.0009396 3.063293 1.9037107
0.99670857 3.074399 1.8983641
0.99776351 3.0792756 1.9081165
0.98848259 3.0768979 1.9094638
0.98243958 3.0712678 1.900103
0.97384602 3.0748186 1.911409
0.97519338 3.0805597 1.913193
0.96765143 3.0850346 1.8984588
0.96423823 3.0862212 1.9009985
0.96167678 3.082238 1.9131913
0.97001928 3.0906029 1.8979429
0.95283264 3.0790021 1.9124157
0.95029759 3.0927236 1.9103866
0.95751297 3.0814333 1.9046068
0.94607389 3.0883713 1.9118302
0.94527221 3.0909886 1.9012436
0.93577474 3.0992284 1.915043
0.9280594 3.084203 1.9119684
0.92560822 3.0900431 1.9087375
0.92569488 3.0976021 1.9001864
0.91797256 3.0977862 1.8986694
0.91500008 3.105068 1.9042265
0.90649867 3.0941007 1.9021862
0.89596629 3.0946369 1.9075427
0.89965242 3.1080236 1.8985301
0.89056027 3.1049004 1.9108341
0.89087963 3.0965731 1.9100826
0.88499683 3.1048257 1.9130168
0.87603766 3.114924 1.9005082
0.88384587 3.1094079 1.9142816
0.88310128 3.1004698 1.9069682
0.860838 3.1128619 1.9056716
0.86413014 3.1010563 1.912149
0.86538035 3.1030245 1.8979094
0.85198534 3.1129863 1.9158099
0.84957618 3.118165 1.9093462
0.83946925 3.1079745 1.9133204
0.84860927 3.1162138 1.9043183
0.84068185 3.1198082 1.9041919
0.84024411 3.1155272 1.8973325
0.83357829 3.1148195 1.9003245
0.81959748 3.116168 1.9145038
0.82431847 3.1251299 1.915679
0.81551516 3.1196647 1.8976297
0.81247073 3.1251292 1.9083556
0.80732518 3.1325109 1.90308
0.7957145 3.1341133 1.9064392
0.80807638 3.1291852 1.8968693
0.79143471 3.120661 1.9097317
0.79466504 3.1360316 1.8971567
0.79103446 3.1290708 1.9027238
0.79039443 3.1324649 1.9084953
0.78393209 3.1249177 1.9020905
0.77864343 3.1329062 1.9090886
0.77530402 3.1421909 1.9004254
0.76268905 3.1306725 1.8980238
0.76479697 3.131887 1.9161109
0.75026268 3.1298087 1.9081621
0.74615699 3.1354356 1.9105874
0.75491226 3.1486413 1.9072878
0.75109112 3.1425664 1.9159378
0.73283565 3.140203 1.9068985
0.74035019 3.1357303 1.9092346
0.72145855 3.1503232 1.8984882
0.72956365 3.1459327 1.9159613
0.72900414 3.1532845 1.9008567
0.72604162 3.1471033 1.9059138
0.72116476 3.1507483 1.9078459
0.70833784 3.1546493 1.914364
0.69793481 3.1516688 1.9130533
0.70423079 3.1492319 1.9046391
0.69917536 3.1529055 1.9128389
0.6850794 3.1484613 1.9155496
0.69331825 3.1494946 1.9118429
0.69080931 3.1630032 1.9027417
0.68577206 3.1603241 1.8999943
0.66562909 3.1590557 1.9100738
0.67054188 3.157285 1.9028124
0.65738535 3.167063 1.8984722
0.67074579 3.1508155 1.9101779
0.66279417 3.1652427 1.8984793
0.64642715 3.1589942 1.9094932
0.63825876 3.1630311 1.9151076
0.65279973 3.1596897 1.9008063
0.64363277 3.1582229 1.8990706
0.62536329 3.1561043 1.9137191
0.62434524 3.1582296 1.9061683
0.63340551 3.1696551 1.9159223
0.61520308 3.1723135 1.914536
0.61265928 3.1727226 1.9159899
0.62182009 3.1695719 1.9109647
0.59928113 3.1744471 1.8987912
0.60775483 3.1755478 1.9097607
0.60184187 3.1755853 1.9165009
0.6016264 3.1708524 1.900893
0.59967417 3.1722479 1.9022912
0.5923692 3.1770244 1.904945
0.57751232 3.1752615 1.8981615
0.57240832 3.1796978 1.9131794
0.56591696 3.1859927 1.9077555
0.56087834 3.1858525 1.8983363
0.57081354 3.1875787 1.9129537
0.56857407 3.1821845 1.9078399
0.55730301 3.1752849 1.9019371
0.55277115 3.1725781 1.9104813
0.55263036 3.1723289 1.8996073
0.53388661 3.1891856 1.9127022
0.53779578 3.1755972 1.9032326
0.53492033 3.181318 1.8974038
0.52706176 3.1849616 1.8970811
0.53377831 3.1879816 1.9158353
0.51107466 3.1853533 1.9155384
0.52298743 3.1849029 1.9090769
0.50978535 3.1775999 1.9149513
0.51067948 3.1901846 1.8973607
0.50011694 3.1870489 1.8987688
0.49867943 3.1895914 1.9162875
0.49033576 3.1804657 1.8994783
0.49252158 3.192888 1.9076563
0.48887777 3.1818767 1.8987503
0.48491031 3.1820076 1.9121433
0.47969604 3.1838615 1.9021931
0.47418407 3.2020562 1.9110835
0.46220967 3.1914771 1.9119684
0.45610872 3.1862221 1.9047414
0.4524163 3.1948349 1.9136888
0.45013112 3.1864421 1.9044945
0.44536385 3.1941383 1.9054967
0.44378647 3.1884534 1.8982496
0.43038622 3.2035594 1.8993258
0.42807916 3.1991332 1.8998736
0.43916428 3.193929 1.9016224
0.42029828 3.2076499 1.9009188
0.4303219 3.1938348 1.9089957
0.42122957 3.1983573 1.9111831
0.40490958 3.2036276 1.9013553
0.44099206 3.3987687 1.837607
0.42416152 3.3859012 1.8458445
0.4283323 3.3958983 1.8477877
0.42525524 3.3969383 1.8442336
0.44566071 3.5879583 1.7707505
0.42394376 3.5866957 1.7763779
0.42397475 3.571012 1.7751415
0.42330137 3.589798 1.7795112
0.43206176 3.7719038 1.7029259
0.44138855 3.7742012 1.71595
0.42088667 3.7735727 1.71584
0.42154127 3.7808247 1.7022763
0.43074018 3.9650409 1.6532248
0.42131129 3.9628386 1.6495456
0.42832735 3.9633474 1.6484764
0.42676508 3.9671152 1.6455536
0.4300862 4.144083 1.5814579
0.43265042 4.1571894 1.5804763
0.41958359 4.1426764 1.5730648
0.43330455 4.3310027 1.5224524
0.42131758 4.3358231 1.5155317
0.42921975 4.3465409 1.5152848
0.44123712 4.5397401 1.445696
0.43116492 4.5406942 1.4582187
0.43456632 4.722568 1.3857609
0.43948102 4.720015 1.3814
0.42147219 4.7270346 1.3852462
0.44063658 4.9108562 1.3167056
0.42219108 4.9189405 1.3179778
0.41633332 4.9080505 1.3187336
0.42476776 4.9112101 1.3237209
0.40628076 4.9083099 1.3188455
0.4075461 4.9057856 1.3182502
0.4041273 4.9194913 1.3180212
0.39323047 4.9057479 1.3306905
0.37478054 4.9234862 1.3202126
0.37196904 4.9097834 1.3161693
0.37300298 4.9254494 1.3269058
0.35040107 4.909502 1.3251374
0.34907076 4.9145303 1.331899
0.34849554 4.9148269 1.3212504
0.33290705 4.9234719 1.3271408
0.33244249 4.9202175 1.3299558
0.33138195 4.9203811 1.3259352
0.31009179 4.9164848 1.3276393
0.32147038 4.9209766 1.3265593
0.30237049 4.9294953 1.3312635
0.2992267 4.9258876 1.3311303
0.28681886 4.926518 1.3145559
0.292642 4.9126587 1.3225257
0.28522632 4.925066 1.3303179
0.26716143 4.9287262 1.3262898
0.25498638 4.9187651 1.3185519
0.26562595 4.9145865 1.3305317
0.25224441 4.9159617 1.3181789
0.24056649 4.9155602 1.3298912
0.22780806 4.922904 1.3297054
0.23975345 4.9139495 1.3255041
0.2315651 4.9194336 1.3215351
0.20680204 4.9175878 1.3233186
0.21000841 4.9151735 1.3171302
0.20100649 4.9215422 1.3142331
0.18797606 4.9225841 1.3210149
0.18720748 4.9211144 1.3232682
0.17841829 4.9331131 1.3265561
0.17727605 4.9202833 1.3291116
0.16784574 4.921545 1.3186893
0.15822922 4.9216032 1.3190008
0.16441111 4.9203243 1.3244941
0.14662382 4.921134 1.3278488
0.15061972 4.9320016 1.328506
0.12842695 4.9207201 1.3152583
0.12333681 4.9232607 1.3227887
0.12502831 4.9318857 1.3285953
0.10897285 4.9185753 1.3261554
0.11620518 4.9309764 1.3306506
0.10599276 4.9208012 1.3161821
0.085357904 4.9278636 1.321556
0.085034385 4.9279628 1.3254443
0.070204012 4.9371295 1.3299453
0.078728132 4.9371476 1.325127
0.06790933 4.9218287 1.3288492
0.063842781 4.9282751 1.314944
0.047306601 4.9232688 1.3295053
0.036576912 4.9290638 1.3306073
0.043407265 4.928947 1.3239707
0.034732699 4.9254746 1.3270291
0.031589698 4.9282241 1.3170301
0.013820451 4.9375067 1.3270196
0.019939544 4.9188166 1.3260751
0.010559665 4.9355073 1.3250573
-0.0036385758 4.9282365 1.3286384
-0.014114539 4.9237571 1.3185937
-0.018495696 4.9295983 1.3234804
-0.028315417 4.9315681 1.3141086
-0.037033208 4.9272256 1.3245769
-0.032387462 4.9210663 1.3315387
-0.044683184 4.9186215 1.3212256
-0.046977893 4.9252658 1.3201807
-0.059282925 4.9248867 1.3204402
-0.072532333 4.9219856 1.3173951
-0.066799432 4.9317436 1.3270934
-0.077485219 4.9178839 1.3323356
-0.078215457 4.9265008 1.3234526
-0.094058871 4.9321556 1.316582
-0.099273838 4.9359503 1.3254213
-0.11402044 4.9312482 1.3281634
-0.12180501 4.9211073 1.3285326
-0.11990237 4.9355297 1.3156269
-0.11904438 4.9245038 1.3224329
-0.13792658 4.9270859 1.3264381
-0.13985364 4.9222579 1.3203115
-0.15208212 4.9336009 1.3204448
-0.15906808 4.9310699 1.329324
-0.15493666 4.9195523 1.3239965
-0.17767553 4.9296756 1.322612
-0.1715747 4.9319086 1.3166832
-0.18273146 4.9332128 1.3207814
-0.19351873 4.923275 1.3194788
-0.19721131 4.9210505 1.3273371
-0.1940975 4.9267988 1.3179739
-0.20697808 4.9174747 1.3239881
-0.22598471 4.9227767 1.3215606
-0.22485761 4.9279466 1.3168274
-0.23485091 4.9241023 1.3208108
-0.23017113 4.9243722 1.3151619
-0.24687541 4.9175959 1.3319995
-0.24950804 4.9265161 1.3304045
-0.24804197 4.9115009 1.3191447
-0.267878 4.9196453 1.3259428
-0.27985507 4.9177556 1.3187813
-0.28119498 4.9298358 1.3225973
-0.27652001 4.9097605 1.3320265
-0.29427195 4.9176626 1.3269466
-0.2967566 4.9224215 1.3183525
-0.31525716 4.9187093 1.3303683
-0.31940603 4.9251418 1.3159574
-0.32671663 4.9157901 1.3308257
-0.33562157 4.9147525 1.3310475
-0.33578575 4.9207263 1.3197923
-0.34915113 4.9215698 1.3270347
-0.34967744 4.9079199 1.326755
-0.34638697 4.9057903 1.326807
-0.35366657 4.9127545 1.3151777
-0.36602533 4.9240785 1.3287331
-0.36697748 4.9037457 1.319012
-0.37591317 4.9061074 1.3161688
-0.37925887 4.9080014 1.3244287
-0.38773561 4.9078326 1.3321152
-0.3959896 4.914341 1.3262495
-0.41549811 4.9143252 1.3217107
-0.40776336 4.9006228 1.324015
-0.42030743 4.9170504 1.3246925
-0.43279865 4.9130373 1.3128462
-0.43691844 4.9035029 1.3128455
-0.44748193 4.8998542 1.3130435
-0.44776556 4.9141064 1.3161441
-0.45089158 4.9118481 1.3216891
-0.46575683 4.9079485 1.3276255
-0.4729346 4.9026289 1.3206397
-0.48597717 4.904634 1.3142171
-0.48355752 4.9012065 1.3146808
-0.49883264 4.9120669 1.3321702
-0.49342924 4.8972669 1.3262542
-0.49987119 4.9051776 1.3314215
-0.50631285 4.9093533 1.3135667
-0.51255554 4.900074 1.3306003
-0.51569659 4.894496 1.3260217
-0.53329146 4.9008794 1.3181988
-0.544949 4.9069104 1.3257215
-0.54359114 4.906724 1.3159239
-0.54865491 4.8957806 1.3233832
-0.55325389 4.8963847 1.3223965
-0.56036228 4.889214 1.3273129
-0.57338554 4.9024224 1.3208524
1.8211999 -4.974647 1.1951799
1.8298311 -4.9598827 1.1947155
1.8248477 -4.9706569 1.1934443
1.8288687 -4.9563012 1.187337
1.8367342 -4.9501719 1.1893135
1.8414 -4.9532657 1.197271
1.8555356 -4.9499073 1.1850454
1.8614172 -4.9581642 1.2014793
1.8782905 -4.9538932 1.1848451
1.8813365 -4.9511538 1.1954795
1.8167969 -4.7743478 1.2659966
1.8159989 -4.7728958 1.2638489
1.8347329 -4.7633662 1.2483938
1.8321919 -4.7567511 1.2647516
1.8435403 -4.7492023 1.2646858
1.8568616 -4.763916 1.2589639
1.8581369 -4.7514186 1.2540282
1.8671829 -4.7399607 1.2582541
1.8726592 -4.7385473 1.2641593
1.8814976 -4.7410021 1.2502033
1.8115989 -4.5720038 1.3183984
1.8164303 -4.5665588 1.3206133
1.8191106 -4.5690365 1.3298216
1.8263322 -4.5607076 1.3230997
1.829908 -4.5476799 1.3213719
1.8534145 -4.5479765 1.3223665
1.8511956 -4.5536399 1.313285
1.8640374 -4.5568962 1.3130785
1.8611014 -4.5413113 1.3316938
1.864067 -4.543519 1.3252534
1.873073 -4.5328851 1.3292023
1.8853649 -4.5437984 1.3160735
1.8998681 -4.5384059 1.3179358
1.9035759 -4.5321636 1.3255863
1.9005582 -4.5287132 1.3237153
1.915809 -4.5281205 1.3189895
1.9120507 -4.5161076 1.3260329
1.9192072 -4.5176096 1.3272439
1.9261535 -4.5284014 1.3214552
1.9317113 -4.5225773 1.330865
1.930825 -4.5140934 1.3283057
1.9538838 -4.5196605 1.3322217
1.94381 -4.5170631 1.3189095
1.9555948 -4.4970932 1.3292104
1.9750262 -4.5064731 1.3203236
1.9725831 -4.5069299 1.3293824
1.98541 -4.4974689 1.3277986
1.9852766 -4.4871721 1.3220478
1.9863503 -4.4962463 1.3228319
2.0016317 -4.4860754 1.3267576
2.0063188 -4.4831004 1.3164757
2.0084426 -4.4833722 1.3179271
2.0144787 -4.4800191 1.3192668
2.0271986 -4.47118 1.3178588
2.0302155 -4.469203 1.3243448
2.0443416 -4.4759603 1.3276387
2.0475228 -4.4761767 1.3176495
2.0491159 -4.4628096 1.315204
2.0449545 -4.4546475 1.3209232
2.061573 -4.4574795 1.3140428
2.0621133 -4.4618955 1.3273584
2.0723677 -4.4504547 1.3176143
2.0840695 -4.4592419 1.3284264
2.077107 -4.4415679 1.3252724
2.0887325 -4.4471331 1.321281
2.1068397 -4.4448237 1.3277097
2.1082368 -4.4455814 1.3310901
2.1196408 -4.4309893 1.3249972
2.1085951 -4.4267983 1.3242171
2.1232646 -4.4322252 1.3177475
2.1310494 -4.4233432 1.3239952
2.1321456 -4.4304347 1.3188084
2.1434937 -4.4320483 1.321951
2.1456497 -4.4268441 1.3198746
2.1446476 -4.4162307 1.3293316
2.1596498 -4.4137216 1.318188
2.1610765 -4.4160228 1.3233681
2.1658795 -4.4131236 1.320213
2.1845853 -4.4074697 1.3183125
2.182507 -4.393342 1.3280407
2.1939547 -4.3976207 1.3236976
2.1916459 -4.3869901 1.3293008
2.2041461 -4.3911948 1.3303196
2.1997845 -4.3994222 1.3135632
2.2133422 -4.3948264 1.3244325
2.2163527 -4.3813987 1.3148142
2.2282152 -4.3727107 1.3198894
2.2252536 -4.3853822 1.32485
2.2391324 -4.3655057 1.3324418
2.2511065 -4.3738613 1.3311304
2.2528045 -4.3769188 1.3225007
2.2501547 -4.3684301 1.3214532
2.273104 -4.3535824 1.3131444
2.2770677 -4.3492332 1.3135428
2.2842705 -4.3574586 1.3154631
2.2823381 -4.3488011 1.3277283
2.2907832 -4.3544059 1.3255903
2.2842989 -4.3490911 1.3276812
2.3027706 -4.3360133 1.3265405
2.3088298 -4.3370719 1.3139273
2.3135731 -4.3425393 1.3151313
2.3096824 -4.3367586 1.3216901
2.3247395 -4.3341265 1.319954
2.3314834 -4.3336239 1.3194165
2.3386214 -4.3320079 1.3274943
2.3476748 -4.3184085 1.3210611
2.348989 -4.3224444 1.3258471
2.3481605 -4.3190403 1.3127627
2.3694184 -4.3032355 1.3295628
2.3695309 -4.3074389 1.3221022
2.3770256 -4.3129606 1.3259639
2.38572 -4.3084316 1.3323873
2.3809683 -4.2948985 1.3182156
2.3944759 -4.3006701 1.3213104
2.3874416 -4.2853489 1.3227772
2.4084804 -4.2870135 1.3145906
2.4030812 -4.2933998 1.3191068
2.4224634 -4.2866449 1.3237576
2.4287565 -4.2846584 1.3209351
2.4318449 -4.2685809 1.3306231
2.4274681 -4.2710257 1.3314943
2.4469481 -4.2707887 1.3135915
2.452847 -4.2613111 1.3259101
2.4445691 -4.264329 1.3291366
2.4593816 -4.2603798 1.3243562
2.4556561 -4.2613859 1.3145742
2.4637389 -4.2537804 1.315061
2.4763334 -4.2527771 1.3189489
2.4735737 -4.2514606 1.3214613
2.4879868 -4.2330313 1.3166809
2.4920833 -4.2449489 1.3260769
2.497046 -4.223352 1.332323
2.5041008 -4.221818 1.3246514
2.5034695 -4.2345176 1.3305582
2.5060599 -4.2183561 1.3170022
2.523865 -4.2118673 1.3190199
2.5318832 -4.223238 1.3252146
2.5403833 -4.2079511 1.3289754
2.5327663 -4.2013559 1.3306075
2.5476568 -4.2062755 1.3272157
2.5577619 -4.1930218 1.3284444
2.5572581 -4.2007232 1.3277996
2.5629957 -4.187283 1.3252108
2.5610564 -4.2003818 1.3264358
2.5650189 -4.196794 1.320327
2.5754206 -4.1812997 1.3172039
2.5878348 -4.183681 1.3191991
2.5864389 -4.1834507 1.3129615
2.5887985 -4.1767211 1.3297911
2.6127853 -4.1609802 1.3181648
2.6133752 -4.1610079 1.3162482
2.6151888 -4.1674085 1.3230777
2.6163526 -4.1539359 1.3197869
2.6349223 -4.1482615 1.3198282
2.634712 -4.1444788 1.31988
2.6483877 -4.1561432 1.331841
2.6389351 -4.1412377 1.3178275
2.6514728 -4.1335673 1.3204426
2.6577675 -4.1293712 1.3261772
2.6608868 -4.127017 1.3240352
2.6723747 -4.1298971 1.3182392
2.6819408 -4.1167831 1.3224086
2.6783311 -4.1283188 1.3164083
2.6914256 -4.1270933 1.3324319
2.6845558 -4.1118822 1.3285799
2.6977329 -4.1087937 1.3293966
2.7028656 -4.1009512 1.321444
2.7139795 -4.1063595 1.317479
2.7077034 -4.0912561 1.3140192
2.7271564 -4.0988116 1.3292142
2.7244623 -4.1006517 1.3178219
2.7359669 -4.0786939 1.3158288
2.7316356 -4.0861077 1.3185767
2.7412987 -4.086185 1.3188187
2.74698 -4.0788836 1.3305324
2.7488041 -4.0641522 1.3215872
2.7514393 -4.0700302 1.3167291
2.7661169 -4.0705299 1.3226992
2.7768238 -4.0630374 1.3200014
2.7840657 -4.0618176 1.3259686
2.7864971 -4.0490122 1.326308
2.7975309 -4.0504179 1.32481
2.786566 -4.0418649 1.3320944
2.7983439 -4.0493536 1.3154904
2.810358 -4.03686 1.3223681
2.8140807 -4.0282369 1.3201499
2.8088524 -4.0226669 1.3282186
2.8187609 -4.0281029 1.3319441
2.8346338 -4.0285101 1.3193109
2.8278034 -4.0273476 1.3240384
2.8469348 -4.0094213 1.317704
2.8464 -4.0061231 1.326089
2.8443618 -3.9994459 1.3191441
2.8496022 -4.0066423 1.32082
2.8582332 -4.0074697 1.3310903
2.8737364 -3.9902151 1.3260773
2.8670158 -3.9838231 1.3227199
2.8683584 -3.9931521 1.3300041
2.8934207 -3.9722319 1.312951
2.8858442 -3.9837604 1.313122
2.9029896 -3.9817703 1.3272735
2.8937953 -3.9659221 1.3207694
2.9129801 -3.9577141 1.3169807
2.9052143 -3.9698617 1.3220264
2.9191189 -3.9589689 1.3222672
2.8112645 -3.8057179 1.3806832
2.8102024 -3.797364 1.3965929
2.8257773 -3.793242 1.3791727
2.8286309 -3.7896261 1.3786644
2.8344259 -3.77915 1.3826114
2.8403864 -3.7770858 1.3845243
2.840493 -3.769768 1.3782536
2.8540897 -3.7688117 1.3961514
2.8438926 -3.7611616 1.3778542
2.8587353 -3.765142 1.3863947
2.8538134 -3.7704828 1.3916832
2.8623965 -3.7621963 1.3814116
2.8668835 -3.7436407 1.3913407
2.8739448 -3.7475314 1.3809569
2.8804922 -3.7509217 1.3971132
2.890981 -3.7336402 1.39139
2.9033773 -3.7415359 1.3890337
2.909497 -3.7411127 1.3836752
2.9135091 -3.7361593 1.3820012
2.9192183 -3.7216301 1.3923734
2.9134624 -3.7172842 1.3934246
2.9129891 -3.7096112 1.3787742
2.9222388 -3.7227013 1.3786844
2.8245516 -3.5652099 1.4556067
2.8131275 -3.5553381 1.4602237
2.8178542 -3.5602117 1.4581047
2.8368523 -3.5579171 1.4440656
2.8334885 -3.5347252 1.4464179
2.8447607 -3.5327384 1.4496846
2.8543532 -3.5302536 1.4434341
2.8543127 -3.5387304 1.4574759
2.8553176 -3.5328805 1.45513
2.8616669 -3.5229752 1.4556257
2.8679204 -3.5190859 1.4607725
2.8661854 -3.5115957 1.4518715
2.8690619 -3.504349 1.4541708
2.8698137 -3.5030684 1.4548314
2.8765209 -3.5101111 1.4547435
2.8855748 -3.5108347 1.4526955
2.8978896 -3.4869137 1.4491781
2.9039485 -3.4879756 1.4532229
2.9040434 -3.4929695 1.4591497
2.901787 -3.4765458 1.451007
2.9200203 -3.4787941 1.442772
2.9233952 -3.4676976 1.4580386
2.9178631 -3.4786394 1.4565566
2.9346247 -3.4737384 1.4523525
2.8102624 -3.3222678 1.5220023
2.8073835 -3.3115776 1.522007
2.8224509 -3.3134649 1.5219098
2.8339953 -3.3141806 1.5167209
2.8295791 -3.2996826 1.5225016
2.8310845 -3.2923169 1.5206628
2.8444414 -3.2915878 1.5125256
2.8495579 -3.2923486 1.5114278
2.8499353 -3.2835002 1.5153245
2.8488252 -3.2827432 1.5200515
2.8635056 -3.2894173 1.5074056
2.8629248 -3.2836101 1.5215361
2.8623431 -3.26737 1.5098587
2.8616586 -3.264214 1.5135388
2.8757796 -3.2700975 1.5077835
2.8756757 -3.2590938 1.5254542
2.8937275 -3.2593453 1.5199076
2.8836362 -3.2590873 1.5096476
2.8924417 -3.243053 1.5242767
2.9051383 -3.2527246 1.5156974
2.9025562 -3.2323065 1.5164717
2.9073226 -3.2370536 1.5190749
2.906214 -3.2269616 1.5139335
2.9134221 -3.2221279 1.5079569
2.9243047 -3.227741 1.512099
2.9294264 -3.2180204 1.5232409
2.9322133 -3.2148051 1.510121
2.9294477 -3.2062323 1.5132422
2.8090727 -3.0735037 1.5732801
2.8104696 -3.0726924 1.5747114
2.8232818 -3.0589979 1.5725253
2.8168628 -3.0650661 1.5815498
2.8330414 -3.0567665 1.5766177
2.8240733 -3.0457766 1.5724647
2.8291228 -3.0484159 1.5786374
2.838309 -3.0304401 1.5904632
2.8386316 -3.0341785 1.5814306
2.8458288 -3.0251775 1.5768909
2.8561418 -3.0336971 1.5810978
2.8615816 -3.0251083 1.5822012
2.8684471 -3.0279906 1.5730786
2.8731208 -3.0215693 1.5739613
2.8668134 -3.0032415 1.5792109
2.8755686 -3.0181484 1.591512
2.8801651 -3.0122669 1.5772291
2.8909285 -3.0014548 1.5769718
2.8935122 -2.9945703 1.5890197
2.887058 -2.9847331 1.5861063
3.0272584 -3.1251078 1.5257995
3.0406499 -3.1278071 1.5150127
3.0351393 -3.1078689 1.5173638
3.0405002 -3.1074789 1.52215
3.0467377 -3.1176126 1.5212722
3.0582187 -3.1032026 1.5214895
3.061995 -3.1084013 1.5235846
3.0514827 -3.0870364 1.5124823
3.0607071 -3.0872819 1.5242492
3.0619731 -3.0781708 1.521832
3.0803201 -3.0842421 1.5112987
3.0832596 -3.0812893 1.5138497
3.0754066 -3.0682089 1.5121168
3.0898983 -3.0741239 1.5265454
3.0891705 -3.058151 1.5266055
3.0875587 -3.0550408 1.5168351
3.1061583 -3.0524926 1.5176193
3.106847 -3.0447888 1.5155156
3.0964274 -3.0521872 1.5089073
3.1177688 -3.0426395 1.5271456
3.1166866 -3.0390592 1.5150415
3.1250653 -3.0368478 1.5216132
3.115989 -3.026792 1.5169823
3.1251736 -3.0265408 1.5221477
3.1287808 -3.0313079 1.5189909
3.132442 -3.0219712 1.5146432
3.1463265 -3.0183134 1.5085367
3.1409893 -3.0182393 1.5258212
3.1535423 -3.012851 1.5113884
3.1594808 -2.9903822 1.5221784
3.1636515 -2.9932497 1.5122179
3.1557119 -2.9919868 1.5201318
3.3114944 -3.1143324 1.4488534
3.305665 -3.121248 1.4583831
3.3049948 -3.1087866 1.4587911
3.3211613 -3.0968878 1.4441755
3.3129737 -3.0953221 1.4488513
3.3186731 -3.1033053 1.4492291
3.3216505 -3.0829411 1.4506168
3.3301888 -3.0808377 1.4500896
3.3295105 -3.078757 1.4423048
3.3388653 -3.0688033 1.4513873
3.3361275 -3.0644042 1.4440124
3.3470101 -3.0701911 1.4451228
3.3474159 -3.0609987 1.4540895
3.3482234 -3.0599835 1.4503437
3.3544087 -3.0514934 1.4435464
3.3652632 -3.041635 1.4441426
3.3764892 -3.0331235 1.4604735
3.3690963 -3.0403919 1.4542723
3.3811693 -3.0326502 1.4455101
3.3854511 -3.0198591 1.4620546
3.378809 -3.0141044 1.4583443
3.3847852 -3.021759 1.4441878
3.3918653 -3.0132935 1.454558
3.4079053 -3.0082996 1.461272
3.4001932 -3.0013931 1.4517986
3.4056768 -3.0078983 1.4475002
3.4117503 -2.987437 1.4470239
3.4141479 -2.9986219 1.4545836
3.5724814 -3.1068099 1.3802783
3.5600765 -3.1099277 1.3789626
3.5642092 -3.1039207 1.3786885
3.5846248 -3.096164 1.3860404
3.5908766 -3.0855472 1.397133
3.587492 -3.0831037 1.3884885
3.5908144 -3.0725789 1.3820138
3.584656 -3.0807707 1.3842913
3.5941925 -3.0670829 1.3822814
3.6032457 -3.0751841 1.3843323
3.5998516 -3.051276 1.3782648
3.6070509 -3.0641203 1.384115
3.6129272 -3.057173 1.3910013
3.6185222 -3.0541441 1.3806677
3.6314623 -3.0491903 1.3959678
3.635488 -3.0319412 1.3887228
3.630862 -3.0356829 1.3870074
3.6397543 -3.0298889 1.3920991
3.6309168 -3.0188575 1.385872
3.6400626 -3.0230651 1.3865305
3.6512523 -3.0149517 1.3860784
3.6563673 -3.0039177 1.3877567
3.6673253 -2.9912782 1.3913515
3.6651626 -2.997308 1.3929383
3.8189051 -3.1146519 1.3295306
3.821862 -3.1120188 1.3232287
3.8175666 -3.0982544 1.3281305
3.8315482 -3.0998335 1.3137655
3.8306141 -3.0944784 1.3253655
3.8434455 -3.0841994 1.3276854
3.8369279 -3.0869453 1.31304
3.8499508 -3.0687838 1.3243446
3.8446443 -3.0638645 1.3231984
3.8429253 -3.0653012 1.3309265
3.8627856 -3.0634277 1.3162061
3.8641362 -3.0429435 1.3188068
3.8591776 -3.0510938 1.3298538
3.859113 -3.0495939 1.3139976
3.864676 -3.0333526 1.3181663
3.8818314 -3.0285964 1.3272775
3.881299 -3.0146673 1.3283007
3.8861139 -3.012017 1.3221372
3.8822258 -3.0189676 1.3155386
3.8971839 -3.011924 1.3221431
3.8998628 -3.0092998 1.3252547
3.9078133 -2.9895966 1.3234783
3.8983572 -2.9991167 1.3281733
4.0699639 -3.1081984 1.2640784
4.0558438 -3.1005168 1.2557402
4.0658846 -3.0999217 1.266762
4.0650291 -3.0840929 1.266311
4.0851889 -3.087676 1.2631024
4.0791769 -3.0793662 1.2675292
4.0865583 -3.0603096 1.25358
4.1005363 -3.0627787 1.2568295
4.0976181 -3.0614934 1.2543505
4.0929155 -3.053853 1.2569141
4.1128998 -3.0488107 1.2601929
4.1136866 -3.0422227 1.2654945
4.1061273 -3.0299206 1.2657266
4.1095819 -3.0227926 1.2561166
4.1125779 -3.0198157 1.257247
4.1323566 -3.0071535 1.2610043
4.1365547 -3.0114048 1.2581294
4.1267948 -3.0059648 1.2670906
4.1402769 -3.0077219 1.2516365
4.1512718 -2.9984529 1.2581159
4.2980051 -3.1044688 1.1990194
4.294981 -3.0827324 1.1856977
4.3172503 -3.0928025 1.1989536
4.3197432 -3.0836568 1.1936071
4.3126183 -3.0757463 1.1855009
4.3266149 -3.0722799 1.1843145
4.3243604 -3.0688305 1.1931287
4.3392224 -3.0593474 1.2016286
4.3430371 -3.0405815 1.2026112
4.3313899 -3.0350111 1.1870971
4.3462133 -3.0400729 1.1908015
4.346837 -3.0324883 1.1902505
4.3541307 -3.0269558 1.1936319
4.3546724 -3.0232432 1.2001554
4.3498583 -3.0109603 1.1885796
4.3569303 -3.0089769 1.1944546
4.3628068 -2.9935358 1.1977572
4.3774891 -2.9875116 1.1845152
4.5365868 -3.0890653 1.1191002
4.540884 -3.0991893 1.1181214
4.5496583 -3.0787437 1.126035
4.5421281 -3.0819197 1.1354816
4.5540385 -3.0620389 1.1244034
4.5493212 -3.0658453 1.1309744
4.5511184 -3.0586853 1.123759
4.5613308 -3.0486655 1.1324519
4.5574098 -3.0369723 1.1305048
4.5767822 -3.0347912 1.1284949
4.5829039 -3.0336225 1.1259604
4.5885072 -3.0324833 1.1269854
4.5931225 -3.0268884 1.1221335
4.5856423 -3.0131328 1.1277771
4.5876002 -3.0117676 1.126967
4.5984712 -2.9994118 1.1360099
4.5959039 -2.9895415 1.1258662
4.7645345 -3.0971236 1.0544842
4.7635708 -3.0892799 1.0533426
4.7806511 -3.0863199 1.0680176
4.775712 -3.0814855 1.0574909
4.7882295 -3.0552862 1.0617269
4.7817621 -3.048701 1.0651759
4.7904339 -3.0538163 1.0559921
4.78474 -3.0411854 1.0617794
4.7982264 -3.0418866 1.0535227
4.8007464 -3.0293489 1.0687305
4.8131132 -3.0307875 1.0533354
4.8189945 -3.0175099 1.0591453
4.8237247 -3.0114632 1.0612704
4.8231206 -3.0146568 1.0615789
4.8319807 -2.9896257 1.0614299
4.825067 -2.9953446 1.0612031
4.982285 -3.0764923 1.0042868
4.9897571 -3.0875475 0.99823207
5.0030069 -3.0693712 1.0047954
5.0079899 -3.0729203 0.99720973
5.0081716 -3.0483389 1.0014927
5.012948 -3.0421033 0.99235487
5.0235243 -3.0353549 1.0025594
5.0162163 -3.0334189 1.00286
5.0292068 -3.0268221 1.0014753
5.0220389 -3.0313284 1.0076495
5.0346341 -3.023489 1.0057747
5.0352087 -3.0124874 1.0058863
5.0497189 -2.9925365 0.99720997
5.0507827 -2.9918931 0.99801421
5.2068634 -3.0920155 0.9315182
5.2247396 -3.0747392 0.92918116
5.2134676 -3.0711474 0.92660421
5.2323904 -3.0591152 0.93896908
5.2316031 -3.0583341 0.93093061
5.2294211 -3.0489533 0.93137985
5.2334032 -3.0311992 0.93265671
5.2355003 -3.0370827 0.93791735
5.2576985 -3.0326588 0.93610513
5.2512107 -3.0113642 0.92790687
5.2655168 -3.0007844 0.92921704
5.2582216 -2.9966364 0.94053525
5.2685795 -2.9880581 0.92817068
5.4406905 -3.0785441 0.87565243
5.4409466 -3.0801663 0.8615343
5.4331536 -3.0682378 0.86950469
5.4457994 -3.0565839 0.86793089
5.4597111 -3.04708 0.87316918
5.4588728 -3.0396144 0.87552112
5.456212 -3.0428631 0.87185156
5.465342 -3.0360224 0.87143987
5.4757719 -3.0206826 0.86784822
5.477509 -3.0191805 0.86550099
5.4668713 -3.0140936 0.85902721
5.4886098 -2.9930565 0.86335617
5.4762197 -2.9841082 0.87203276
5.6578031 -3.0775001 0.79987055
5.6519146 -3.0703216 0.79452467
5.6712537 -3.0482447 0.80904549
5.6729331 -3.0530818 0.81271249
5.6709323 -3.033031 0.79560935
5.668509 -3.0267823 0.80622929
5.6824827 -3.0230176 0.81072843
5.694098 -3.014101 0.81268591
5.6792288 -3.0076458 0.8080458
5.6886773 -2.9977701 0.80471379
5.7067909 -2.9965031 0.81104457
8.5272436 0.37027919 0.14211281
8.5432777 0.37776423 0.15207602
8.5308943 0.38460612 0.14515035
8.5402699 0.40499467 0.15945221
8.5279369 0.40653586 0.15978035
8.5352755 0.42165488 0.15410455
8.5287285 0.42890608 0.15143269
8.5407438 0.45693484 0.14646763
8.5328465 0.4575924 0.15843001
8.5260792 0.47780159 0.1416004
8.3488331 0.47983652 0.21804428
8.3487406 0.48873347 0.20654742
8.3385954 0.50577044 0.20998864
8.3415079 0.5127219 0.22191529
8.338707 0.52789718 0.22348081
8.3362169 0.53098321 0.2082638
8.3280354 0.54811144 0.20839725
8.3371658 0.55786145 0.22465956
8.3413143 0.56033653 0.20968039
8.33741 0.57668334 0.22301227
8.1474762 0.57255965 0.28058895
8.1396503 0.58196551 0.27190942
8.1403122 0.60189974 0.26863584
8.1443996 0.60543656 0.28068364
8.1403971 0.6268779 0.27627763
8.1379452 0.62655181 0.28332958
8.1402597 0.63878256 0.27588263
8.1426916 0.66089815 0.28655964
8.1413708 0.66793358 0.2880868
8.1450539 0.67185122 0.27433687
8.1420536 0.69582134 0.27806908
7.9441361 0.69663429 0.3433708
7.9465027 0.69479418 0.33372915
7.9455805 0.71787363 0.33626914
7.9366908 0.71779925 0.34889638
7.9433789 0.73613662 0.34984472
7.9371042 0.73766857 0.35167217
7.943367 0.7625286 0.34426484
7.9402909 0.76697898 0.33254382
7.9387269 0.77604061 0.33339256
7.9433975 0.78304523 0.34686497
7.9317846 0.80204839 0.34593752
7.941937 0.80437046 0.35208994
7.7537718 0.80744201 0.4137643
7.7368188 0.82163918 0.40076575
7.7524776 0.82352352 0.4150286
7.7490702 0.8401469 0.39974886
7.7474747 0.84406245 0.39825606
7.7384572 0.84594703 0.41014203
7.7377033 0.86732781 0.40001941
7.737783 0.87445492 0.40583271
7.7313204 0.89106047 0.39958197
7.7439151 0.89892501 0.40458769
7.7426472 0.90840685 0.40089679
7.7395172 0.92204595 0.40060395
7.7233739 0.93246961 0.41139793
7.5331993 0.91790915 0.47154054
7.5360408 0.92536294 0.46128309
7.537375 0.94496971 0.46211752
7.53058 0.94500834 0.47354171
7.533648 0.96632761 0.46130356
7.5425148 0.96239984 0.47488323
7.525116 0.97229761 0.46554145
7.5327082 1.0021733 0.47489721
7.5365949 1.0101801 0.46710956
7.520174 1.0033194 0.47896478
7.534533 1.015854 0.46819746
7.5254979 1.0325043 0.4743697
7.5261912 1.0517772 0.4696362
7.3398685 1.0194285 0.53795183
7.332828 1.037334 0.5335567
7.3335347 1.0454389 0.5347268
7.3278069 1.0574925 0.53528959
7.3327231 1.0785004 0.53522485
7.3269806 1.0847716 0.53266555
7.333436 1.0960135 0.5327462
7.3317327 1.10302 0.53486407
7.3192482 1.1024123 0.52313668
7.312921 1.1239331 0.54018885
7.3218465 1.1284168 0.54053122
7.3155518 1.1472875 0.52855194
7.3248477 1.1483071 0.53445244
7.3153 1.1650552 0.54218334
7.1190114 1.138393 0.60422224
7.1299748 1.1570089 0.59879225
7.1183648 1.1635795 0.59438729
7.1268215 1.1699601 0.58677387
7.1173825 1.1853836 0.5883401
7.1162024 1.1960219 0.60121655
7.1120605 1.1971415 0.58836836
7.1082468 1.2135371 0.60418463
7.1124401 1.2208134 0.5908165
7.1025205 1.2401403 0.60399461
7.1203175 1.2320808 0.59010804
7.1166182 1.2565701 0.60490143
7.1074753 1.2710488 0.59633189
7.113914 1.2755976 0.60421175
7.1127248 1.2723343 0.59758592
7.0930882 1.2895317 0.59167165
6.9197378 1.2702686 0.66047382
6.9201493 1.2825731 0.65222818
6.9163637 1.2807534 0.66133904
6.8991971 1.29071 0.65985936
6.9151945 1.3001736 0.66040522
6.8972921 1.3076622 0.65552759
6.8941698 1.3277457 0.65521854
6.9024644 1.336019 0.66955048
6.8986254 1.3448688 0.65071386
6.8881469 1.3558611 0.65917164
6.8917408 1.3618724 0.652439
6.9006023 1.3700547 0.66837353
6.9012051 1.3762242 0.65285337
6.8909049 1.3870125 0.65765744
6.8791122 1.3955979 0.66229534
6.8878512 1.4080938 0.66479445
6.7059283 1.3811612 0.7212733
6.6895075 1.3822359 0.73288208
6.6874061 1.4013247 0.72372085
6.6864543 1.4118018 0.71593487
6.6939478 1.4277531 0.72454578
6.6946955 1.4344592 0.73172718
6.6913643 1.4436748 0.71546882
6.6925006 1.4445106 0.72039229
6.6784277 1.4554869 0.72429734
6.6889796 1.4571495 0.73109716
6.6820173 1.4846208 0.71949828
6.8531642 1.5185726 0.6561166
6.8506851 1.5316336 0.66601139
6.8590317 1.5456895 0.65705246
6.8595786 1.5491979 0.65471661
6.8487234 1.5554262 0.64976156
6.8450365 1.5803092 0.66469949
6.8450775 1.5883262 0.65115333
6.8500285 1.5842816 0.65926641
6.8388715 1.5928133 0.65972793
6.8345013 1.6164201 0.65834939
6.8385186 1.62806 0.66063333
6.8426619 1.6393415 0.66641414
6.8366871 1.6411035 0.6566897
6.8417397 1.6455599 0.66091555
6.8244433 1.6613216 0.66181463
6.8221784 1.6755701 0.6580444
6.8348384 1.672047 0.65274221
6.8139386 1.6956757 0.65384948
6.8211389 1.6903613 0.65394539
6.8087873 1.7029034 0.6681084
6.8150439 1.7217033 0.66437459
7.0074539 1.7732919 0.5988676
7.0016842 1.7750378 0.58911335
6.986176 1.7841166 0.59428835
6.9948797 1.7981925 0.60570109
6.9844694 1.8123105 0.60184157
6.9902749 1.8214083 0.60494137
6.9907651 1.8319397 0.60215557
6.9723487 1.8320181 0.60454422
6.9740148 1.8421047 0.58996737
6.96983 1.860821 0.60468596
6.9818978 1.8704511 0.59510058
6.9719667 1.8767756 0.59750664
6.9722672 1.8900701 0.59924054
6.9577293 1.8945603 0.60530275
6.9545908 1.9111456 0.59573895
6.9675794 1.9160554 0.60553235
6.963654 1.9239876 0.59612036
6.9569292 1.9360496 0.59705323
6.9525795 1.9523371 0.5983429
6.9536395 1.9670132 0.58862263
7.1319203 2.0278516 0.53528851
7.1180143 2.0301061 0.54208106
7.1265006 2.0352752 0.53245276
7.1167068 2.0485337 0.53760296
7.1129613 2.0612946 0.52963036
7.1196384 2.0696981 0.53686327
7.1160951 2.076844 0.54232782
7.1031256 2.0799468 0.53015739
7.1110754 2.1013947 0.52458137
7.1003008 2.106611 0.52399218
7.0997925 2.1103144 0.52304822
7.089457 2.1229193 0.53442228
7.0859008 2.146832 0.54103279
7.0927019 2.1437862 0.53097326
7.0846395 2.1598439 0.52374989
7.0885911 2.1654418 0.53500938
7.0797615 2.1703727 0.52349818
7.0763826 2.185225 0.525177
7.2619839 2.2470093 0.47487402
7.2607522 2.2651124 0.46340412
7.2589178 2.2656388 0.46573722
7.256125 2.2787759 0.470779
7.2446923 2.2913158 0.46984127
7.2398562 2.3136301 0.47596964
7.2449465 2.3108695 0.46827203
7.2427988 2.3150611 0.47629249
7.2318969 2.3334377 0.45936853
7.2294698 2.351464 0.46742564
