# .PCD v0.7 - Point Cloud Data file format
VERSION 0.7
FIELDS x y z
SIZE 4 4 4
TYPE F F F
COUNT 1 1 1
WIDTH 1509
HEIGHT 1
VIEWPOINT 0 0 0 1 0 0 0
POINTS 1509
DATA ascii
-2.7448528 -3.3976486 1.6078371
-2.733592 -3.4033952 1.6057533
-2.7321382 -3.4023709 1.6069363
-2.7229204 -3.4127519 1.6183064
-2.7196181 -3.4097133 1.6122981
-2.7223547 -3.4208295 1.604139
-2.7108769 -3.4231761 1.6147281
-2.715476 -3.4298711 1.6221249
-2.7126591 -3.4186599 1.6117311
-2.7074907 -3.4342318 1.605178
-2.6905348 -3.4267118 1.615134
-2.7008061 -3.4326849 1.6031883
-2.693156 -3.4419632 1.6161051
-2.6843174 -3.4467883 1.6224725
-2.6841035 -3.4530807 1.6157037
-2.6698925 -3.4468849 1.6216366
-2.6638355 -3.4539919 1.6090345
-2.6671844 -3.4704835 1.6135424
-2.663131 -3.4689496 1.6130595
-2.6494663 -3.4670432 1.6207963
-2.6423495 -3.4729826 1.6198379
-2.6452715 -3.4740005 1.6166843
-2.6401341 -3.4721801 1.6080238
-2.7570889 -3.6382663 1.5575603
-2.7524447 -3.6371942 1.5453048
-2.7345641 -3.6467385 1.542996
-2.7307448 -3.6550589 1.5573248
-2.7395225 -3.6515658 1.5588994
-2.7237868 -3.6488628 1.5457389
-2.7285287 -3.6573434 1.5582088
-2.7055287 -3.6635609 1.5484564
-2.7034817 -3.6575592 1.5613967
-2.7045829 -3.671284 1.5598611
-2.6943395 -3.6718187 1.5478638
-2.6938117 -3.6727955 1.5607895
-2.6855342 -3.6809835 1.548014
-2.6795602 -3.6904495 1.5507545
-2.6792521 -3.6937957 1.5608172
-2.6773641 -3.6865144 1.557405
-2.6686316 -3.6890881 1.5493268
-2.6674237 -3.6937802 1.5588388
-2.6559632 -3.7015493 1.5581532
-2.651557 -3.7155488 1.5475359
-2.6486814 -3.7044392 1.5601703
-2.6377978 -3.7179413 1.5556068
-2.7442772 -3.8836997 1.4858848
-2.7330163 -3.8733995 1.4912037
-2.7390091 -3.8879464 1.4969338
-2.7349339 -3.8857656 1.4936956
-2.7342658 -3.900018 1.4916265
-2.7216704 -3.8982332 1.4886012
-2.7195578 -3.8901639 1.4815352
-2.7181253 -3.9028699 1.4841911
-2.707305 -3.8978865 1.4816706
-2.7038448 -3.9072111 1.4893546
-2.6849427 -3.9179182 1.4903684
-2.6950152 -3.9227829 1.4855285
-2.6797633 -3.9190648 1.4899802
-2.6787763 -3.9167013 1.5004435
-2.6610219 -3.9191048 1.5004778
-2.6653316 -3.9343531 1.4861125
-2.6526616 -3.9329343 1.4836246
-2.647052 -3.9355342 1.4922312
-2.6587815 -3.9527698 1.4896141
-2.6530261 -3.9520068 1.4814577
-2.7454941 -4.1162162 1.4256294
-2.7308095 -4.1177101 1.4294487
-2.7409594 -4.1094294 1.4207482
-2.7266524 -4.1256437 1.438166
-2.7218766 -4.129591 1.4369272
-2.7170613 -4.1233411 1.4241794
-2.7066057 -4.1299186 1.436582
-2.698633 -4.1363897 1.4301087
-2.7020483 -4.140099 1.4301159
-2.6880753 -4.1435661 1.4345948
-2.6822536 -4.1391072 1.4369724
-2.6715124 -4.145709 1.4216969
-2.6769466 -4.1482115 1.4385349
-2.6710761 -4.1621623 1.4229833
-2.6677825 -4.1570983 1.4273008
-2.6657226 -4.1729856 1.421677
-2.6564052 -4.1641889 1.4332762
-2.65468 -4.1731963 1.4221965
-2.7413213 -4.3324203 1.3704498
-2.725827 -4.3425822 1.3797548
-2.7258487 -4.3527145 1.3772866
-2.7234871 -4.3579035 1.3719766
-2.7163959 -4.3543296 1.3679165
-2.7124612 -4.3506937 1.3736494
-2.704073 -4.3695774 1.3681819
-2.6913619 -4.37222 1.3705549
-2.6842692 -4.3713689 1.3654441
-2.6855724 -4.3746214 1.375037
-2.6779497 -4.3684516 1.370128
-2.6813259 -4.3728514 1.3788944
-2.6753922 -4.3833423 1.361357
-2.6519213 -4.3775468 1.3624507
-2.6537549 -4.3907399 1.3709298
-2.6396439 -4.3860841 1.3668482
-2.6397946 -4.3991313 1.3676775
-2.7434554 -4.5689549 1.3089077
-2.7264621 -4.574532 1.3155094
-2.7145741 -4.5675187 1.3026273
-2.713088 -4.5789943 1.2996757
-2.7165055 -4.5799632 1.3160763
-2.7111514 -4.58112 1.3057294
-2.7033293 -4.5849333 1.3049128
-2.6944082 -4.5967126 1.3146293
-2.6770029 -4.6005187 1.3127191
-2.6836739 -4.5906181 1.3014712
-2.6695104 -4.6124787 1.307492
-2.6733687 -4.6037273 1.3117641
-2.6506202 -4.6094742 1.3068693
-2.6607487 -4.6201277 1.3143097
-2.6538236 -4.6205955 1.3045832
-2.6304927 -4.6221118 1.3174928
-2.6375034 -4.6222143 1.3103731
-2.6253257 -4.6198087 1.3152488
-2.6234264 -4.6264157 1.3000847
-2.6034319 -4.6461177 1.318578
-2.6146805 -4.6380854 1.318959
-2.5999031 -4.6403451 1.3118304
-2.6008484 -4.646296 1.3026848
-2.5866835 -4.6488194 1.306607
-2.5850732 -4.6508679 1.3137733
-2.5731843 -4.6560402 1.3031261
-2.5683808 -4.6546831 1.3160708
-2.5706918 -4.667614 1.315106
-2.5481222 -4.6651154 1.3112097
-2.5407119 -4.6690979 1.3112783
-2.5348029 -4.6708093 1.3030374
-2.5285084 -4.6842294 1.3161852
-2.5293372 -4.6850853 1.307022
-2.5193069 -4.6782718 1.3189657
-2.5053494 -4.6963491 1.3124825
-2.5042205 -4.6890435 1.3044394
-2.4937341 -4.703445 1.3013567
-2.490298 -4.7066736 1.3089374
-2.4878218 -4.7138538 1.3026019
-2.4892371 -4.7001491 1.3158597
-2.4705787 -4.707067 1.3109728
-2.4601567 -4.7142258 1.3162237
-2.4565818 -4.7087541 1.3041674
-2.4621654 -4.7197976 1.3024638
-2.4558005 -4.7234349 1.306213
-2.435914 -4.7324986 1.3007892
-2.4440658 -4.7376366 1.3044755
-2.4352956 -4.725904 1.3084359
-2.4189398 -4.738265 1.30871
-2.4089148 -4.7386169 1.3061728
-2.4056273 -4.7468901 1.3001933
-2.407222 -4.7513261 1.310521
-2.4035611 -4.7587771 1.3097771
-2.3919518 -4.7584062 1.3014368
-2.3820415 -4.7582698 1.3128979
-2.3683772 -4.7648511 1.3187242
-2.360132 -4.7661924 1.3028325
-2.368196 -4.7653775 1.3020842
-2.3522949 -4.7748251 1.3123759
-2.3561151 -4.7808709 1.3057082
-2.342468 -4.770257 1.3141497
-2.3347957 -4.7878704 1.3015287
-2.336791 -4.7884598 1.304821
-2.319526 -4.7840819 1.3118392
-2.3105965 -4.7964401 1.3023398
-2.3102014 -4.8017855 1.3095956
-2.3039753 -4.8055415 1.3188369
-2.2936368 -4.8040218 1.312211
-2.2840419 -4.8132663 1.299446
-2.2841506 -4.8130007 1.3039345
-2.2709229 -4.8057623 1.3023267
-2.2692492 -4.8175306 1.3063862
-2.2601919 -4.8179779 1.3131273
-2.2478378 -4.827848 1.3075081
-2.2484612 -4.8154812 1.3127831
-2.2385798 -4.8294163 1.3159559
-2.2414379 -4.8238268 1.3186064
-2.2350504 -4.8346052 1.3060008
-2.2152846 -4.8424993 1.3073657
-2.2082794 -4.8372169 1.3122017
-2.2167811 -4.8454266 1.3074723
-2.2068865 -4.8386865 1.3141615
-2.1929281 -4.849618 1.3035809
-2.1922243 -4.8549275 1.3062983
-2.1771352 -4.8475986 1.3045411
-2.1767671 -4.8571291 1.311998
-2.1732218 -4.8562641 1.3081838
-2.1670218 -4.855762 1.3167217
-2.1534233 -4.8622489 1.3004863
-2.1384554 -4.8684893 1.3126446
-2.1386473 -4.8699956 1.299695
-2.1235647 -4.8683748 1.316578
-2.1217885 -4.8795676 1.3056129
-2.1105888 -4.8768334 1.3124115
-2.1166675 -4.8857903 1.3096035
-2.1044993 -4.8811641 1.3003193
-2.1048701 -4.8997817 1.3149453
-2.089051 -4.898993 1.3131089
-2.0846899 -4.8914027 1.3078119
-2.07656 -4.895647 1.2992907
-2.076268 -4.9068894 1.3122705
-2.0689213 -4.9098592 1.3098686
-2.0646875 -4.9178672 1.2992618
-2.0514147 -4.9014935 1.314368
-2.0513396 -4.9180222 1.3034862
-2.0340683 -4.9092088 1.3001901
-2.0260773 -4.9275975 1.301226
-2.0234563 -4.9170022 1.3059913
-2.0226676 -4.928885 1.3012773
-2.0071721 -4.9194808 1.3152401
-2.0001938 -4.9366322 1.3008726
-2.000232 -4.9332881 1.3064373
-1.9826679 -4.9325657 1.3068864
-1.9757068 -4.9454303 1.3065919
-1.9736357 -4.9450827 1.3126421
-1.9624423 -4.9543314 1.3103693
-1.9545413 -4.9424605 1.3125618
-1.9456005 -4.954844 1.3081942
-1.9518906 -4.9533186 1.3147788
-1.942891 -4.9631805 1.3135927
-1.9399246 -4.9529514 1.3180709
-1.9313221 -4.9696517 1.3086991
-1.9171511 -4.9556832 1.3028461
-1.9225271 -4.9616528 1.3069154
-1.9081939 -4.9724536 1.3141091
-1.9078068 -4.9789677 1.3148215
-1.8896888 -4.9844913 1.3101624
-1.8893746 -4.967989 1.3158679
-1.8734243 -4.9846945 1.3058374
-1.8708856 -4.9793229 1.3086736
-1.8695295 -4.9779105 1.3044577
-1.8636914 -4.9948249 1.3062509
-5.5380011 -3.0005898 1.0542197
-5.5221834 -2.9945366 1.0505534
-5.5157404 -3.0105443 1.0613831
-5.5171695 -3.018841 1.0605277
-5.5189672 -3.019083 1.0482618
-5.5186534 -3.0351238 1.0474036
-5.5042772 -3.0504403 1.0511684
-5.4982896 -3.0572927 1.0461497
-5.5029078 -3.0608814 1.0482587
-5.4941888 -3.0682156 1.0568652
-5.4862518 -3.0735843 1.061146
-5.4892302 -3.0873299 1.0592128
-5.309525 -2.9849813 1.1083469
-5.3054495 -3.0019028 1.1175568
-5.3022194 -3.0048494 1.1142396
-5.291245 -3.0117204 1.1025906
-5.3011184 -3.0284641 1.1033281
-5.2872162 -3.0234797 1.1049103
-5.2783227 -3.0473835 1.110595
-5.2873096 -3.0468497 1.1166307
-5.2876801 -3.0626705 1.1049769
-5.2837591 -3.0657721 1.1072507
-5.2617612 -3.0598209 1.1056836
-5.2699671 -3.073987 1.1146238
-5.2689528 -3.0891259 1.1080405
-5.0866375 -3.0006433 1.1613516
-5.0807047 -3.0028882 1.1659822
-5.0940237 -3.0154653 1.1630025
-5.0857511 -3.0233932 1.1635184
-5.071784 -3.0245631 1.1719618
-5.0717711 -3.0303686 1.1719719
-5.0634022 -3.0365283 1.176262
-5.0727491 -3.044976 1.1738789
-5.0636535 -3.0459256 1.1646994
-5.045608 -3.0501673 1.1677445
-5.0541358 -3.0610182 1.1697695
-5.0486913 -3.0701275 1.1766715
-5.0386057 -3.0767574 1.1781123
-5.0314903 -3.0793259 1.1787351
-4.8611655 -2.992089 1.2246405
-4.8652105 -2.9889023 1.2324904
-4.8692365 -3.0015879 1.2212728
-4.8489628 -3.0078714 1.228694
-4.8510623 -3.0093205 1.2222459
-4.8423324 -3.0169947 1.2386307
-4.8505473 -3.0374773 1.2312329
-4.8367281 -3.0368054 1.2217885
-4.8359976 -3.0503485 1.2327707
-4.833817 -3.0610862 1.2282348
-4.8310037 -3.0685027 1.2379211
-4.8216238 -3.0641544 1.2376053
-4.8243847 -3.0680313 1.2314095
-4.8183541 -3.0758433 1.2257297
-4.8048925 -3.0899737 1.2253945
-4.7978702 -3.0996015 1.2241731
-4.6340451 -2.9980135 1.2885991
-4.6381617 -3.0102975 1.2811247
-4.6317134 -3.0061073 1.2868772
-4.634274 -3.0240021 1.2886559
-4.6213613 -3.0233588 1.2897763
-4.618753 -3.0376208 1.2819971
-4.6164517 -3.0389376 1.2970871
-4.6203375 -3.0385273 1.291105
-4.6098938 -3.0489683 1.2977269
-4.5997763 -3.0567091 1.281449
-4.5908713 -3.0653644 1.2898127
-4.5968795 -3.0623322 1.2923845
-4.590353 -3.0770571 1.2856327
-4.5780654 -3.0785565 1.2874665
-4.5839901 -3.0913665 1.2964178
-4.5687852 -3.0858009 1.2975758
-4.4232984 -2.9949496 1.3432277
-4.4209151 -2.9992392 1.3563985
-4.4045048 -2.9973445 1.3455787
-4.401464 -3.0096009 1.3534631
-4.3946929 -3.0172298 1.3391308
-4.399549 -3.0151534 1.3542633
-4.381825 -3.0308459 1.3410978
-4.3908439 -3.0385551 1.3528537
-4.3780208 -3.0365021 1.3582141
-4.3762379 -3.0435665 1.355549
-4.3732882 -3.0475276 1.3429122
-4.3640265 -3.0532954 1.3521619
-4.3615851 -3.0668519 1.3494762
-4.3699555 -3.0815749 1.3406985
-4.3504329 -3.0737429 1.3504503
-4.3452339 -3.0749917 1.3484311
-4.3448939 -3.0827496 1.3568658
-4.3377109 -3.1037683 1.343732
-4.1834559 -2.9850509 1.3981341
-4.1792951 -2.9997559 1.4122522
-4.1777911 -2.9957788 1.408532
-4.1689157 -3.0068159 1.4051609
-4.170783 -3.019697 1.4143442
-4.1553273 -3.0252411 1.4149091
-4.1486411 -3.0355644 1.409405
-4.1521955 -3.0249991 1.4087449
-4.1577606 -3.0384126 1.4064138
-4.1548829 -3.04897 1.4091445
-4.1451306 -3.0449162 1.405504
-4.140317 -3.06089 1.4130105
-4.141377 -3.059557 1.41034
-4.1261492 -3.0735536 1.4024723
-4.114284 -3.0736303 1.407558
-4.1132278 -3.0824728 1.4129276
-4.1115985 -3.0888586 1.4137965
-4.1154656 -3.0830362 1.4110473
-4.0999842 -3.0870245 1.4006953
-4.1068263 -3.0923889 1.4055904
-3.9387863 -2.9968071 1.4596864
-3.9466834 -2.9959252 1.4642529
-3.9470665 -3.0003815 1.4759394
-3.9301124 -3.0138962 1.45941
-3.9210181 -3.0198405 1.4685786
-3.9268305 -3.0290308 1.4746734
-3.9272654 -3.0209024 1.4601451
-3.9068239 -3.0209591 1.457196
-3.9091239 -3.0298615 1.4760092
-3.9017684 -3.0499403 1.4752026
-3.9095101 -3.038465 1.46026
-3.9024966 -3.0590761 1.4717195
-3.8909087 -3.0642667 1.464237
-3.8876269 -3.0567079 1.4687481
-3.8808668 -3.0642669 1.4728175
-3.8849306 -3.0818584 1.4731932
-3.8828919 -3.0841124 1.4671881
-3.8753738 -3.0901601 1.4666109
-3.8707974 -3.0827506 1.4626104
-3.8674004 -3.092236 1.4640039
-3.8648024 -3.0937212 1.4623398
-3.8571391 -3.1124587 1.4655257
-3.7094834 -2.9838071 1.5283242
-3.6979959 -2.9960217 1.5247824
-3.7019904 -3.0057652 1.5191245
-3.6819081 -3.0038688 1.5213124
-3.681443 -3.0042377 1.5266773
-3.6869755 -3.0214 1.5314196
-3.6730781 -3.0183051 1.5289905
-3.6831741 -3.0361392 1.5224888
-3.6718695 -3.0357099 1.5199089
-3.6622217 -3.0319588 1.5239925
-3.6693809 -3.033427 1.5220481
-3.6530826 -3.0475967 1.5330703
-3.6603191 -3.049957 1.5195246
-3.6532063 -3.0564384 1.5330451
-3.6438985 -3.0666652 1.5313604
-3.6492188 -3.0666423 1.5176713
-3.6297896 -3.0769472 1.5322294
-3.6327822 -3.0815802 1.5340993
-3.6222696 -3.0791476 1.5215389
-3.6143296 -3.0913138 1.5178636
-3.622299 -3.0948927 1.5178486
-3.612206 -3.1064341 1.5287862
-3.6110835 -3.1094801 1.5224798
-3.6034997 -3.109688 1.5348024
-3.6023884 -3.1048706 1.5220028
-3.4587097 -2.984478 1.5936729
-3.4531331 -2.9939358 1.5807822
-3.4529915 -3.01069 1.5883452
-3.4309733 -3.0012424 1.5834211
-3.4415088 -3.0081728 1.5914052
-3.4357128 -3.0273974 1.5808787
-3.4299252 -3.0208611 1.583873
-3.4131932 -3.0375414 1.5888777
-3.4227612 -3.0309839 1.5787245
-3.4199996 -3.0476682 1.5784328
-3.4100311 -3.0492792 1.5783871
-3.4077339 -3.0495055 1.5937144
-3.3983209 -3.0537894 1.577112
-3.4013383 -3.0602605 1.594776
-3.3892732 -3.0614798 1.5903229
-3.3892171 -3.0611224 1.591452
-3.3796811 -3.0792029 1.5839187
-3.3871441 -3.0847843 1.5845006
-3.369596 -3.0841727 1.5764291
-3.3621943 -3.0850456 1.5764568
-3.3750777 -3.0802023 1.579651
-3.3680003 -3.0973213 1.5873903
-3.3655889 -3.1092932 1.5956116
-3.3597736 -3.1085548 1.5821211
-3.3562875 -3.1000307 1.592165
-3.3372478 -3.115736 1.587314
-3.3370728 -3.1261978 1.589124
-3.2050002 -2.9978895 1.6494365
-3.1919458 -3.0066762 1.6357419
-3.1869566 -2.9923735 1.6458982
-3.1819336 -3.0152733 1.6456152
-3.1737101 -3.0154214 1.6529248
-3.1777411 -3.0174901 1.6529678
-3.1735444 -3.0180824 1.6384487
-3.1628323 -3.0195336 1.6371473
-3.16207 -3.0262971 1.6448276
-3.1661525 -3.0372438 1.6467273
-3.1484187 -3.039907 1.6510782
-3.1497147 -3.033705 1.651117
-3.1446989 -3.0467088 1.6499269
-3.1495209 -3.0588911 1.6502995
-3.1346195 -3.0470574 1.6549811
-3.1324027 -3.0634687 1.6420447
-3.1301365 -3.0599034 1.6529611
-3.1223834 -3.0698524 1.6468656
-3.1159256 -3.0632713 1.6384395
-3.1217813 -3.0850112 1.6434941
-3.1057312 -3.0732625 1.6503068
-3.105324 -3.0870605 1.6477371
-3.1048722 -3.0800998 1.6365731
-3.1056044 -3.1022246 1.6376303
-3.0859578 -3.0937173 1.6549187
-3.0816236 -3.1072686 1.6401873
-3.0902197 -3.1028354 1.6534067
-3.0878935 -3.1149368 1.6410569
-3.0716567 -3.1248744 1.6396618
-3.0638399 -3.1249673 1.6408942
-3.0709624 -3.1333163 1.638237
-2.9376209 -2.9891276 1.7054856
-2.9206791 -3.0050616 1.7046959
-2.9148955 -3.006052 1.7061253
-2.9080493 -3.0117264 1.7003993
-2.903909 -3.0174034 1.7054533
-2.9144943 -3.0160191 1.6992656
-2.9118545 -3.0166571 1.7052959
-2.9015589 -3.025413 1.7057018
-2.8926525 -3.0307128 1.7103218
-2.8825083 -3.0275021 1.7108936
-2.8950155 -3.0289679 1.7035062
-2.8796167 -3.0376799 1.7042873
-2.8850019 -3.0448024 1.7081742
-2.8689523 -3.049278 1.7104772
-2.878623 -3.0538185 1.7111881
-2.863234 -3.0531549 1.6973619
-2.8540273 -3.0540681 1.7069706
-2.8587844 -3.068908 1.7118902
-2.8631301 -3.0590692 1.6955712
-2.8428504 -3.0633197 1.7065179
-2.8419931 -3.0643167 1.7000482
-2.8485177 -3.0741599 1.7089097
-2.8342557 -3.0736387 1.6946862
-2.8361013 -3.0813239 1.7000185
-2.835638 -3.0829413 1.7048359
-2.8144586 -3.0934372 1.7143362
-2.8270998 -3.0989993 1.7069367
-2.810127 -3.0935969 1.7087052
-2.8082287 -3.0968244 1.7043138
-2.8026443 -3.1040616 1.6996675
-2.8061073 -3.114737 1.6980135
-2.7960348 -3.1162379 1.7105002
-2.7970951 -3.1277828 1.7074857
-2.7923737 -3.1254852 1.7007574
-2.7823143 -3.1270418 1.6963772
-2.7874322 -3.131742 1.7054603
-2.6564229 -2.9904268 1.7722833
-2.6396286 -2.9992809 1.7691076
-2.6410611 -2.9905767 1.7666458
-2.7529011 -3.1441474 1.7015334
-2.7631605 -3.1421933 1.7090232
-2.7550681 -3.1545227 1.6989353
-2.7544837 -3.1522739 1.7012192
-2.7369087 -3.1696701 1.7097117
-2.7460563 -3.1613796 1.7005521
-2.739579 -3.1625845 1.710591
-2.7240131 -3.183785 1.7028525
-2.7209673 -3.17238 1.7099695
-2.7210915 -3.1866012 1.7094947
-2.7236726 -3.1908402 1.7026614
-2.7120121 -3.1897433 1.7016499
-2.7128568 -3.1849642 1.712171
-2.703784 -3.2040164 1.7087964
-2.6924219 -3.2099142 1.711875
-2.6925621 -3.2093863 1.7070873
-2.6818566 -3.2068124 1.7049317
-2.681107 -3.2131097 1.7054067
-2.6880906 -3.2208035 1.7011111
-2.6679518 -3.2130692 1.7064127
-2.6682827 -3.2323689 1.7112874
-2.6754417 -3.2244666 1.7010649
-2.6636071 -3.2218723 1.6994213
-2.6612461 -3.2346742 1.7025189
-2.6622546 -3.2405879 1.703506
-2.6601791 -3.2511218 1.708802
-2.6428862 -3.2554345 1.7004465
-2.6477437 -3.2434876 1.7095621
-2.7524371 -3.4113498 1.6353977
-2.7608976 -3.4154112 1.6520717
-2.7440512 -3.4043093 1.6531956
-2.7423248 -3.4048767 1.6459652
-2.7308154 -3.4181254 1.6450659
-2.7409444 -3.4135342 1.6350955
-2.7279701 -3.4344776 1.6429354
-2.7140036 -3.4378769 1.6439596
-2.7147357 -3.42852 1.6443827
-2.7238181 -3.4285622 1.6404579
-2.7037797 -3.4375288 1.6407
-2.6985519 -3.4397151 1.6407409
-2.6966448 -3.44982 1.6357377
-2.6936085 -3.4429684 1.6540139
-2.6977975 -3.4493828 1.6428819
-2.6828804 -3.4507067 1.6401749
-2.6779284 -3.4638426 1.6403515
-2.6851313 -3.4678037 1.6409491
-2.6713047 -3.4772935 1.6547173
-2.6570499 -3.4806676 1.6522503
-2.6667147 -3.4688108 1.6446167
-2.656132 -3.4765387 1.6385902
-2.6455035 -3.4871776 1.6462458
-2.6398728 -3.4796033 1.644533
-2.6359608 -3.5010467 1.640179
-2.7582419 -3.644845 1.5789193
-2.7479455 -3.6562526 1.5876316
-2.7374673 -3.6597068 1.576136
-2.7263861 -3.6541839 1.5788966
-2.7215312 -3.6592603 1.5820227
-2.7191381 -3.6588612 1.5807382
-2.7243731 -3.672744 1.5954515
-2.7156293 -3.6808684 1.5832449
-2.7192247 -3.6882374 1.5823249
-2.7045276 -3.6765747 1.5836668
-2.6941791 -3.6770122 1.5773475
-2.6857369 -3.6922569 1.5834728
-2.6885769 -3.7021325 1.5899891
-2.6829076 -3.7060409 1.5858662
-2.6744721 -3.7102141 1.5804977
-2.6829054 -3.6971192 1.5793521
-2.6726179 -3.71439 1.58814
-2.6676121 -3.7080524 1.5926126
-2.6548073 -3.7104511 1.5935185
-2.6629176 -3.7232993 1.589882
-2.6496809 -3.7309501 1.5895958
-2.6427581 -3.7353156 1.5778452
-2.7400351 -3.883584 1.5206442
-2.7402427 -3.8956034 1.5226489
-2.7445676 -3.9043598 1.5242394
-2.7342558 -3.9067268 1.5226762
-2.7250843 -3.9039893 1.5275868
-2.7271194 -3.9014339 1.522572
-2.7246768 -3.9112668 1.5188882
-2.7013228 -3.9144084 1.5260791
-2.7016001 -3.9095168 1.5293343
-2.7021582 -3.9229112 1.5319321
-2.6944618 -3.9284661 1.5258629
-2.6846128 -3.9196653 1.5316216
-2.6727538 -3.9406319 1.5324636
-2.6792991 -3.936734 1.5347706
-2.6674023 -3.9491172 1.5236398
-2.6705897 -3.9489939 1.5188812
-2.6587865 -3.9518917 1.5280989
-2.6506622 -3.9569039 1.5179765
-2.6553416 -3.9476676 1.5165397
-2.6367605 -3.964469 1.5254948
-2.7415111 -4.117979 1.4733255
-2.7461693 -4.1283569 1.4730761
-2.7250636 -4.1323709 1.4756235
-2.7231102 -4.1284304 1.4658245
-2.7188447 -4.1380982 1.4673899
-2.7057045 -4.1364641 1.4728189
-2.7173178 -4.1485429 1.4590826
-2.699708 -4.1580181 1.4640588
-2.6922152 -4.1576986 1.4619882
-2.6861541 -4.1643295 1.4668257
-2.6911323 -4.1553135 1.4607753
-2.6889267 -4.1567187 1.4681882
-2.666965 -4.1627874 1.4754206
-2.6624506 -4.172677 1.470419
-2.6677301 -4.1840811 1.459567
-2.651439 -4.1881299 1.4741583
-2.6497138 -4.1895819 1.4604722
-2.6417196 -4.1792197 1.4611042
-2.7506514 -4.3486981 1.4064922
-2.7395155 -4.3565311 1.4083742
-2.723537 -4.3551536 1.4030414
-2.7136033 -4.3573866 1.4000636
-2.7162516 -4.3634796 1.4147698
-2.7116621 -4.3708854 1.4033304
-2.7120688 -4.3694024 1.4042236
-2.7033224 -4.3774652 1.404796
-2.6999793 -4.3896456 1.4076363
-2.6903169 -4.3796792 1.4045503
-2.6800175 -4.3825898 1.4172218
-2.6649764 -4.4004483 1.4058976
-2.6680481 -4.3884172 1.3997797
-2.6564474 -4.3925467 1.4152492
-2.6478193 -4.4054236 1.4084375
-2.6444798 -4.399816 1.3980238
-2.6525745 -4.4207258 1.4128879
-2.7378159 -4.5829096 1.3441269
-2.7242057 -4.5841022 1.3463118
-2.7277498 -4.581758 1.3422321
-2.7143748 -4.5952458 1.3390024
-2.7083228 -4.5998282 1.3416662
-2.6935897 -4.5936236 1.3401047
-2.7049692 -4.6019654 1.3581487
-2.6808741 -4.6078305 1.3470417
-2.6835852 -4.6165133 1.3452599
-2.6767049 -4.6194525 1.3462777
-2.6749551 -4.6157556 1.3527175
-2.6626129 -4.6248498 1.3417931
-2.6480806 -4.6238952 1.3570321
-2.6576228 -4.6359773 1.3425943
-2.6503894 -4.6284251 1.3473755
-2.7350783 -4.7984848 1.2828054
-2.7265007 -4.8005614 1.2930259
-2.7198737 -4.8049755 1.2811559
-2.7043483 -4.8185391 1.284369
-2.7105994 -4.8116655 1.2883993
-2.6958272 -4.8294911 1.2798742
-2.6946104 -4.8214283 1.2859935
-2.6843123 -4.8252921 1.296797
-2.6787703 -4.8251624 1.2792391
-2.6676607 -4.8442688 1.292945
-2.6717646 -4.8399477 1.2862164
-2.6610851 -4.8337603 1.2812364
-2.6601801 -4.8476624 1.2956583
-2.6511397 -4.8527617 1.2803231
-2.6388812 -4.8508391 1.2956587
-2.622587 -4.8608775 1.2969564
-2.6348128 -4.8564372 1.2900953
-2.6209142 -4.8684416 1.2831392
-2.6162071 -4.8616529 1.2800723
-2.6090527 -4.8705082 1.281649
-2.5881872 -4.8702264 1.2912875
-2.5940454 -4.8860292 1.2908446
-2.5848784 -4.8876967 1.2802209
-2.5812845 -4.8870978 1.2882104
-2.5730207 -4.8810205 1.2818249
-2.5694165 -4.8854337 1.2890943
-2.5645094 -4.8888626 1.2844881
-2.5464582 -4.9051886 1.2915515
-2.5353584 -4.9036074 1.2890685
-2.5273204 -4.9016771 1.2813854
-2.5377009 -4.9056921 1.2976298
-2.5184376 -4.9223809 1.2817075
-2.5196126 -4.9167233 1.2877446
-2.5114062 -4.9142971 1.2979975
-2.4952056 -4.930438 1.2979354
-2.4853854 -4.92981 1.2970581
-2.488291 -4.9311161 1.2963401
-2.4757979 -4.9412165 1.2828752
-2.4762366 -4.9470677 1.2945608
-2.4591534 -4.9517369 1.2917364
-2.4697485 -4.9536471 1.288447
-2.4440944 -4.9431596 1.2920097
-2.4543576 -4.9607177 1.2847611
-2.4385791 -4.9569445 1.2834599
-2.432543 -4.9638515 1.2895294
-2.426564 -4.967823 1.279729
-2.4214578 -4.9615903 1.2921151
-2.4170647 -4.9697599 1.2978835
-2.4061317 -4.9652677 1.2812738
-2.4035087 -4.9705968 1.2834585
-2.3837054 -4.9734306 1.2871871
-2.3871865 -4.9775248 1.2848473
-2.3671005 -4.9788008 1.288384
-5.5524459 -2.9941497 1.0890253
-5.5380244 -3.0077736 1.1019405
-5.5305052 -3.0076678 1.0999142
-5.5253477 -3.0193608 1.0946381
-5.5245857 -3.0317125 1.0879211
-5.5215673 -3.0404422 1.0973705
-5.5247183 -3.0416336 1.0967377
-5.5184674 -3.0511215 1.0944601
-5.513257 -3.0459926 1.105298
-5.5028563 -3.0659842 1.0996079
-5.5117502 -3.0691872 1.089317
-5.5060387 -3.0821621 1.0931578
-5.3205571 -2.9979877 1.1628052
-5.3240662 -3.0064728 1.150553
-5.3128414 -2.9984217 1.1536871
-5.3083224 -3.0115891 1.1558238
-5.3143439 -3.032155 1.1644952
-5.3009882 -3.0307286 1.1513994
-5.3098993 -3.0283606 1.1511467
-5.3079624 -3.0398719 1.1586107
-5.2917051 -3.0445678 1.1505742
-5.2857285 -3.0678535 1.157259
-5.2959003 -3.0768137 1.1619742
-5.2743659 -3.0734746 1.145656
-5.2850733 -3.0831122 1.1648345
-5.107523 -2.9955966 1.2162362
-5.1130743 -2.9949419 1.216555
-5.1099439 -3.0051646 1.2057281
-5.0998998 -3.0085423 1.2046911
-5.0900979 -3.0142367 1.219559
-5.0928226 -3.0279384 1.217141
-5.0835733 -3.039938 1.2188414
-5.0876298 -3.0463951 1.21898
-5.0669608 -3.0556126 1.2098497
-5.0626006 -3.0598431 1.2184678
-5.0590515 -3.0559523 1.2051346
-5.0620418 -3.0618033 1.2195996
-5.0647035 -3.0687251 1.2109797
-5.0581822 -3.0898132 1.2061142
-4.8894997 -2.9852648 1.2806311
-4.8892674 -3.0074992 1.2706155
-4.8714437 -3.0047257 1.2757144
-4.8719101 -3.0102589 1.2814646
-4.8722286 -3.0193839 1.2650994
-4.8616676 -3.0284188 1.2716001
-4.8624792 -3.0381851 1.2690821
-4.8566141 -3.0352321 1.2677971
-4.8562751 -3.0392406 1.2666688
-4.8445463 -3.061038 1.2715245
-4.8376732 -3.061661 1.2679393
-4.8342252 -3.0662415 1.268952
-4.8407831 -3.077198 1.279565
-4.8222322 -3.0728295 1.2714654
-4.8179226 -3.0929978 1.2810557
-4.6689105 -2.9833815 1.326371
-4.6545906 -3.0020406 1.3307719
-4.6427798 -2.9990821 1.3249233
-4.6522446 -3.0000408 1.3218571
-4.6428289 -3.0135365 1.3237787
-4.6485481 -3.0244346 1.3318567
-4.6378436 -3.0361693 1.3221273
-4.6261172 -3.0387564 1.3282087
-4.6237688 -3.0470965 1.3254198
-4.6295114 -3.0554399 1.3292179
-4.6256542 -3.0601513 1.32593
-4.6144238 -3.0547304 1.3305012
-4.618783 -3.0616949 1.3245435
-4.6089826 -3.0823295 1.3241338
-4.6022387 -3.0777633 1.3367292
-4.5935645 -3.0831399 1.3249211
-4.5968032 -3.1020446 1.3278673
-4.4312057 -2.9862199 1.3926604
-4.4182243 -2.9993212 1.3776393
-4.4280233 -3.002425 1.380746
-4.4140158 -3.0059407 1.3856065
-4.4032874 -3.0225039 1.3823471
-4.407979 -3.0277135 1.3785766
-4.3986201 -3.0274189 1.3806185
-4.4096622 -3.0446854 1.3936677
-4.3881001 -3.0375917 1.3877757
-4.3983374 -3.0580597 1.389408
-4.3856201 -3.055819 1.3860432
-4.3860521 -3.0647881 1.3957727
-4.3814964 -3.0677557 1.3885884
-4.3738256 -3.0809238 1.3840724
-4.3612857 -3.0875804 1.3891714
-4.3719964 -3.0831544 1.3952327
-4.3664694 -3.0936034 1.3877552
-4.358892 -3.0993369 1.3891714
-4.202445 -2.9965644 1.4417865
-4.1878486 -2.9992671 1.4421312
-4.1916118 -3.013521 1.4508591
-4.1787319 -3.0124841 1.4367545
-4.1761141 -3.0111773 1.4458128
-4.1806722 -3.0264938 1.4478275
-4.1697383 -3.0335734 1.4493041
-4.173697 -3.0356753 1.4413192
-4.1715865 -3.0365698 1.4489919
-4.1569457 -3.0542154 1.4370315
-4.1608801 -3.0555627 1.4427426
-4.1501422 -3.0665035 1.4516219
-4.1390519 -3.0654056 1.4521122
-4.1392255 -3.075634 1.4394987
-4.1334953 -3.0674591 1.4540449
-4.1386986 -3.0880649 1.4391221
-4.1218796 -3.0819676 1.4429611
-4.1235757 -3.0840683 1.4505337
-4.1132483 -3.0883055 1.4430413
-4.1152406 -3.1021569 1.443727
-3.9565389 -2.9887035 1.506834
-3.9449255 -3.0040734 1.506861
-3.9444253 -3.0126324 1.4937915
-3.9434271 -3.0056529 1.4962933
-3.9350348 -3.0172391 1.512764
-3.9320884 -3.0183327 1.4944165
-3.924057 -3.0269194 1.5079479
-3.9321792 -3.0415223 1.5051545
-3.9327209 -3.0301261 1.5038934
-3.9207475 -3.0450583 1.4945446
-3.9080806 -3.0382793 1.5089041
-3.9102499 -3.0440779 1.493432
-3.9123845 -3.0535748 1.4949336
-3.9075811 -3.0662796 1.5089414
-3.9002683 -3.0748062 1.4968839
-3.8964772 -3.0846078 1.5092473
-3.8910258 -3.0906076 1.4985332
-3.8920355 -3.0889666 1.4987193
-3.8758311 -3.0921121 1.4957987
-3.8808801 -3.0875363 1.503437
-3.8752704 -3.0945537 1.5033396
-3.8752935 -3.1080081 1.5029229
-3.7217543 -2.9877367 1.5564336
-3.7159007 -3.0068727 1.5647556
-3.716032 -3.0029864 1.5700126
-3.7082138 -2.9996076 1.5709231
-3.7080247 -3.0150833 1.551283
-3.6985426 -3.0158825 1.5587273
-3.6888671 -3.0247984 1.5684633
-3.6821051 -3.023092 1.5682063
-3.6876974 -3.040112 1.5663569
-3.6733799 -3.0414994 1.5564723
-3.679472 -3.0427256 1.5521362
-3.6699972 -3.0422893 1.5538629
-3.6721933 -3.0461829 1.564669
-3.6691251 -3.0664637 1.5640413
-3.6651394 -3.0707681 1.5531188
-3.6607864 -3.0698106 1.5665728
-3.648982 -3.0834045 1.5562804
-3.6474347 -3.0744712 1.552858
-3.646137 -3.0953717 1.5575732
-3.6266818 -3.0862036 1.5660529
-3.637104 -3.0873835 1.558452
-3.6318552 -3.1033521 1.5564272
-3.6248727 -3.1057868 1.5556428
-3.6270769 -3.1094308 1.5597056
-3.4649835 -2.9883122 1.6225367
-3.4588983 -2.9919918 1.6134903
-3.4593527 -3.0081663 1.6159598
-3.4500926 -3.0070994 1.6124666
-3.444248 -3.0090482 1.6131707
-3.4536817 -3.0158625 1.6281348
-3.434629 -3.0174263 1.6270047
-3.4431703 -3.0180762 1.6149858
-3.4337296 -3.0360851 1.6256059
-3.4250667 -3.040647 1.6176496
-3.4323342 -3.0323896 1.6108117
-3.4147148 -3.0422356 1.6251476
-3.4261353 -3.0567307 1.6281563
-3.4150796 -3.0461674 1.6170734
-3.4075103 -3.053968 1.6288772
-3.3992302 -3.0554175 1.6186966
-3.3959794 -3.062036 1.6117758
-3.393852 -3.0814245 1.6290231
-3.3837368 -3.0756078 1.6130735
-3.3829951 -3.0853698 1.617368
-3.390203 -3.0866485 1.6147197
-3.3842423 -3.0945632 1.6270199
-3.383939 -3.0981605 1.6096132
-3.3606203 -3.0949707 1.6275519
-3.3683779 -3.1084871 1.6224663
-3.3643253 -3.1180055 1.6207016
-3.3504467 -3.108562 1.6170825
-3.3434823 -3.1212862 1.6188333
-3.1993442 -2.9975677 1.669104
-3.2112515 -3.0078506 1.6764079
-3.1988583 -3.0096569 1.6671735
-3.1891067 -3.0098245 1.6747586
-3.1870487 -3.0140178 1.6834745
-3.1823914 -3.0192275 1.6801023
-3.1797891 -3.0165367 1.6679298
-3.182266 -3.0341415 1.6709487
-3.1665015 -3.022223 1.6681151
-3.17435 -3.0277016 1.677255
-3.1604414 -3.03333 1.6841753
-3.1542068 -3.0350578 1.6853029
-3.1606619 -3.0485904 1.6691085
-3.1563456 -3.0565765 1.6772251
-3.1444378 -3.0667152 1.6856214
-3.1438081 -3.0564137 1.6732748
-3.1465442 -3.0677333 1.6680797
-3.1414468 -3.0657594 1.6697347
-3.1333244 -3.0722568 1.6677575
-3.1280293 -3.0708447 1.684745
-3.1135886 -3.0797718 1.6805412
-3.1122212 -3.0867188 1.6790408
-3.1097202 -3.0843816 1.6684331
-3.1034074 -3.1019945 1.6742587
-3.1089721 -3.0919726 1.674359
-3.1061342 -3.1055999 1.6691681
-3.0956371 -3.1062484 1.6770592
-3.0903287 -3.1060908 1.6713196
-3.0833592 -3.1221082 1.683472
-3.0783613 -3.1171341 1.6814201
-2.9420426 -2.9856541 1.732769
-2.9444394 -2.9933095 1.7435915
-2.9283307 -3.0027862 1.7411166
-2.9228241 -3.010278 1.7253879
-2.9314859 -3.0076685 1.7440344
-2.9200418 -3.0065618 1.7334008
-2.9137828 -3.0193038 1.7264599
-2.9196272 -3.01109 1.7440114
-2.9112053 -3.0202656 1.7298745
-2.9106255 -3.0288072 1.7450346
-2.9120917 -3.0397277 1.739617
-2.9001541 -3.037231 1.7306671
-2.8973885 -3.0428171 1.7363579
-2.8970923 -3.0470941 1.7386684
-2.8925188 -3.0442362 1.7276939
-2.8892934 -3.054143 1.741926
-2.8766959 -3.0620055 1.7275096
-2.8710337 -3.0599325 1.725395
-2.8678143 -3.0536635 1.738187
-2.8587263 -3.0710464 1.7265134
-2.8544724 -3.0741329 1.7279894
-2.8556309 -3.0695252 1.7360264
-2.8457334 -3.0864003 1.7425356
-2.8501394 -3.0872335 1.7288201
-2.8522296 -3.0877533 1.7420089
-2.8452888 -3.0893133 1.7293315
-2.84411 -3.1025469 1.7328261
-2.8373423 -3.0943954 1.7424222
-2.8326836 -3.107307 1.7423098
-2.8152275 -3.1154184 1.7288311
-2.8094392 -3.10357 1.7362761
-2.8221695 -3.1171789 1.7323338
-2.8068573 -3.1251953 1.7355146
-2.8050306 -3.1219285 1.7418549
-2.7969139 -3.1250675 1.7316618
-2.7956028 -3.1255872 1.7438892
-2.6596582 -2.9863043 1.7848082
-2.6677186 -2.9873598 1.7998962
-2.6461778 -3.008095 1.7860349
-2.6447442 -2.995718 1.7880183
-2.6367841 -3.0019023 1.7858003
-2.6413736 -3.005172 1.7939173
-2.7560041 -3.1615024 1.7400049
-2.7611437 -3.1565354 1.7312422
-2.7599375 -3.1678228 1.7432661
-2.7489192 -3.1621757 1.7386899
-2.7456682 -3.1722715 1.734359
-2.7394435 -3.1746156 1.7327025
-2.7381256 -3.1796117 1.7340345
-2.7306635 -3.1873724 1.7314616
-2.7212126 -3.1913767 1.7264167
-2.7339747 -3.1841791 1.7418083
-2.7186143 -3.1897221 1.7285823
-2.7192101 -3.2048247 1.7441937
-2.7085633 -3.2031467 1.7323819
-2.7058873 -3.2148812 1.7300754
-2.707782 -3.2078009 1.7415249
-2.6940026 -3.2189374 1.7344761
-2.7018743 -3.213203 1.7262704
-2.6884086 -3.2244589 1.7341372
-2.6775107 -3.2307217 1.7418268
-2.6716523 -3.2342093 1.7405347
-2.6703973 -3.2268047 1.7375141
-2.6623631 -3.2444699 1.7431992
-2.6587121 -3.2359669 1.7343643
-2.6668677 -3.2492721 1.7375906
-2.6573246 -3.2489617 1.7316865
-2.6563268 -3.2593663 1.7384291
-2.6423726 -3.2621429 1.7346828
-2.6366191 -3.255959 1.7434514
-2.7633719 -3.412219 1.6717706
-2.7618437 -3.4184735 1.6783109
-2.7416022 -3.4279933 1.6760074
-2.7443757 -3.434005 1.6797842
-2.7414587 -3.4208968 1.6758029
-2.7273715 -3.4404807 1.6822492
-2.7300525 -3.4350631 1.6727321
-2.7186325 -3.4331944 1.6765304
-2.7204642 -3.4419236 1.6812656
-2.706037 -3.4494562 1.6758918
-2.702836 -3.4479256 1.68679
-2.7133596 -3.4496422 1.6752963
-2.6973376 -3.4558978 1.6781384
-2.7036138 -3.4697132 1.6788179
-2.6861079 -3.4654033 1.6764479
-2.6925778 -3.4718029 1.6783295
-2.6725965 -3.4656858 1.6694577
-2.6821268 -3.4729562 1.6862768
-2.6678536 -3.486871 1.6781822
-2.6688402 -3.4911771 1.6863637
-2.6551952 -3.4971054 1.6798778
-2.6506469 -3.4983861 1.6754706
-2.6575871 -3.4884787 1.6685961
-2.6416798 -3.5096869 1.6716881
-2.645088 -3.4982338 1.6828648
-2.7459722 -3.6510422 1.6134593
-2.7496448 -3.6559432 1.6118832
-2.7421837 -3.6752346 1.6267915
-2.7378981 -3.6651182 1.6115324
-2.7417021 -3.6808589 1.6157086
-2.717319 -3.6878302 1.6176906
-2.7194164 -3.6751342 1.6221192
-2.7259157 -3.6942644 1.6201756
-2.7192843 -3.6823788 1.6207376
-2.7095556 -3.6987977 1.6164595
-2.7086449 -3.7058911 1.6160146
-2.6991832 -3.7017779 1.6145225
-2.6912928 -3.7153292 1.6175854
-2.6884887 -3.7097263 1.6146042
-2.6809382 -3.7130635 1.6197145
-2.6692064 -3.7171597 1.6216785
-2.6754875 -3.7285004 1.6201562
-2.6573346 -3.731493 1.6233144
-2.6611202 -3.733012 1.6221617
-2.6443386 -3.7299652 1.6283864
-2.65183 -3.7311761 1.6113063
-2.639761 -3.7480991 1.6221215
-2.7395387 -3.8987153 1.5652089
-2.7456698 -3.8954608 1.5556175
-2.7347772 -3.9098449 1.5664487
-2.7387686 -3.9176917 1.5569366
-2.7207909 -3.9170191 1.5598294
-2.7243299 -3.9233985 1.5634676
-2.7247057 -3.9187734 1.5693179
-2.7062287 -3.9225819 1.5619386
-2.7015219 -3.9391019 1.5570648
-2.6938896 -3.9287789 1.5589769
-2.695437 -3.9331045 1.5703793
-2.6959407 -3.9490159 1.5688845
-2.6860306 -3.9394941 1.5568463
-2.6852841 -3.959429 1.5607944
-2.6740444 -3.9468565 1.5692406
-2.6599069 -3.963299 1.5551252
-2.6621256 -3.9655981 1.5694451
-2.658489 -3.9549067 1.563759
-2.6422267 -3.9649999 1.5653474
-2.6508327 -3.9729581 1.5610462
-2.7434714 -4.1273909 1.4982479
-2.7385299 -4.1485577 1.5012609
-2.7350779 -4.1453266 1.4975595
-2.7236588 -4.1468673 1.4976796
-2.7282863 -4.1426907 1.4941207
-2.7244623 -4.1499047 1.4978603
-2.7147481 -4.1648707 1.5030338
-2.7107089 -4.1617393 1.5026242
-2.6923504 -4.1678886 1.4958388
-2.6923983 -4.1681933 1.5048051
-2.6767421 -4.1807408 1.502466
-2.6859281 -4.174129 1.5028021
-2.672096 -4.1898522 1.5102032
-2.6619599 -4.1799493 1.4998899
-2.6716986 -4.1804719 1.497571
-2.6649907 -4.1829734 1.5118476
-2.6545382 -4.2015691 1.4949596
-2.638907 -4.2019401 1.5049968
-2.7455904 -4.3718085 1.4547188
-2.7369175 -4.3656545 1.4458644
-2.7392731 -4.3696733 1.4482316
-2.7239623 -4.3687134 1.4409715
-2.7083101 -4.3797607 1.4417408
-2.7052515 -4.386517 1.4361576
-2.7125008 -4.3888621 1.4537886
-2.702064 -4.3903551 1.4526464
-2.697345 -4.3872566 1.436628
-2.6895089 -4.3943925 1.4439509
-2.6716304 -4.4121728 1.4471458
-2.6660736 -4.407383 1.4403325
-2.6693659 -4.4110565 1.4533292
-2.6702859 -4.4055324 1.4511065
-2.6584609 -4.4104748 1.4416484
-2.6458614 -4.4184823 1.4492372
-2.6388397 -4.4198685 1.4382755
-2.7322176 -4.6013622 1.391656
-2.7284672 -4.6000032 1.3898638
-2.7207301 -4.5969529 1.3847047
-2.7256646 -4.6021738 1.3855257
-2.7073987 -4.6079931 1.3948883
-2.695941 -4.6032653 1.3843209
-2.6914814 -4.6256227 1.3830119
-2.689239 -4.6223264 1.3804867
-2.6764495 -4.632606 1.3936714
-2.6760662 -4.6220455 1.3891786
-2.6666391 -4.6330132 1.3913023
-2.6658754 -4.6266522 1.378613
-2.6668987 -4.6389799 1.3927933
-2.6530759 -4.6426744 1.3855627
-2.638427 -4.6545396 1.3963139
-2.7289813 -4.807817 1.3376344
-2.7352943 -4.8167872 1.3383313
-2.7229111 -4.829967 1.326099
-2.7130477 -4.8368158 1.327352
-2.7099943 -4.8297443 1.3229219
-2.6914284 -4.8397136 1.3312707
-2.6907334 -4.835393 1.3297187
-2.6827226 -4.8385744 1.3195679
-2.6805263 -4.8544173 1.3294426
-2.6655552 -4.8421001 1.3311627
-2.6598277 -4.8522606 1.3297343
-2.6548235 -4.8554659 1.3231605
-2.6491175 -4.8530254 1.3272218
-2.6356382 -4.8674636 1.3282398
-2.6409009 -4.8655968 1.3201259
-2.6305888 -4.8719168 1.3258294
-2.6319225 -4.8843002 1.3196307
-2.6148031 -4.8754368 1.3340185
-2.6078293 -4.8911452 1.3363219
-2.6109757 -4.8786573 1.3346916
-2.5923972 -4.8872213 1.3266404
-2.5952418 -4.8975654 1.3391137
-2.584655 -4.8889933 1.3377483
-2.5700021 -4.8937373 1.3256555
-2.574326 -4.9105434 1.3391314
-2.5667586 -4.9038434 1.3299791
-2.553483 -4.9052868 1.3321258
-2.546401 -4.9164267 1.3268092
-2.5449262 -4.9274135 1.329447
-2.5411429 -4.9283724 1.3282269
-2.5189853 -4.9175835 1.3220874
-2.5248737 -4.9364753 1.3292382
-2.5182838 -4.9316211 1.3285865
-2.5130546 -4.9389601 1.3268067
-2.4999132 -4.9374738 1.3318264
-2.4932911 -4.9352765 1.3271432
-2.4958162 -4.9466648 1.3246032
-2.4761899 -4.9578371 1.3345007
-2.4818754 -4.9544053 1.3369792
-2.4649179 -4.9540668 1.3220568
-2.4491758 -4.9584513 1.3214717
-2.4595685 -4.9556103 1.3255339
-2.4428058 -4.9730701 1.3379796
-2.4466896 -4.9721966 1.3266058
-2.4323487 -4.9850826 1.3202281
-2.4329834 -4.9782515 1.319548
-2.4182963 -4.9808564 1.3309704
-2.4061446 -4.9907498 1.3347015
-2.4040909 -4.9932489 1.3253355
-5.5611391 -2.9867086 1.1353886
-5.568604 -2.9911339 1.1442376
-5.5615902 -3.0093727 1.1401591
-5.5500789 -3.0208178 1.1453239
-5.5540333 -3.0223584 1.1383268
-5.5334516 -3.0335953 1.143147
-5.5313616 -3.0456839 1.1514217
-5.5396619 -3.0477643 1.1415222
-5.5280857 -3.0455594 1.1531535
-5.5312204 -3.0659957 1.1444192
-5.5242085 -3.0615706 1.1403567
-5.5183516 -3.0688024 1.1396471
-5.3362951 -2.9994168 1.2050221
-5.345777 -2.9963059 1.2101685
-5.3300838 -3.0013738 1.2015353
-5.3413773 -3.0100951 1.2094203
-5.3278403 -3.020973 1.1929657
-5.3260179 -3.0244076 1.2021741
-5.314085 -3.0405338 1.2013243
-5.3105097 -3.0440736 1.2077695
-5.315659 -3.0448906 1.2063651
-5.3048601 -3.0641506 1.2054483
-5.2947602 -3.0730045 1.2078241
-5.295826 -3.0755305 1.2007844
-5.2917347 -3.0865641 1.1961448
-5.1306567 -2.9962747 1.2667962
-5.1274281 -2.9932663 1.2574754
-5.1206446 -3.0126679 1.2521697
-5.1046424 -3.004379 1.2581822
-5.1094799 -3.016768 1.2480932
-5.107862 -3.0185695 1.2646195
-5.1076388 -3.0338457 1.249312
-5.0883226 -3.0433064 1.2525712
-5.0866208 -3.0581269 1.2607185
-5.091948 -3.0531607 1.2652404
-5.0819054 -3.0570412 1.2506264
-5.0777521 -3.0618832 1.266186
-5.0629091 -3.084141 1.2495031
-5.0733624 -3.0746069 1.2482626
-4.8941078 -2.9940839 1.3183309
-4.8887577 -2.995991 1.317189
-4.8868713 -3.001915 1.3079064
-4.8802829 -3.0127726 1.3162928
-4.8904257 -3.0261881 1.3169824
-4.8724122 -3.0292013 1.309756
-4.8698664 -3.0264513 1.3057611
-4.8619256 -3.0438375 1.3040302
-4.8584156 -3.0506806 1.3071409
-4.8715792 -3.0522864 1.3068799
-4.8659735 -3.0626421 1.3141832
-4.8468404 -3.0718367 1.3064328
-4.8488398 -3.063344 1.3196059
-4.8401127 -3.0724716 1.3087629
-4.8429894 -3.0959601 1.31134
-4.8451672 -3.0856624 1.3177338
-4.8345613 -3.0970562 1.3137013
-4.8279414 -3.1047559 1.3191005
-4.8230433 -3.1132014 1.3044685
-4.8150244 -3.1190763 1.3150369
-4.8072577 -3.1236203 1.3220495
-4.8121777 -3.133316 1.3066616
-4.8048391 -3.1493051 1.3065543
-4.804318 -3.1408703 1.3041016
-4.6343889 -3.0541513 1.3614868
-4.642262 -3.0591826 1.3793893
-4.623733 -3.0579405 1.3726619
-4.6292267 -3.07442 1.3649927
-4.6293125 -3.0703516 1.3756298
-4.6240215 -3.0826252 1.3671378
-4.6081529 -3.0915012 1.3608413
-4.6052623 -3.0896766 1.3715826
-4.4386978 -2.9976447 1.4296126
-4.4314346 -2.9965243 1.4262481
-4.4266152 -3.0101237 1.4308437
-4.4209528 -3.015866 1.4168931
-4.4173789 -3.0273573 1.4306641
-4.4205236 -3.02863 1.4344288
-4.4113293 -3.0342848 1.4287292
-4.411489 -3.038954 1.4172173
-4.4001322 -3.0520689 1.4232845
-4.4150634 -3.0466168 1.4176255
-4.3992443 -3.057986 1.4231846
-4.4019375 -3.0662832 1.4360791
-4.3879862 -3.0739617 1.4215834
-4.389431 -3.0801861 1.4275488
-4.3848176 -3.0870543 1.4282204
-4.3864245 -3.0812936 1.4338109
-4.3842583 -3.0905728 1.4199322
-4.3677831 -3.1042554 1.4275641
-4.2065039 -2.9996128 1.4848055
-4.2156119 -3.0051639 1.4771162
-4.2103705 -2.9991653 1.4842198
-4.1995621 -3.0201378 1.4891819
-4.1958508 -3.0114455 1.4926157
-4.1866269 -3.0284932 1.4759688
-4.1914296 -3.0252311 1.4785917
-4.1755524 -3.0278885 1.4931073
-4.1740766 -3.0327003 1.4844694
-4.1664715 -3.0453665 1.4882689
-4.171226 -3.0573988 1.4916044
-4.1552815 -3.0627298 1.4752785
-4.1670179 -3.0670187 1.4908346
-4.1516433 -3.0647066 1.4912962
-4.151298 -3.0828984 1.4863218
-4.1475105 -3.0760903 1.4901659
-4.1403623 -3.0783167 1.4831321
-4.1305828 -3.088906 1.4792954
-4.1262798 -3.1022677 1.476495
-4.1306067 -3.1122806 1.4868708
-3.9779844 -2.9957714 1.547601
-3.9753215 -3.0029178 1.5322801
-3.968977 -3.0060818 1.5384946
-3.9670682 -3.0181599 1.5328399
-3.9646902 -3.01419 1.5348057
-3.947279 -3.0307384 1.5493859
-3.9460158 -3.0244515 1.5475401
-3.9517789 -3.032707 1.5408993
-3.941371 -3.0409887 1.5466851
-3.9337556 -3.037935 1.5482403
-3.9357569 -3.0397463 1.5365398
-3.9335706 -3.0630867 1.5432492
-3.9266975 -3.0642827 1.5323452
-3.9136024 -3.0677776 1.5349076
-3.9061542 -3.0731101 1.5469786
-3.9167328 -3.0852547 1.5480343
-3.9127233 -3.0803668 1.5409037
-3.890552 -3.0854805 1.5310386
-3.8950138 -3.0844326 1.5384067
-3.8936825 -3.1000235 1.5343378
-3.8907881 -3.1018772 1.5339607
-3.8795867 -3.105814 1.5357404
-3.7321477 -2.9869647 1.5983659
-3.7252936 -2.9992862 1.5864311
-3.7158699 -3.0084522 1.5946432
-3.7143679 -3.0124965 1.5961843
-3.711803 -3.0168395 1.5880802
-3.7163615 -3.0233264 1.6003234
-3.7107778 -3.0185983 1.59907
-3.6978185 -3.0368695 1.5876746
-3.6889212 -3.0365844 1.5998688
-3.6803937 -3.0494437 1.5935631
-3.6900792 -3.048738 1.5913476
-3.6736825 -3.0453713 1.6020267
-3.6692133 -3.0567811 1.5887502
-3.6765249 -3.0708964 1.5966338
-3.6622882 -3.0666614 1.605373
-3.6561484 -3.071207 1.5928179
-3.6577582 -3.074398 1.5901775
-3.6606145 -3.0888665 1.5944469
-3.6548586 -3.0786815 1.6041762
-3.6569018 -3.0842197 1.6062151
-3.6452434 -3.1037014 1.5941229
-3.6357934 -3.1110518 1.5905544
-3.6356571 -3.0982056 1.6007271
-3.6287901 -3.1169503 1.6019297
-3.4886227 -3.0006135 1.6490567
-3.4852936 -3.00736 1.6602207
-3.4745131 -3.0000174 1.6533208
-3.4663658 -2.9998398 1.6570735
-3.4539428 -3.0182219 1.6561263
-3.4517834 -3.02297 1.65475
-3.4475784 -3.0203896 1.6589948
-3.4554589 -3.0326962 1.6609859
-3.4469011 -3.0292108 1.6609144
-3.448164 -3.0432098 1.6471828
-3.4282174 -3.0468092 1.6497349
-3.4376874 -3.0512705 1.6504101
-3.4359868 -3.0491481 1.6432916
-3.4211795 -3.0630829 1.6612087
-3.4226127 -3.0688055 1.6455958
-3.4249864 -3.0565863 1.6500808
-3.4087298 -3.0643864 1.6619866
-3.4082217 -3.0842984 1.64642
-3.4057157 -3.0798903 1.6591672
-3.4032748 -3.0809896 1.6627381
-3.3945587 -3.0863936 1.6475259
-3.3832839 -3.0855258 1.6526632
-3.3913271 -3.1072221 1.6447273
-3.3864825 -3.0983822 1.6476554
-3.383714 -3.1152539 1.6496536
-3.3765516 -3.1187842 1.6486577
-3.364898 -3.1103494 1.6446424
-3.220741 -2.9951811 1.7020402
-3.2129173 -2.9921389 1.7120646
-3.2123401 -3.010967 1.7057523
-3.2081857 -3.0053976 1.7187927
-3.1992371 -3.0128784 1.7174513
-3.2051449 -3.0127339 1.7191583
-3.1989825 -3.0120831 1.7144434
-3.1898856 -3.0330081 1.7175893
-3.1987844 -3.0311227 1.7019312
-3.1886728 -3.0419412 1.6994284
-3.1825705 -3.0335581 1.7062845
-3.1756141 -3.0415399 1.7006949
-3.1786273 -3.0531394 1.700783
-3.1679466 -3.044786 1.7109406
-3.1642194 -3.0516913 1.7181119
-3.1618273 -3.0687184 1.7099159
-3.157722 -3.0638032 1.7068533
-3.1583254 -3.0740173 1.707342
-3.1557767 -3.077363 1.7141871
-3.14888 -3.0748355 1.7146783
-3.14448 -3.090451 1.7080115
-3.1332176 -3.0833611 1.7178156
-3.1275389 -3.0835421 1.7004671
-3.1217659 -3.097306 1.7159132
-3.1258292 -3.0916123 1.7088888
-3.122715 -3.1078026 1.7092663
-3.1077909 -3.1041696 1.7189821
-3.1159232 -3.1054285 1.7029008
-3.1035607 -3.1084332 1.7078849
-3.104347 -3.1288416 1.6998013
-3.1046362 -3.1291571 1.7005016
-2.9567747 -2.9860387 1.7692349
-2.9541051 -2.9978566 1.7656238
-2.9487784 -3.0082271 1.7726299
-2.9479995 -3.0069923 1.7697043
-2.9342394 -3.0069809 1.7749574
-2.9400961 -3.0163891 1.7682061
-2.9362314 -3.0182796 1.7645527
-2.928442 -3.0121629 1.7622452
-2.915663 -3.0311949 1.7638736
-2.9109616 -3.0348837 1.7695251
-2.9055543 -3.0298965 1.7661427
-2.9079585 -3.0464289 1.7750806
-2.9139681 -3.0418296 1.7577802
-2.8929658 -3.0406525 1.7658409
-2.8948834 -3.0499218 1.7580333
-2.8915422 -3.0492601 1.7649322
-2.8949468 -3.0489516 1.7740493
-2.881999 -3.0650778 1.7733858
-2.8713531 -3.0726542 1.7577871
-2.8790734 -3.0797646 1.7625905
-2.8611364 -3.0657086 1.7564663
-2.8665762 -3.0783036 1.7578886
-2.8630724 -3.0811601 1.7679834
-2.8568635 -3.0872724 1.7633226
-2.8625884 -3.099566 1.7734537
-2.8561151 -3.0927877 1.7683017
-2.8427374 -3.093689 1.7675074
-2.8402371 -3.1059232 1.7746304
-2.8383949 -3.1117976 1.7582141
-2.8321455 -3.1096842 1.7587188
-2.8210874 -3.1139312 1.7573049
-2.8161478 -3.1279211 1.7673154
-2.8097804 -3.1227157 1.7584826
-2.8133128 -3.1356158 1.7675446
-2.8015003 -3.1385608 1.7683144
-2.6715682 -2.9964509 1.8164078
-2.6749654 -2.9880228 1.8310388
-2.6791515 -3.0014312 1.8174187
-2.6562097 -2.9973395 1.8219011
-2.6696787 -3.0113466 1.8124679
-2.6626377 -3.0186489 1.8227526
-2.6570058 -3.0053706 1.8230062
-2.6413579 -3.0100894 1.8324176
-2.6345379 -3.0227106 1.8128755
-2.764828 -3.1723986 1.7577786
-2.7679639 -3.1801908 1.7623694
-2.7595513 -3.1755669 1.7591379
-2.7565024 -3.1793211 1.7662419
-2.7470679 -3.18433 1.7611754
-2.7531459 -3.1870103 1.765834
-2.7486517 -3.1868572 1.7669164
-2.7338674 -3.2052846 1.7649974
-2.7388241 -3.1922817 1.7620739
-2.7343643 -3.196682 1.7702377
-2.7294409 -3.2094228 1.7569199
-2.7230589 -3.2097347 1.7596823
-2.712081 -3.2060747 1.7709352
-2.704329 -3.2238114 1.7622942
-2.7094676 -3.2165651 1.7724983
-2.6996677 -3.2198536 1.7638698
-2.6852038 -3.2231097 1.7592361
-2.6896524 -3.2360492 1.7600104
-2.6760147 -3.2384179 1.7576165
-2.6852951 -3.2408047 1.7746452
-2.6664064 -3.2427518 1.7627497
-2.6808305 -3.2428055 1.7743524
-2.6724868 -3.2563751 1.7734195
-2.652885 -3.2466922 1.7585473
-2.6619191 -3.2666526 1.7747128
-2.6607437 -3.261323 1.7713751
-2.6481917 -3.2660444 1.7685598
-2.6402683 -3.2797348 1.756578
-2.7519984 -3.4336381 1.7094431
-2.7454758 -3.4321959 1.7002316
-2.7419188 -3.4364009 1.7128265
-2.750252 -3.4395709 1.7091149
-2.7469771 -3.4389436 1.7155744
-2.7446296 -3.4432662 1.7154514
-2.7371492 -3.4411795 1.7190959
-2.7334979 -3.4424794 1.7117919
-2.7131789 -3.4557943 1.7034817
-2.7156699 -3.4657581 1.7051899
-2.7101374 -3.4715965 1.7060223
-2.7151842 -3.4757032 1.7121611
-2.7094371 -3.4610496 1.7179524
-2.6910899 -3.479531 1.7044243
-2.6964488 -3.4795451 1.7153673
-2.6953433 -3.4820242 1.7058252
-2.6743553 -3.4818411 1.7022004
-2.6697176 -3.4828298 1.7010995
-2.6723785 -3.4883285 1.7105006
-2.6633444 -3.5011518 1.7137482
-2.6725972 -3.4932823 1.7149611
-2.6610119 -3.4953039 1.7158639
-2.6432829 -3.5164285 1.7152104
-2.6397576 -3.5040612 1.6998587
-2.649755 -3.5219133 1.7082694
-2.7439528 -3.6769621 1.66142
-2.7523246 -3.6826177 1.6550671
-2.7443159 -3.6885116 1.6514814
-2.7374027 -3.6819477 1.6461463
-2.7410829 -3.6912363 1.6517301
-2.7215102 -3.6946688 1.648919
-2.7207193 -3.6914132 1.6478149
-2.7190204 -3.6953304 1.649308
-2.7179694 -3.7006295 1.6468835
-2.712265 -3.7008381 1.6503149
-2.6981447 -3.7050138 1.6558356
-2.6943181 -3.722698 1.6595556
-2.6968389 -3.7175157 1.6612293
-2.6829402 -3.7305682 1.6533076
-2.6743715 -3.7324538 1.6599307
-2.6802137 -3.7199254 1.6469475
-2.6688616 -3.73177 1.661039
-2.6586087 -3.7270844 1.6550248
-2.6668572 -3.7465224 1.6475163
-2.6575251 -3.7454357 1.6435961
-2.6447563 -3.7554135 1.6592904
-2.6464617 -3.7467549 1.6610833
-2.7548239 -3.9027135 1.5952835
-2.7509062 -3.9132276 1.5967499
-2.7349048 -3.9203784 1.6000915
-2.7322748 -3.9185827 1.5997152
-2.7226226 -3.9306507 1.5912409
-2.7188737 -3.9376874 1.5911911
-2.7211337 -3.938199 1.5954351
-2.710897 -3.9346106 1.6044904
-2.7045751 -3.94349 1.5872849
-2.7025533 -3.9393172 1.602448
-2.6987336 -3.9583721 1.6022556
-2.6841581 -3.9589808 1.5953983
-2.6881108 -3.9490652 1.6052316
-2.6687167 -3.962002 1.6006947
-2.6696935 -3.9707744 1.5879157
-2.6591396 -3.9612908 1.5919186
-2.6686301 -3.9795656 1.5992205
-2.6538715 -3.9731076 1.5939142
-2.6500523 -3.9858363 1.6035235
-2.6434336 -3.9820578 1.6010933
-2.7476046 -4.1399007 1.5468379
-2.7457814 -4.1489191 1.5322964
-2.7308102 -4.1474199 1.531435
-2.7260003 -4.1520615 1.5413938
-2.7257221 -4.1632204 1.546329
-2.7182174 -4.1693707 1.5444891
-2.7067046 -4.1705623 1.5481079
-2.7078846 -4.1825509 1.5419106
-2.6943655 -4.1762815 1.5467026
-2.6912317 -4.1889596 1.5389832
-2.6905231 -4.1854219 1.537045
-2.6875141 -4.1858611 1.5299309
-2.6790414 -4.1971345 1.5481504
-2.6714249 -4.1894083 1.5455545
-2.6538444 -4.2072201 1.5356178
-2.6513233 -4.2033486 1.5433407
-2.6506369 -4.2137904 1.5336738
-2.6463265 -4.2112441 1.5358118
-2.7501144 -4.3835502 1.4914541
-2.7269721 -4.376173 1.4747461
-2.7315438 -4.3939347 1.4853446
-2.7180481 -4.3945398 1.479265
-2.7116613 -4.3925304 1.4856648
-2.7070498 -4.3887672 1.4835353
-2.705029 -4.393292 1.4873304
