# .PCD v0.7 - Point Cloud Data file format
VERSION 0.7
FIELDS x y z
SIZE 4 4 4
TYPE F F F
COUNT 1 1 1
WIDTH 1515
HEIGHT 1
VIEWPOINT 0 0 0 1 0 0 0
POINTS 1515
DATA ascii
-9.7310963 0.65280598 0.82494688
-9.7184753 0.64573282 0.82444847
-9.7292633 0.62907398 0.8167702
-9.7308731 0.613599 0.82195228
-9.7336578 0.59653652 0.81464213
-9.7327156 0.58021593 0.82046348
-9.7302666 0.56048632 0.8148002
-9.7398777 0.54661453 0.81099331
-9.727416 0.53548294 0.81262654
-9.7422066 0.53497761 0.81824964
-9.7405443 0.50625241 0.81033248
-9.7253437 0.5110327 0.82893634
-9.7306223 0.48588938 0.82447684
-9.7435608 0.47998306 0.81813896
-9.7312975 0.45211878 0.82833636
-9.7463264 0.44600531 0.81581205
-9.7355137 0.42313007 0.81715828
-9.7303457 0.4114143 0.81823379
-9.7489662 0.41291127 0.82178003
-9.7459335 0.40035 0.81842411
-9.7372599 0.37016517 0.81994724
-9.7364836 0.35587531 0.81985593
-9.7370844 0.35698202 0.82822746
-9.7421265 0.34580711 0.82429981
-9.7334862 0.32753268 0.82611591
-9.7346306 0.3148486 0.81542742
-9.7482796 0.2935763 0.8154735
-9.7405634 0.27805245 0.81741434
-9.7517529 0.26447025 0.81446356
-9.739377 0.25446293 0.81256366
-9.7503386 0.23365358 0.81409186
-9.7397575 0.23412509 0.81494379
-9.7492485 0.21448137 0.81051672
-9.75035 0.21026289 0.82852978
-9.7553587 0.19513184 0.82188398
-9.738533 0.17928559 0.81617033
-9.7523766 0.17019993 0.82280117
-9.7461557 0.14922111 0.82752556
-9.7379742 0.13742466 0.81228566
-9.7527246 0.1183568 0.82065684
-9.7493563 0.10866169 0.8218376
-9.744441 0.089862458 0.81710917
-9.7386541 0.081867814 0.82635683
-9.7372751 0.073049337 0.82500613
-9.7378645 0.059479386 0.82214499
-9.74508 0.042974096 0.81705844
-9.7379913 0.032845028 0.81650746
-9.7442522 0.0091382628 0.82859915
-9.7457695 -0.0062053194 0.82251614
-9.742507 -0.016136479 0.81098735
-9.7508554 -0.02255507 0.82338566
-9.7380037 -0.043932896 0.81060714
-9.7498608 -0.059418008 0.82345653
-9.7524519 -0.073437415 0.82111019
-9.7563753 -0.087978065 0.81881672
-9.7431393 -0.089685723 0.81364083
-9.7549725 -0.10427401 0.81195885
-9.7473364 -0.12511203 0.82019311
-9.7475901 -0.14747536 0.82670677
-9.7539072 -0.14660388 0.81691217
-9.7517347 -0.1741264 0.81432194
-9.7371445 -0.18886214 0.8239767
-9.7353144 -0.1955395 0.81176913
-9.7406158 -0.20491081 0.81916469
-9.7482433 -0.21832672 0.82564205
-9.7381468 -0.23864837 0.82403404
-9.7532063 -0.25096229 0.82145971
-9.7499294 -0.25581944 0.81166923
-9.7383986 -0.28112808 0.81313694
-9.7403355 -0.29297116 0.80909741
-9.732048 -0.30287749 0.81115627
-9.7463312 -0.31844875 0.81209999
-9.7509413 -0.33246341 0.81998658
-9.7477398 -0.35207203 0.81212169
-9.7371235 -0.3596209 0.82446027
-9.7400103 -0.37740353 0.81009614
-9.7444868 -0.39059573 0.81703663
-9.7315187 -0.40087947 0.81273788
-9.728322 -0.42002046 0.81674802
-9.743639 -0.42150506 0.82253188
-9.7429752 -0.43512776 0.81202573
-9.7402344 -0.44347882 0.81956404
-9.7365313 -0.4569034 0.82670277
-9.7249222 -0.48760909 0.8278473
-9.7411594 -0.48820034 0.81505662
-9.7250385 -0.5121997 0.81809628
-9.7232628 -0.5212152 0.82155603
-9.7345276 -0.53782111 0.82834351
-9.730072 -0.55180788 0.80960071
-9.7215872 -0.56170774 0.82298321
-9.7272997 -0.57156026 0.81635201
-9.7235003 -0.57930654 0.81497788
-9.7321424 -0.60400283 0.81378645
-9.7336273 -0.61776251 0.81549561
-9.7339487 -0.62845045 0.81021893
-9.7270412 -0.64372802 0.81454724
-9.7170753 -0.65795934 0.82346344
-9.9182978 -0.67779785 0.76555711
-9.9180279 -0.70062613 0.77108431
-9.916481 -0.71575618 0.78031176
-9.9215326 -0.71740413 0.77328587
-9.9131966 -0.73607606 0.77211154
-9.9062147 -0.74423361 0.77983779
-9.9204054 -0.77473807 0.76739991
-9.9128666 -0.78644484 0.77786845
-9.9105864 -0.79214472 0.76665252
-9.9039574 -0.8087979 0.77479714
-9.9083939 -0.81294459 0.77028775
-9.9068975 -0.83779728 0.77681106
-9.8998547 -0.84209877 0.7820639
-9.9035654 -0.87246656 0.77952707
-9.8942823 -0.87553185 0.77217513
-9.9061546 -0.89266866 0.77052099
-9.8902817 -0.9050684 0.7722162
-9.906827 -0.91102195 0.77605695
-9.8928843 -0.93580598 0.76804864
-9.8901386 -0.95509201 0.7772364
-9.8992281 -0.95996392 0.77612507
-9.8928089 -0.96450901 0.78400707
-9.8998461 -0.98320001 0.78143197
-6.739665 5.006495 1.1919644
-6.7643523 4.9947581 1.1829805
-6.7652087 4.9793773 1.1898893
-6.7764978 4.9754195 1.1848036
-6.7664003 4.9614568 1.1778468
-6.7867241 4.9502001 1.1872584
-6.7836251 4.9441757 1.1812589
-6.8005357 4.9318628 1.19085
-6.8091211 4.9272442 1.1807942
-6.811677 4.9180636 1.1882808
-6.6482201 4.7923269 1.2197813
-6.6600938 4.7830997 1.2265929
-6.6809378 4.779964 1.2274731
-6.6748605 4.7724743 1.2338548
-6.6938558 4.7620044 1.2357424
-6.6997948 4.7581191 1.2358524
-6.6963091 4.7442288 1.2394263
-6.6988096 4.7403102 1.2201849
-6.7117062 4.7146749 1.2258325
-6.7146454 4.7133398 1.2318162
-6.7300849 4.703546 1.2356031
-6.736402 4.6885495 1.2394769
-6.7358952 4.6793656 1.2295388
-6.7344942 4.6829038 1.221444
-6.7466989 4.6740775 1.2322218
-6.7570028 4.6659307 1.228466
-6.7671833 4.6478744 1.2201805
-6.773777 4.6339097 1.2373463
-6.7795987 4.6336279 1.2382562
-6.7797594 4.6169724 1.2272193
-6.7939234 4.6114302 1.2357867
-6.804287 4.6061101 1.2387642
-6.8107638 4.5878243 1.2219737
-6.8071656 4.5774522 1.2381461
-6.8116484 4.5813756 1.2349266
-6.6627007 4.4530797 1.2753952
-6.6599836 4.4497075 1.2648681
-6.6655393 4.4262023 1.269838
-6.6739163 4.4233236 1.2639958
-6.6813703 4.4267182 1.2709776
-6.6798482 4.4023705 1.2819057
-6.6897454 4.3940673 1.277011
-6.6966524 4.3856816 1.2633365
-6.7003365 4.3872766 1.2688051
-6.7078352 4.3707566 1.2677213
-6.7185402 4.3669 1.2762777
-6.7311554 4.3519506 1.2707762
-6.7342844 4.3376226 1.271093
-6.7324305 4.341083 1.277863
-6.7364054 4.3232408 1.2773683
-6.7533851 4.3130589 1.2818751
-6.7594242 4.2991056 1.2674361
-6.7703443 4.3043575 1.2739782
-6.7749257 4.2920251 1.2714897
-6.7740254 4.2782798 1.2818648
-6.7741957 4.259903 1.2777747
-6.7857966 4.2549706 1.2681355
-6.7828856 4.2529569 1.2735776
-6.7996445 4.2388306 1.271897
-6.8096199 4.2267504 1.2817996
-6.800077 4.2236972 1.2709547
-6.8060141 4.2006001 1.2755989
-6.8263764 4.1925635 1.274946
-6.6534314 4.0839505 1.3138112
-6.6695714 4.0843887 1.306007
-6.6753235 4.0705986 1.3093017
-6.6851525 4.051136 1.3171484
-6.684608 4.0605001 1.3124735
-6.6786079 4.0390077 1.3231732
-6.6942759 4.0334287 1.3113012
-6.7000279 4.0232682 1.3058937
-6.6966119 4.0130329 1.3069141
-6.7085385 4.0082846 1.3094317
-6.7211046 3.9955645 1.3148413
-6.7171845 3.9923844 1.310006
-6.721055 3.9691198 1.3207054
-6.7416182 3.9616802 1.3212752
-6.7343211 3.9604266 1.32055
-6.7516861 3.9508011 1.3076807
-6.758338 3.931123 1.3185885
-6.7568488 3.9312952 1.3087001
-6.7607541 3.9204724 1.3179486
-6.7636256 3.9032991 1.3118284
-6.7639661 3.8991222 1.3223758
-6.7788844 3.8844156 1.3191388
-6.7786241 3.8913751 1.3220402
-6.7876515 3.8632951 1.3069129
-6.7960958 3.8680224 1.3199507
-6.8052521 3.8608823 1.3127893
-6.8072643 3.8525743 1.3153839
-6.8183556 3.8312266 1.3075922
-6.8193216 3.8314316 1.318427
-6.8110261 3.8142099 1.3215454
-6.8288374 3.8020787 1.3099515
-6.8360882 3.8004479 1.3131231
-6.8265624 3.7844825 1.3127337
-6.8341217 3.7848814 1.3137515
-6.8367953 3.7622147 1.3089913
-6.8464179 3.7557571 1.3065933
-6.8631883 3.7526395 1.3053972
-6.8573503 3.7437694 1.3123704
-6.8592911 3.7192588 1.3090736
-6.8703837 3.7283561 1.3180869
-6.8783445 3.704941 1.3045087
-6.8778853 3.6995611 1.3188467
-6.8942413 3.6889791 1.3067733
-6.8909736 3.6760967 1.3046606
-6.9066744 3.6657865 1.30945
-6.9071217 3.6710863 1.3173584
-6.9099541 3.6448348 1.3117328
-6.9139686 3.6496265 1.3068281
-6.9109964 3.6376698 1.307011
-6.9313078 3.6197994 1.3058966
-6.9225922 3.6191339 1.3109798
-6.9274411 3.6040795 1.3203028
-6.9379387 3.5978076 1.3086711
-6.9404964 3.5799289 1.3137912
-6.9451528 3.5714612 1.3182423
-6.9450064 3.5676444 1.317642
-6.9569378 3.5460806 1.3204458
-6.9544816 3.5455732 1.3177041
-6.9769163 3.5330961 1.3126755
-6.9791546 3.5253522 1.3194536
-6.9824934 3.5113549 1.3152502
-6.9807358 3.4975257 1.3056831
-6.9896412 3.498203 1.3195423
-6.9901648 3.4813135 1.3052276
-7.0055547 3.4847441 1.3121573
-6.99648 3.4732845 1.3049891
-7.0079918 3.454843 1.3059827
-7.016686 3.4437943 1.3162019
-7.0081086 3.4352331 1.3236837
-7.0245457 3.429343 1.313168
-7.0341911 3.4250095 1.3184083
-7.0280261 3.4073155 1.3195796
-7.0314145 3.4055841 1.3111954
-7.0409298 3.3881841 1.3156952
-7.0447464 3.3802347 1.3134061
-7.0416193 3.3661878 1.3094449
-7.0456467 3.3654428 1.3168364
-7.0686669 3.3408034 1.3229797
-7.0614538 3.3295281 1.3103695
-7.0667453 3.3265884 1.3216834
-7.0825386 3.3187623 1.3184845
-7.0730782 3.3018463 1.3074192
-7.0824323 3.3062735 1.3044566
-7.0801568 3.285903 1.3139347
-7.0933681 3.2864203 1.3053107
-7.0888538 3.2747552 1.3124938
-7.1082873 3.2637391 1.3087924
-7.1003156 3.2543659 1.3103184
-7.1061869 3.236855 1.3104426
-7.1046538 3.238688 1.3175069
-7.1117935 3.2293491 1.3066316
-7.122118 3.2140789 1.3087331
-7.1234941 3.1940484 1.3051612
-7.1278186 3.1808734 1.3111246
-7.1426511 3.179054 1.3075174
-7.1460938 3.166301 1.3221635
-7.1423392 3.1586535 1.3157184
-7.1422725 3.1435025 1.3098314
-7.1606655 3.1469915 1.3163708
-7.1589203 3.1365104 1.3146871
-7.1700969 3.123373 1.3136146
-7.1721349 3.1043808 1.307228
-7.1720576 3.1084681 1.3107736
-7.1755381 3.0926723 1.311113
-7.1730409 3.086472 1.3196081
-7.1941371 3.0612428 1.3053313
-7.180573 3.064168 1.3133943
-7.19344 3.0515461 1.3162997
-7.1921802 3.044903 1.3126936
-7.2043667 3.0243633 1.3086121
-7.1982231 3.0169909 1.3214052
-7.2131376 3.0119109 1.3052238
-7.3950224 3.0659738 1.280762
-7.3928542 3.0658572 1.2729261
-7.4103322 3.0525258 1.2689257
-7.3993006 3.0423722 1.269738
-7.4025311 3.0300429 1.2635233
-7.4176846 3.0290923 1.2747406
-7.4099178 3.013634 1.2693746
-7.6070623 3.0831876 1.2311428
-7.6070557 3.0698552 1.2380018
-7.6142416 3.0457978 1.2298582
-7.6175938 3.0446289 1.2311115
-7.6230016 3.0298944 1.2225896
-7.63623 3.0219333 1.2310835
-7.6334443 3.0092411 1.219777
-7.8118553 3.0687459 1.1841086
-7.8145409 3.0658462 1.1802464
-7.8259945 3.0549068 1.1912966
-7.8227983 3.0323217 1.1892966
-7.8354273 3.0340092 1.1845999
-7.8411822 3.0127623 1.1864877
-8.0176792 3.0820777 1.1354625
-8.0303907 3.0602746 1.1427482
-8.0316086 3.0494497 1.1527323
-8.0443163 3.0456026 1.1406895
-8.048315 3.0295458 1.1476177
-8.0455751 3.0150647 1.1425775
-8.2298727 3.0815217 1.0951436
-8.2400084 3.0670044 1.0984591
-8.2521276 3.0440738 1.0944113
-8.2489281 3.0395887 1.1000715
-8.243824 3.0254059 1.0963302
-8.2473373 3.0227783 1.1020074
-8.4473047 3.069793 1.0656956
-8.4536095 3.06147 1.059162
-8.4519396 3.0533679 1.0678111
-8.4633255 3.0322101 1.0532244
-8.4597359 3.0341341 1.0682006
-8.4611712 3.0101905 1.0601724
-8.6435814 3.0634458 1.0183407
-8.6658068 3.0588124 1.0259404
-8.6623554 3.0435023 1.010888
-8.6626282 3.028882 1.0247446
-8.677206 3.0222373 1.0105499
-8.8504457 3.0773304 0.97744548
-8.8655329 3.0543039 0.97044152
-8.871953 3.0441225 0.97409654
-8.8729439 3.0417454 0.97149837
-8.8789396 3.0221312 0.97678506
-9.0581455 3.0710821 0.93970317
-9.0716629 3.0593174 0.93247736
-9.0775633 3.055243 0.94204503
-9.0784979 3.0351179 0.929102
-9.0855579 3.0246189 0.94162953
-9.2724247 3.0710189 0.89520139
-9.2844429 3.0651395 0.88052362
-9.2834463 3.037082 0.88805532
-9.2787762 3.0322595 0.88560724
-9.2966871 3.0256481 0.89594775
-9.4753447 3.0691152 0.84276915
-9.4827061 3.04317 0.85289079
-9.4772739 3.0355675 0.85161746
-9.4822569 3.0312552 0.84290397
-9.5001631 3.0040898 0.85638267
-9.6919899 3.0584717 0.80537379
-9.6814499 3.0462375 0.80383933
-9.6855698 3.0392385 0.80721521
-9.7021379 3.0211301 0.79874235
-9.8879261 3.0668669 0.75424623
-9.8966446 3.0463688 0.76869905
-9.8961306 3.0227597 0.77045804
-9.9054756 3.0088134 0.75787175
-10.103183 3.0706065 0.71184462
-10.102555 3.0419171 0.71431273
-10.108429 3.0320427 0.72584236
-10.1029 3.016947 0.71867877
-10.306307 3.057415 0.6756717
-10.298974 3.0497911 0.67050081
-10.300095 3.0273516 0.68707246
-10.303299 3.0204372 0.67697167
-10.499759 3.052676 0.63470131
-10.506787 3.0450971 0.63471353
-10.506381 3.0311046 0.6338532
-10.50959 3.0219851 0.63841373
-9.9015617 1.0023148 0.84740967
-9.9164658 0.97767395 0.85391682
-9.9087563 0.97001082 0.85288966
-9.9108648 0.94958138 0.85254771
-9.9064741 0.94708961 0.84136969
-9.91008 0.92287868 0.85480362
-9.9248915 0.91583085 0.84935766
-9.7219934 0.8865698 0.88464153
-9.7155485 0.87415308 0.88914227
-9.7246552 0.85005671 0.88633418
-9.7215557 0.83411258 0.88117796
-9.7333231 0.82463157 0.88523132
-9.7385654 0.82420868 0.89547378
-9.7248154 0.80300528 0.89914101
-9.7313881 0.78750223 0.89417237
-9.7291203 0.76968342 0.89885068
-9.7333994 0.75832409 0.89034069
-9.7431059 0.7564401 0.8838914
-9.7399006 0.7422092 0.89861673
-9.7321758 0.72006011 0.88283861
-9.7472401 0.70218128 0.88471103
-9.7474413 0.69368547 0.89069861
-9.7435713 0.68107998 0.88986117
-9.7494383 0.66333765 0.8814196
-9.7516203 0.66011655 0.89107603
-9.7387514 0.64023864 0.89651603
-9.7411842 0.61713797 0.88420063
-9.7521095 0.60536849 0.88360667
-9.749464 0.59782255 0.88238859
-9.7520752 0.57900083 0.89262974
-9.7504444 0.56609529 0.89860165
-9.7469225 0.55394977 0.88968879
-9.7573948 0.54661757 0.88178271
-9.7486849 0.53434128 0.88974798
-9.7483969 0.52078801 0.888107
-9.7584343 0.50098932 0.90020424
-9.7430124 0.47962344 0.88281822
-9.7598877 0.46818045 0.8872813
-9.7573366 0.46021107 0.89781821
-9.7559853 0.45044068 0.88315427
-9.7443733 0.44309121 0.88920677
-9.7467709 0.42003503 0.89673686
-9.7580624 0.40725982 0.89055896
-9.7572403 0.38392809 0.88572991
-9.7484341 0.38159838 0.88097382
-9.7612505 0.36992708 0.8900463
-9.7619495 0.3543542 0.89138097
-9.7600164 0.34256443 0.89490175
-9.7536011 0.33396384 0.88408321
-9.756629 0.30733436 0.89712512
-9.754303 0.29291716 0.89644933
-9.7659044 0.27668419 0.88634986
-9.7499571 0.26972258 0.89710855
-9.760169 0.26412633 0.89816964
-9.7551908 0.2478607 0.89053595
-9.7549496 0.21928471 0.88486648
-9.7656164 0.21049568 0.89726049
-9.7549295 0.2041076 0.89150161
-9.7607031 0.18458356 0.89077979
-9.7572765 0.18246052 0.89706671
-9.760788 0.16307454 0.88257521
-9.7649574 0.15247819 0.88549006
-9.7592068 0.13820155 0.89508325
-9.7626781 0.11406675 0.89272058
-9.765069 0.11524473 0.8877331
-9.7550755 0.096979484 0.88781101
-9.7707319 0.088343464 0.89274162
-9.7539749 0.070671424 0.88492632
-9.7629585 0.047484167 0.89122951
-9.772644 0.047963165 0.88905251
-9.7560244 0.025150359 0.88113278
-9.7538767 0.018369956 0.8962602
-9.768795 -0.0024774617 0.8907547
-9.7541018 -0.0066331699 0.89475846
-9.7617521 -0.033036038 0.89358437
-9.7543697 -0.049319774 0.88778949
-9.7668915 -0.061153803 0.88700312
-9.7544632 -0.076144122 0.88218945
-9.7698317 -0.080049522 0.8878333
-9.7588768 -0.093591824 0.88760108
-9.7700806 -0.11048409 0.89820093
-9.7691851 -0.12521781 0.89566541
-9.7531433 -0.13487805 0.88592744
-9.7625875 -0.14987163 0.88567871
-9.7680092 -0.1725612 0.89267206
-9.7545853 -0.1879342 0.89702648
-9.7669382 -0.19591272 0.88319153
-9.7600574 -0.21156611 0.88801092
-9.7579718 -0.22270964 0.88256931
-9.7502232 -0.2430401 0.89722967
-9.7626877 -0.25473443 0.88864177
-9.764534 -0.26571232 0.89896393
-9.7488956 -0.28084636 0.89326942
-9.7629776 -0.285642 0.88622457
-9.757288 -0.29609549 0.89013302
-9.7645864 -0.31338084 0.8923111
-9.7475119 -0.32329294 0.90015292
-9.7642527 -0.34661815 0.88598311
-9.756155 -0.34817007 0.89431113
-9.75348 -0.36230487 0.89594966
-9.7561255 -0.38925475 0.89953434
-9.7473402 -0.3984198 0.88578111
-9.7482138 -0.41233549 0.89053321
-9.7547626 -0.42073977 0.88412857
-9.7483368 -0.44388133 0.88090873
-9.7579842 -0.45476687 0.89404118
-9.7454338 -0.46904191 0.89089859
-9.7450228 -0.48054135 0.89806724
-9.7587633 -0.48444581 0.89731956
-9.7441559 -0.50619686 0.89607209
-9.7478914 -0.51113415 0.88150901
-9.748023 -0.5278455 0.89141428
-9.741889 -0.54600871 0.88103658
-9.7509832 -0.57131833 0.89588642
-9.7464638 -0.57081914 0.88122571
-9.7451448 -0.58060265 0.88930953
-9.7506752 -0.59849072 0.89674753
-9.7393284 -0.61664158 0.88631439
-9.7407942 -0.62922502 0.88560414
-9.7429876 -0.64791292 0.89676917
-9.7464104 -0.65106672 0.8966223
-9.7443781 -0.67510176 0.89338833
-9.73242 -0.6937713 0.8856144
-9.7308216 -0.70232308 0.88615304
-9.734354 -0.70716184 0.88081187
-9.7325277 -0.73150736 0.89930713
-9.7425995 -0.74222714 0.89353305
-9.725214 -0.74246371 0.88322562
-9.7382421 -0.76504844 0.89395106
-9.7319622 -0.77072895 0.89960366
-9.7344971 -0.8007527 0.89571625
-9.7371607 -0.80968279 0.88140631
-9.7230396 -0.82761383 0.882038
-9.7166729 -0.82492357 0.88772768
-9.7297487 -0.84676212 0.88218701
-9.7281475 -0.86779022 0.88590789
-9.9226837 -0.89762002 0.85012293
-9.9082985 -0.91369313 0.85009724
-9.9242001 -0.92386687 0.84108943
-9.9093571 -0.92885154 0.84000224
-9.908843 -0.9574821 0.84249085
-9.9121962 -0.96990538 0.84964746
-9.9098406 -0.96935529 0.85246944
-9.9068336 -0.98360574 0.85157651
-6.7566428 5.015214 1.2419558
-6.7720857 4.9923735 1.2482353
-6.7711711 4.9820285 1.2431998
-6.7939153 4.9744792 1.2576288
-6.7905364 4.9609685 1.255838
-6.7938981 4.956429 1.2472808
-6.8091869 4.9577522 1.241747
-6.8225288 4.9324937 1.2556314
-6.6661453 4.807302 1.2970225
-6.6754327 4.8077412 1.2851359
-6.671103 4.7967501 1.2846302
-6.6744542 4.7972755 1.2907482
-6.6915131 4.7856612 1.2959956
-6.693594 4.7782354 1.2831773
-6.7012334 4.7611084 1.2863412
-6.71065 4.7475257 1.2944688
-6.708611 4.7455473 1.2934324
-6.7120929 4.7371068 1.2966597
-6.7216768 4.7130709 1.2986394
-6.7308187 4.7064409 1.2903782
-6.7318344 4.7108216 1.2804549
-6.7533422 4.6985183 1.2803949
-6.7487192 4.6758113 1.2980684
-6.7588353 4.6776643 1.297673
-6.7617564 4.6585069 1.2895167
-6.7815008 4.656548 1.2971532
-6.7731042 4.64323 1.2921959
-6.7857308 4.6330204 1.2881919
-6.7951169 4.6198025 1.2895552
-6.8025098 4.6240053 1.2937008
-6.7981505 4.6137428 1.2916486
-6.8037019 4.6085091 1.2867239
-6.8092995 4.5944223 1.2885315
-6.6544685 4.4679303 1.3226032
-6.6626101 4.4540405 1.3260131
-6.6788945 4.4468913 1.3369311
-6.6875296 4.4346094 1.3240075
-6.6811085 4.4361587 1.3303591
-6.698679 4.4147668 1.3329868
-6.6948724 4.4124131 1.3293207
-6.7069077 4.4008365 1.3249042
-6.7209816 4.3901138 1.324775
-6.7199678 4.3801851 1.3400888
-6.7171326 4.3687239 1.3272489
-6.7211752 4.3753343 1.3298398
-6.7417946 4.3518605 1.3346106
-6.7514825 4.3459392 1.3364372
-6.7540812 4.332613 1.3291597
-6.7503147 4.3278775 1.3298454
-6.7639079 4.313096 1.3375411
-6.7611537 4.3124151 1.3230327
-6.7628026 4.3037815 1.3271824
-6.7845678 4.2822709 1.3307929
-6.7910061 4.289691 1.33234
-6.7902708 4.2791514 1.3299042
-6.786931 4.2540622 1.3334095
-6.7988076 4.2453413 1.3404169
-6.8088441 4.2400651 1.3235297
-6.8061447 4.244585 1.3313475
-6.8227468 4.221529 1.3338327
-6.8316393 4.207231 1.3250939
-6.8350272 4.1972742 1.3371872
-6.8342524 4.1915302 1.3372438
-6.849853 4.1853118 1.3342028
-6.8438935 4.1857796 1.3301129
-6.8603568 4.1755247 1.3304327
-6.853301 4.159318 1.3315387
-6.8592243 4.1589856 1.3368838
-6.8820214 4.1472502 1.3362726
-6.8769875 4.1247978 1.3221375
-6.8894548 4.1193242 1.3232443
-6.8906479 4.1163201 1.3239431
-6.899734 4.0999365 1.328454
-6.9087501 4.0937829 1.3363115
-6.9007936 4.0794072 1.3342098
-6.916913 4.0743728 1.3314341
-6.9126997 4.0621858 1.3220406
-6.9273672 4.0498528 1.3219118
-6.9366755 4.0404878 1.3396531
-6.9265819 4.0419073 1.3245553
-6.9306097 4.0165977 1.3336049
-6.953517 4.0158191 1.3292801
-6.9557118 4.0116658 1.3382089
-6.9533825 4.0041933 1.3306295
-6.963182 3.9903617 1.3383274
-6.9750695 3.9660807 1.3306524
-6.9697194 3.9716699 1.3404592
-6.9737487 3.9482355 1.3276105
-6.9778934 3.9411228 1.3350815
-6.9842834 3.9297202 1.3336649
-7.0057573 3.9198928 1.336639
-6.998168 3.9127479 1.3285432
-7.0148897 3.9089837 1.32601
-7.0026689 3.8931115 1.3257287
-7.018014 3.8929887 1.3213474
-7.0256476 3.8865135 1.3224245
-7.0209422 3.8709102 1.3388382
-7.0264163 3.8567855 1.3215727
-7.0447254 3.8440108 1.3269567
-7.0355501 3.830327 1.3307087
-7.0477777 3.8206365 1.3344115
-7.0570168 3.8239892 1.3207548
-7.0543385 3.8160598 1.3331273
-7.0741792 3.8057773 1.3394283
-7.0742879 3.7855625 1.335415
-7.0787635 3.783113 1.3347424
-7.0821486 3.7707541 1.3282902
-7.0891061 3.7582927 1.3375443
-7.0933151 3.7528796 1.3238622
-7.0921264 3.7419863 1.3263422
-7.1071715 3.7241962 1.3289853
-7.0985003 3.7224832 1.3248419
-7.1034718 3.7087514 1.3226376
-7.1160574 3.7004681 1.3400265
-7.1223273 3.6973515 1.3270837
-7.132597 3.6750207 1.3215821
-7.1235256 3.6745524 1.3336194
-7.140892 3.6523612 1.3231002
-7.1489906 3.6511805 1.3370807
-7.1507578 3.6363952 1.3300877
-7.1500301 3.6317568 1.3352314
-7.166646 3.6209683 1.3285965
-7.1673913 3.6103733 1.3381712
-7.1703267 3.5923438 1.3294115
-7.1758595 3.5931809 1.327491
-7.1743207 3.5888717 1.3332028
-7.1782699 3.5787435 1.3284169
-7.1901674 3.5563436 1.3314168
-7.1925702 3.5509269 1.3232207
-7.2009788 3.5488107 1.3302308
-7.1963658 3.5324752 1.3226013
-7.2065954 3.5245638 1.3341892
-7.2034459 3.5009329 1.3251945
-7.2107072 3.4993782 1.3281902
-7.2267141 3.4972885 1.3220499
-7.2246275 3.4817212 1.3216341
-7.236815 3.4671745 1.3211306
-7.2337747 3.4656861 1.3282751
-7.2477198 3.4467363 1.3400574
-7.2498469 3.4443061 1.3397849
-7.2449503 3.4314022 1.3332454
-7.2476683 3.4131687 1.3288697
-7.2587848 3.4029703 1.3309451
-7.2588816 3.3903818 1.3215545
-7.2759686 3.3866439 1.34017
-7.279182 3.3698359 1.3333206
-7.2827964 3.3656695 1.3220339
-7.2869005 3.349359 1.3393745
-7.2838454 3.3439045 1.3278883
-7.2889943 3.3411095 1.3241012
-7.2944016 3.3279843 1.3375462
-7.3063335 3.3168993 1.3229004
-7.3026276 3.2994425 1.3282056
-7.3168316 3.2866194 1.3310784
-7.3204117 3.2814255 1.3403758
-7.3253622 3.2777202 1.3230344
-7.3171477 3.2550886 1.3317025
-7.3402057 3.2530262 1.3342423
-7.3259087 3.2386785 1.3215164
-7.3430839 3.2438271 1.3361907
-7.3440318 3.2281995 1.3279417
-7.3515201 3.2052567 1.3388159
-7.3536401 3.2106228 1.3224483
-7.3504405 3.186373 1.3234785
-7.3643537 3.1831172 1.3295422
-7.3689547 3.1794705 1.3221349
-7.3708835 3.1685841 1.3223358
-7.384129 3.1591706 1.3307215
-7.3748212 3.148571 1.3350121
-7.3782244 3.1252992 1.3347106
-7.3869386 3.1255677 1.3290472
-7.3838878 3.1028221 1.3307129
-7.3899484 3.102416 1.3280226
-7.3923621 3.0896552 1.331367
-7.4137311 3.0874124 1.321746
-7.4090219 3.0649846 1.338775
-7.4117055 3.0650308 1.3352203
-7.4141741 3.0562189 1.3325611
-7.4282422 3.0410888 1.3296175
-7.418005 3.0269148 1.3337232
-7.4280553 3.0083711 1.3284248
-7.6253562 3.070303 1.289752
-7.6194768 3.0771422 1.2819748
-7.6162724 3.0658693 1.2917823
-7.6297092 3.0575144 1.2896981
-7.6327519 3.038141 1.2955437
-7.638751 3.0203421 1.2917988
-7.6482897 3.0243185 1.2896115
-7.8227806 3.069772 1.2417073
-7.8379917 3.0581067 1.2509724
-7.8290815 3.0605915 1.2520807
-7.8454547 3.051563 1.2524194
-7.8395233 3.0326869 1.2502496
-7.8413539 3.0212729 1.2474655
-7.8533616 3.0206656 1.2469906
-8.0504341 3.0707746 1.2168504
-8.0387468 3.0493119 1.2005495
-8.0507879 3.0425088 1.198907
-8.045001 3.0277066 1.2020899
-8.0661411 3.0219612 1.2045559
-8.0579996 3.0093789 1.2004607
-8.2523069 3.0726562 1.1573352
-8.2627821 3.0578356 1.1672617
-8.2554102 3.0453913 1.1567464
-8.2708073 3.0451307 1.1766015
-8.2666626 3.0149701 1.1680187
-8.2716808 3.0207548 1.1692181
-8.457118 3.0651951 1.1339036
-8.4601393 3.0529363 1.1160058
-8.4599609 3.0437484 1.1236255
-8.4773006 3.0268967 1.1299316
-8.4787188 3.0234892 1.1227943
-8.6668777 3.0790331 1.091411
-8.6605902 3.0607646 1.0800883
-8.6648016 3.0513248 1.0800538
-8.6691399 3.0302396 1.0814133
-8.682045 3.0283303 1.0801177
-8.6937332 3.0092967 1.0883737
-8.8848915 3.055115 1.0352379
-8.8888855 3.0414712 1.0457118
-8.8852415 3.0347092 1.0511749
-8.8952742 3.0307336 1.0450777
-8.8924274 3.007381 1.0412091
-9.0855579 3.0569034 1.0102262
-9.084507 3.0438757 1.0028886
-9.0834723 3.0307372 1.0065938
-9.1010609 3.0289054 1.0005244
-9.0999269 3.0195794 1.0075612
-9.296524 3.0694356 0.96798098
-9.2993574 3.0582595 0.96812963
-9.2916985 3.0349586 0.95393252
-9.2985592 3.0258393 0.96818197
-9.4978409 3.0637531 0.93054485
-9.4947138 3.0580409 0.91350085
-9.5015888 3.0376291 0.91612798
-9.5157843 3.0224831 0.91832167
-9.5062542 3.0139625 0.91139424
-9.7095327 3.0694578 0.88689566
-9.6990814 3.039592 0.88490933
-9.7072287 3.0311379 0.88473499
-9.7152081 3.01457 0.87425387
-9.9044476 3.0729935 0.84669143
-9.9124165 3.044765 0.8310219
-9.9170418 3.0439198 0.8429122
-9.9186926 3.0204372 0.84766853
-10.105096 3.063576 0.78960049
-10.121965 3.0435865 0.7972635
-10.125743 3.0312574 0.79503107
-10.113036 3.0336258 0.79649496
-10.31001 3.0676229 0.76211095
-10.319503 3.0420365 0.76569498
-10.319456 3.0384808 0.76363993
-10.32599 3.0312054 0.74720335
-10.516193 3.0580354 0.72281247
-10.526542 3.0526638 0.70975971
-10.532113 3.032481 0.71711367
-10.53477 3.01968 0.71861041
-9.729907 1.0150342 0.95626104
-9.7312851 0.99311888 0.95991564
-9.7310762 0.98315579 0.95523739
-9.7346392 0.97066259 0.95628911
-9.736413 0.95261413 0.96737921
-9.742794 0.9448843 0.95990813
-9.7322226 0.93519348 0.95556307
-9.7425861 0.91424727 0.96880615
-9.7340946 0.88822615 0.96406537
-9.7412796 0.88039368 0.97159922
-9.7423668 0.87400115 0.96982169
-9.7391939 0.84761125 0.95972496
-9.752347 0.84279114 0.95326328
-9.7501602 0.83575153 0.96790832
-9.7469025 0.80826157 0.95810676
-9.7525349 0.79569507 0.95417905
-9.7456198 0.79498625 0.95416594
-9.7430305 0.78517997 0.96681392
-9.74718 0.76511389 0.96704984
-9.7560501 0.73909134 0.95306402
-9.7573681 0.73319131 0.9662981
-9.7604446 0.71165502 0.9667564
-9.7535982 0.69813722 0.95601034
-9.7531948 0.68795961 0.97184217
-9.7581272 0.68217403 0.953803
-9.7528419 0.67187053 0.95681792
-9.7514658 0.64957815 0.95274615
-9.7500839 0.6309517 0.95249176
-9.7560349 0.62923437 0.96579641
-9.7617302 0.61968547 0.96670514
-9.7613926 0.5898388 0.95534188
-9.7678022 0.57791686 0.95607173
-9.7537346 0.57382298 0.9569146
-9.7703934 0.55109549 0.96121216
-9.7712021 0.54437941 0.95335764
-9.77003 0.52387327 0.9688344
-9.7658243 0.52564937 0.95565492
-9.7656717 0.50969464 0.95748639
-9.7657537 0.48865709 0.97123915
-9.7725124 0.48277262 0.96908277
-9.7583437 0.45805547 0.97072071
-9.7755184 0.44773969 0.95407879
-9.771945 0.4322837 0.96698624
-9.7675085 0.42094141 0.97081053
-9.7787571 0.40954471 0.96156412
-9.7778397 0.40005445 0.9654581
-9.7614269 0.37548563 0.96477556
-9.7781744 0.37176642 0.96178669
-9.7730722 0.3486425 0.97140974
-9.7741976 0.33941853 0.96879858
-9.7774601 0.32500327 0.95512152
-9.7790651 0.31403342 0.96478087
-9.7772942 0.30723894 0.95263714
-9.7825956 0.28546268 0.96280491
-9.7840548 0.27300227 0.95523065
-9.7747402 0.26200315 0.97182149
-9.7815132 0.24794216 0.95749956
-9.7689495 0.23763987 0.95311534
-9.779355 0.21292773 0.9592647
-9.7801199 0.20755854 0.96984833
-9.7834759 0.17937593 0.95967549
-9.7804899 0.17001787 0.95219231
-9.7678251 0.16284248 0.97157466
-9.7672853 0.15075728 0.96284139
-9.7765589 0.13758653 0.95530891
-9.7733879 0.11408391 0.9704389
-9.7736063 0.10414333 0.96517009
-9.7681274 0.087082304 0.96326149
-9.787014 0.079912029 0.97030383
-9.7797327 0.072255537 0.96564037
-9.781848 0.061501715 0.96645814
-9.7741175 0.033973534 0.97158194
-9.7738504 0.019330336 0.96319485
-9.7741833 0.0054284241 0.95638728
-9.7832289 0.0024356279 0.97007406
-9.779788 -0.017222319 0.9539234
-9.7811985 -0.036954548 0.96149766
-9.787859 -0.05108292 0.96567661
-9.7764091 -0.063991651 0.9563511
-9.7778969 -0.069531336 0.95303506
-9.78403 -0.077118352 0.95263124
-9.7693253 -0.09692549 0.95836544
-9.7694788 -0.11643592 0.96312267
-9.7779999 -0.11626722 0.96764416
-9.7733088 -0.14515264 0.96283913
-9.7749128 -0.15062469 0.9520424
-9.7726479 -0.15755333 0.95517957
-9.7827892 -0.17120735 0.95785445
-9.768733 -0.1934953 0.96128666
-9.7839832 -0.21737482 0.95284498
-9.7825308 -0.22750932 0.97048193
-9.7814627 -0.24308106 0.9619773
-9.774641 -0.23896617 0.96762758
-9.7830439 -0.26355171 0.96711153
-9.7669058 -0.28364527 0.97137493
-9.7755537 -0.28556001 0.96383071
-9.7749786 -0.30544657 0.96302211
-9.7712479 -0.3157306 0.96222329
-9.764823 -0.33223322 0.95280004
-9.7749472 -0.34427989 0.95316029
-9.7734938 -0.35518661 0.95704865
-9.7743845 -0.36535716 0.95902753
-9.7637606 -0.38905734 0.95878303
-9.7674665 -0.40152988 0.96761417
-9.7716703 -0.41825327 0.97001249
-9.7715921 -0.42403248 0.96415615
-9.759038 -0.44966426 0.9520728
-9.7672739 -0.45201138 0.96336436
-9.7762899 -0.4683989 0.97181153
-9.7747097 -0.47539467 0.96186972
-9.7727509 -0.50144035 0.95467812
-9.7668839 -0.50889885 0.97097218
-9.7590189 -0.52627486 0.95722157
-9.7713795 -0.52791804 0.96465307
-9.7548904 -0.55434442 0.96901512
-9.7559834 -0.56129062 0.96125102
-9.7629137 -0.57630074 0.96150744
-9.7619085 -0.58018339 0.95306808
-9.7495928 -0.59373742 0.96189159
-9.7488108 -0.62638599 0.95736891
-9.7579517 -0.63776886 0.96044916
-9.7542648 -0.64399767 0.96971846
-9.7542648 -0.66309339 0.95525831
-9.7479963 -0.6753006 0.95280051
-9.7542782 -0.69178808 0.95756078
-9.7561779 -0.69015753 0.96901828
-9.7458229 -0.71626526 0.95910794
-9.7551928 -0.72219461 0.958956
-9.7529831 -0.73665398 0.95889008
-9.74193 -0.75119615 0.95981425
-9.7553816 -0.77576292 0.96299309
-9.7457333 -0.77754581 0.95357949
-9.7467976 -0.80025077 0.95870513
-9.7423019 -0.8176285 0.96525729
-9.7402458 -0.82224727 0.96895432
-9.7334099 -0.82974517 0.96791291
-9.7350969 -0.84788615 0.95439339
-9.7466764 -0.85641378 0.96857274
-9.7383881 -0.88376749 0.96191955
-9.7301474 -0.88112366 0.95434952
-9.740963 -0.91300493 0.95583659
-9.7285814 -0.91633111 0.96916306
-9.7255936 -0.9218328 0.95340538
-9.7374611 -0.94397026 0.95388919
-9.7227583 -0.96520108 0.96337187
-9.7243385 -0.9807651 0.95897263
-9.7269421 -0.97920465 0.97004682
-6.7830052 4.9955893 1.3055506
-6.7897234 5.0040345 1.3117465
-6.7867966 4.9943423 1.3192343
-6.7978005 4.9806437 1.3063359
-6.8032069 4.9695215 1.3166468
-6.8168926 4.9659204 1.3157579
-6.8246698 4.9414549 1.3067973
-6.8331347 4.9317851 1.3041134
-6.8407135 4.9214454 1.3055623
-6.853653 4.9178233 1.3104012
-6.8511205 4.9173822 1.3122432
-6.8525991 4.8971791 1.3120189
-6.8678679 4.8868461 1.3115999
-6.8756361 4.8724384 1.30699
-6.8762889 4.8795414 1.3007753
-6.8866172 4.8598614 1.3004864
-6.8978214 4.8592939 1.3052686
-6.8979726 4.8371387 1.3099273
-6.900794 4.8342681 1.313802
-6.9221535 4.8253074 1.3036201
-6.9186602 4.805716 1.3025719
-6.9333115 4.8114691 1.3109052
-6.9281731 4.7887635 1.3184996
-6.9434409 4.7850862 1.3012902
-6.9433045 4.767539 1.3007965
-6.9493699 4.7664332 1.3102455
-6.9557099 4.76088 1.3087591
-6.9572544 4.7419181 1.3147589
-6.9741268 4.7268639 1.3075385
-6.9871106 4.7171664 1.301018
-6.990263 4.7176647 1.3045754
-6.9944496 4.7102008 1.3035653
-6.9902892 4.6945505 1.3095375
-6.9985213 4.6902943 1.3015302
-7.0039487 4.6728225 1.305683
-7.0098562 4.675921 1.3184462
-7.0263009 4.6592999 1.3153813
-7.0242186 4.6477423 1.3030894
-7.0361228 4.6459069 1.3054873
-7.035233 4.6176682 1.3079411
-7.0408506 4.612844 1.3006556
-7.0628967 4.6103864 1.3156776
-7.0659394 4.5986285 1.30483
-7.0629959 4.5851655 1.3195158
-7.0680456 4.5727868 1.3065292
-7.0889292 4.5609994 1.3064488
-7.0970354 4.5592527 1.3195647
-7.0881929 4.5460596 1.3109493
-7.0916286 4.5474205 1.3103336
-7.1126523 4.5361142 1.3113233
-7.1112084 4.5256209 1.3173419
-7.1170359 4.4994984 1.3107654
-7.1278276 4.4967356 1.3023024
-7.1294532 4.4833055 1.3102561
-7.1363792 4.4712005 1.3157204
-7.1362777 4.4645734 1.3192956
-7.1562424 4.4561872 1.3110307
-7.1630774 4.4429779 1.3194885
-7.158514 4.4326525 1.3192314
-7.174552 4.4276099 1.3176018
-7.1695867 4.4103031 1.3154211
-7.1785884 4.4134469 1.3170685
-7.1941528 4.3920636 1.3059129
-7.1981659 4.3953052 1.3112956
-7.1942115 4.3778577 1.3145505
-7.2047787 4.366735 1.3011644
-7.2117567 4.361856 1.309387
-7.2269855 4.3563366 1.3144033
-7.2337422 4.3415618 1.3191063
-7.2407422 4.336916 1.3087872
-7.2293572 4.3233886 1.3111905
-7.2401395 4.3069983 1.3067756
-7.2492595 4.3011689 1.3110236
-7.2495217 4.2774367 1.3085681
-7.2643867 4.2837563 1.3187289
-7.2759824 4.2655916 1.3078386
-7.2809501 4.2465181 1.3021495
-7.2776814 4.2382708 1.3010303
-7.2893815 4.2293067 1.3152337
-7.2963648 4.2193699 1.3148972
-7.293653 4.2068305 1.3111475
-7.3085237 4.209507 1.3011302
-7.307795 4.1890478 1.3154144
-7.322804 4.1942973 1.316106
-7.3202538 4.1706376 1.3132648
-7.327529 4.161324 1.302415
-7.3256803 4.1529703 1.3026558
-7.3295059 4.1537991 1.3048216
-7.3344369 4.1288266 1.3082047
-7.34515 4.1227565 1.3118399
-7.356185 4.105269 1.3131328
-7.3509555 4.0987673 1.3073081
-7.3757291 4.0988374 1.3112378
-7.3662038 4.0897264 1.3106385
-7.3759727 4.0689793 1.3166096
-7.3885684 4.0667572 1.3035052
-7.3919997 4.0521688 1.3122933
-7.3951755 4.0395265 1.3121644
-7.3961711 4.0277095 1.3173256
-7.4137692 4.0109224 1.3066869
-7.4077177 4.0088286 1.3088391
-7.4203587 3.9976778 1.3147764
-7.4188099 3.9874532 1.311078
-7.4333172 3.9724388 1.3085709
-7.4284091 3.9733264 1.3156271
-7.4375153 3.9672747 1.3107792
-7.4397116 3.943434 1.3016694
-7.453105 3.942045 1.3102508
-7.4466128 3.9252734 1.3173573
-7.4549451 3.9165027 1.3180264
-7.4739013 3.899368 1.306959
-7.4706907 3.8951619 1.3151062
-7.4815283 3.8780601 1.3034017
-7.4760499 3.8719921 1.3070637
-7.4930639 3.8563588 1.302002
-7.5030069 3.8571312 1.3012847
-7.4977832 3.8412051 1.3071306
-7.5016546 3.8373682 1.3019992
-7.5169301 3.8254921 1.3105156
-7.5050845 3.8107376 1.3006883
-7.5125551 3.8024666 1.3041606
-7.5310783 3.7828307 1.3138691
-7.5214396 3.7777677 1.3169255
-7.5434909 3.7635787 1.3043712
-7.5418653 3.7577569 1.3066485
-7.5452867 3.7473588 1.3201704
-7.5494108 3.7475362 1.308246
-7.5476742 3.7291794 1.3029721
-7.5710545 3.72087 1.3163166
-7.5659032 3.7097142 1.3054091
-7.5705647 3.6963811 1.3167399
-7.5717387 3.6898038 1.318952
-7.58319 3.678129 1.3066251
-7.5915694 3.6696525 1.3106412
-7.5924888 3.6480362 1.3193744
-7.591116 3.6482186 1.3082559
-7.5962062 3.629482 1.3078685
-7.6132064 3.6176727 1.3196851
-7.6154656 3.6076591 1.3137603
-7.6243653 3.6079578 1.307255
-7.6241574 3.5887415 1.3179994
-7.6326041 3.5734825 1.3127561
-7.638824 3.5718894 1.306435
-7.6373558 3.5670185 1.3022414
-7.6518564 3.5463157 1.3070428
-7.637609 3.532058 1.3026447
-7.6544652 3.5177677 1.3101356
-7.6516938 3.5115199 1.3164494
-7.6570907 3.5080411 1.3033893
-7.6683979 3.5006759 1.3012743
-7.6661949 3.4785168 1.3105965
-7.6732326 3.4728942 1.31532
-7.6854992 3.4660206 1.3091179
-7.6840711 3.4455688 1.3087193
-7.6868219 3.4355552 1.3182989
-7.7047567 3.4247131 1.3043092
-7.7070742 3.4219239 1.3067242
-7.7018857 3.4068003 1.3135933
-7.7103682 3.3911586 1.3076925
-7.7118959 3.3890741 1.3051419
-7.7155237 3.3740418 1.3111544
-7.7298145 3.356806 1.3022735
-7.7193661 3.3521233 1.3172547
-7.735105 3.3336728 1.3025268
-7.7312274 3.337261 1.3085347
-7.7377553 3.3276889 1.3144563
-7.7382574 3.300559 1.3083515
-7.7563295 3.3033619 1.3178921
-7.7475176 3.2824113 1.3025668
-7.7645912 3.2846475 1.3159397
-7.7642002 3.2679551 1.3050693
-7.7777815 3.2616565 1.3077589
-7.7802286 3.2504754 1.3165679
-7.7876797 3.2282095 1.3177351
-7.7898431 3.2144601 1.3133056
-7.7859836 3.2188072 1.3101258
-7.7961869 3.2072608 1.3106441
-7.79248 3.1822362 1.3047998
-7.7992172 3.1706023 1.308846
-7.8012648 3.1664584 1.3059756
-7.8099241 3.1672537 1.3172666
-7.8094382 3.1390011 1.3131191
-7.8262482 3.1328197 1.3086568
-7.8142333 3.1236901 1.3128012
-7.8210359 3.1168852 1.3140755
-7.832253 3.0984125 1.310582
-7.8466349 3.0941939 1.3064338
-7.8404827 3.0781245 1.3081585
-7.8401594 3.0797446 1.3091533
-7.8557749 3.0637293 1.3169142
-7.8542457 3.0434513 1.3163868
-7.8614097 3.0280406 1.3185291
-7.8527064 3.0201864 1.3054185
-7.8684497 3.008698 1.314113
-8.0633039 3.0643778 1.2674129
-8.0536947 3.0632696 1.2727172
-8.067564 3.0520852 1.2647557
-8.0655651 3.0313423 1.2716835
-8.0618258 3.0351973 1.2711961
-8.077076 3.0076957 1.2656642
-8.2683973 3.0740652 1.2313007
-8.2764778 3.069145 1.2320392
-8.2623987 3.0571413 1.2359122
-8.281415 3.033592 1.239291
-8.2717209 3.0226419 1.2397144
-8.2891798 3.0255649 1.2302918
-8.4657297 3.065423 1.2014223
-8.4859066 3.0646999 1.1826142
-8.4791393 3.0519331 1.1989408
-8.4928417 3.0281172 1.1990516
-8.4920607 3.0210133 1.1887259
-8.4860954 3.0100939 1.185034
-8.6843386 3.0625093 1.1613683
-8.69382 3.0548749 1.1452497
-8.6999054 3.0411513 1.1497529
-8.7055502 3.0341685 1.1487569
-8.7006006 3.0192313 1.1526476
-8.8903856 3.0720928 1.1081319
-8.8936386 3.0519919 1.1222327
-8.900547 3.0424151 1.1043766
-8.9073277 3.0378306 1.1112813
-8.9044161 3.0234053 1.1191374
-9.091032 3.0622966 1.0667474
-9.0960007 3.0532801 1.0783941
-9.0970697 3.0424125 1.0684637
-9.1136179 3.030118 1.0637032
-9.1111441 3.0269737 1.0761636
-9.3110456 3.0647604 1.0304046
-9.3097162 3.06217 1.036504
-9.3142681 3.0369089 1.0254618
-9.316658 3.0290883 1.042276
-9.3121243 3.0083821 1.0371116
-9.506423 3.0509171 1.0013419
-9.5069399 3.0526607 0.98880392
-9.5157919 3.0375729 0.99812251
-9.5345564 3.0301569 0.98787647
-9.7250986 3.0681915 0.9476915
-9.7162075 3.0577569 0.95644516
-9.7335262 3.0329034 0.955616
-9.7247257 3.0277321 0.96253937
-9.7269487 3.0043867 0.95466149
-9.9197817 3.0472393 0.91957265
-9.930397 3.0489495 0.91976225
-9.937233 3.0343869 0.91499311
-9.9365864 3.015198 0.90843987
-10.134363 3.0578723 0.86825001
-10.134685 3.0445476 0.88016593
-10.135641 3.0243661 0.8752299
-10.147823 3.0110991 0.87902892
-10.328889 3.0462165 0.83172065
-10.335015 3.0476727 0.83419752
-10.348999 3.0279152 0.83566564
-10.338521 3.0217793 0.83271772
-10.536213 3.0473444 0.7895565
-10.550349 3.0431719 0.80062228
-10.551019 3.0131621 0.791834
-9.7457914 1.0154822 1.0388556
-9.7396774 0.99889451 1.0267401
-9.7497263 0.97278118 1.0248195
-9.7529078 0.96699983 1.0298831
-9.742425 0.95889914 1.0405457
-9.7521524 0.94917667 1.0253987
-9.7534266 0.93071401 1.0246862
-9.7446613 0.91027617 1.0433317
-9.7448578 0.88943744 1.0295674
-9.7626219 0.87957025 1.0330615
-9.75278 0.87190276 1.0302343
-9.7586021 0.85173237 1.0244359
-9.7565212 0.84287626 1.0261427
-9.7563419 0.83218336 1.0356886
-9.7510796 0.813299 1.030756
-9.7551365 0.80599409 1.0297251
-9.7543201 0.79870325 1.0238574
-9.7541981 0.78144592 1.0311795
-9.7554111 0.76524168 1.0312926
-9.7703695 0.75250447 1.0351695
-9.7618151 0.73082101 1.0250118
-9.7760687 0.72450751 1.0283184
-9.7761011 0.70144856 1.0364051
-9.7744083 0.69972366 1.0274367
-9.7631502 0.68439656 1.0332235
-9.7768059 0.66612971 1.0253465
-9.7714729 0.64977616 1.0238211
-9.7719889 0.63462341 1.0386826
-9.7651634 0.61931711 1.0309854
-9.7782068 0.61009294 1.0241981
-9.7673531 0.59044492 1.0293758
-9.7666388 0.577546 1.04189
-9.7825985 0.56559771 1.0249965
-9.7704515 0.55630702 1.040031
-9.7872553 0.53921968 1.0333922
-9.7782526 0.52940315 1.0421419
-9.7771072 0.52582663 1.0281947
-9.7774687 0.50262243 1.0327525
-9.7829494 0.4871127 1.0356632
-9.7761087 0.47941041 1.0430101
-9.7760363 0.46339256 1.0243703
-9.7907667 0.44890153 1.0264943
-9.792964 0.43924391 1.0303336
-9.7920351 0.42250642 1.0385472
-9.7760534 0.40972075 1.0433393
-9.7866907 0.38667369 1.0319818
-9.7885599 0.38548824 1.0307157
-9.7843571 0.3646391 1.0399144
-9.795577 0.35898772 1.0272733
-9.7838669 0.34083697 1.0406007
-9.784791 0.32339954 1.031582
-9.7843361 0.31185323 1.0417449
-9.7817383 0.29871219 1.0359237
-9.7952814 0.28708306 1.0270393
-9.7805929 0.27200016 1.0390444
-9.7810917 0.26682481 1.0416783
-9.7929306 0.24030676 1.0368034
-9.7860155 0.23849878 1.0247567
-9.7898827 0.22595881 1.0407367
-9.7863712 0.20559759 1.0322447
-9.7895145 0.18476194 1.0399946
-9.7816563 0.18481214 1.0298781
-9.783617 0.16787218 1.0403013
-9.791379 0.13778144 1.0327765
-9.7880068 0.14275351 1.0238503
-9.7926102 0.12758043 1.043431
-9.7945604 0.10090481 1.0301764
-9.8013668 0.10146059 1.0287969
-9.8002005 0.0784465 1.028561
-9.7830353 0.059221406 1.0416478
-9.794343 0.057112761 1.0275832
-9.7978811 0.043101911 1.0272535
-9.7915173 0.027351793 1.0236689
-9.7947111 0.0040412233 1.0236788
-9.7854099 0.0042858329 1.0423464
-9.785017 -0.019909292 1.0395266
-9.7850227 -0.025910219 1.0237173
-9.7982655 -0.038591817 1.0421499
-9.7928677 -0.050000746 1.0312549
-9.7876873 -0.064156972 1.0348212
-9.7894001 -0.089552499 1.0299655
-9.7851591 -0.098437369 1.0247856
-9.8012285 -0.12092796 1.0375423
-9.8008633 -0.12660111 1.0406753
-9.8004694 -0.14298168 1.0377396
-9.7813892 -0.15899573 1.0242957
-9.7851086 -0.17506249 1.0385374
-9.7846193 -0.1844366 1.0337842
-9.785677 -0.18849754 1.0313085
-9.7976112 -0.20748124 1.0283631
-9.7859602 -0.22830087 1.0337083
-9.7991457 -0.24502097 1.0238547
-9.797492 -0.25797114 1.0251963
-9.7830629 -0.27073604 1.0345504
-9.7854815 -0.2833057 1.0412092
-9.7908163 -0.29701254 1.025539
-9.7895756 -0.2946763 1.0274868
-9.794075 -0.31210625 1.0337448
-9.783308 -0.33086973 1.0296259
-9.7949972 -0.34186181 1.0402069
-9.7896137 -0.36151615 1.0236515
-9.7788649 -0.37468842 1.0240587
-9.7779512 -0.38655841 1.0251979
-9.7756767 -0.40436941 1.027254
-9.784029 -0.40498841 1.0304216
-9.7857037 -0.43135104 1.033563
-9.7830296 -0.43690124 1.0327208
-9.778388 -0.44739726 1.028128
-9.7874689 -0.46759233 1.0384506
-9.7806511 -0.47996202 1.0314592
-9.7832317 -0.48745182 1.038491
-9.7823496 -0.50471646 1.0260273
-9.7810411 -0.52160949 1.0353695
-9.778574 -0.5367893 1.040576
-9.7740316 -0.54090178 1.0388379
-9.7663031 -0.5672881 1.0244107
-9.7754135 -0.57161838 1.0381062
-9.7653475 -0.59194475 1.0349774
-9.7798548 -0.6020093 1.0253246
-9.7640209 -0.62593079 1.0369722
-9.7751589 -0.63312823 1.034799
-9.7792463 -0.6401571 1.0290291
-9.7757788 -0.66661012 1.0400335
-9.762949 -0.67134809 1.029524
-9.7648945 -0.69231492 1.028567
-9.7685585 -0.70634288 1.0348874
-9.7666302 -0.71029061 1.0305406
-9.7709885 -0.7250002 1.0395288
-9.7584553 -0.73506451 1.0321131
-9.7555571 -0.75016081 1.034435
-9.7609921 -0.77728051 1.0432175
-9.7685804 -0.78939176 1.038628
-9.76192 -0.79895824 1.0412409
-9.7642365 -0.81663775 1.03277
-9.7570429 -0.81722385 1.0369853
-9.7507877 -0.84245449 1.0408239
-9.758193 -0.84675682 1.0343651
-9.7499256 -0.85643542 1.0268453
-9.7526512 -0.87461889 1.0429085
-9.742774 -0.89096016 1.0375211
-9.750555 -0.91381168 1.0386585
-9.7495346 -0.92534655 1.0413274
-9.7530851 -0.93133461 1.0280709
-9.7540035 -0.94077146 1.0307747
-9.7433739 -0.9641667 1.0265305
-9.7485104 -0.98247725 1.0306921
-9.7497883 -0.98938251 1.0241861
-7.0385551 5.0081587 1.3433999
-7.0360579 5.0051637 1.3256294
-7.05513 4.9811583 1.3433651
-7.048748 4.9800606 1.3247247
-7.0576859 4.9780407 1.3370779
-7.0767064 4.9659801 1.3326535
-7.0667644 4.9542928 1.3355169
-7.0842252 4.9483814 1.3408604
-7.0877008 4.921597 1.3425035
-7.0996332 4.9297609 1.3348938
-7.1078405 4.9061871 1.3431063
-7.1150336 4.8920746 1.3381649
-7.1199827 4.8858414 1.3390688
-7.127183 4.8729267 1.3287357
-7.133009 4.8779984 1.3262526
-7.1464686 4.8709588 1.3415887
-7.1443381 4.8607569 1.3351272
-7.1593304 4.8399768 1.3326538
-7.1489654 4.8225884 1.3333045
-7.1569428 4.8201227 1.3320378
-7.1725163 4.8162899 1.3371253
-7.1798635 4.7920909 1.3380378
-7.1921377 4.7897558 1.342664
-7.1834946 4.7870193 1.3243324
-7.2051697 4.7652416 1.3410381
-7.2093143 4.7567759 1.34068
-7.2181091 4.7571979 1.3401053
-7.2133508 4.7493706 1.3287445
-7.2310519 4.7386379 1.3299998
-7.2280884 4.7266436 1.3388021
-7.246377 4.7057767 1.3337945
-7.2395644 4.7042503 1.33462
-7.2518253 4.6971231 1.3431513
-7.2594457 4.6852989 1.3389971
-7.2653832 4.6784449 1.3431253
-7.274601 4.6540775 1.3288569
-7.284163 4.6475334 1.3250891
-7.2742853 4.6323509 1.3435818
-7.295754 4.6260562 1.341439
-7.2959533 4.6093001 1.3374076
-7.3073359 4.6008167 1.3426248
-7.3037124 4.6056929 1.3364403
-7.3192487 4.5848408 1.3332622
-7.3262391 4.5828876 1.328403
-7.3373699 4.561501 1.3268415
-7.344358 4.5573874 1.3310736
-7.3456001 4.5501881 1.3389318
-7.350596 4.5393286 1.3417863
-7.3570848 4.5334477 1.3285341
-7.3657017 4.5138016 1.3287234
-7.358336 4.509192 1.3306352
-7.3657384 4.4946113 1.327638
-7.3793111 4.4908853 1.3340132
-7.3760471 4.4665456 1.328668
-7.3976283 4.4574375 1.3321782
-7.4007568 4.4476891 1.3418252
-7.3996382 4.4430327 1.3345325
-7.4106474 4.4396996 1.3266487
-7.4187875 4.4161835 1.3431616
-7.4201655 4.4103413 1.3303143
-7.4213395 4.3981414 1.3431524
-7.440587 4.3848009 1.3317136
-7.4428172 4.3841357 1.3268611
-7.4386578 4.3729672 1.3279898
-7.4598293 4.366437 1.33034
-7.4574757 4.3429828 1.3332807
-7.4654608 4.3468375 1.3419119
-7.4807239 4.3258586 1.3375661
-7.4838562 4.3229008 1.3400687
-7.4904613 4.3047123 1.3271019
-7.4898987 4.2914824 1.3323168
-7.4964838 4.2851224 1.3345815
-7.4944925 4.2826352 1.3265795
-7.4973392 4.2703967 1.3378166
-7.519043 4.263061 1.332939
-7.5183816 4.2441387 1.3350316
-7.5347648 4.2432771 1.3314114
-7.5225024 4.2331829 1.3372535
-7.5345707 4.2059722 1.3305875
-7.5441217 4.1981583 1.3361908
-7.5466251 4.1968942 1.3390305
-7.5638986 4.1750174 1.3259848
-7.5588927 4.1810894 1.3409353
-7.5618739 4.170258 1.3341386
-7.5736036 4.143651 1.330506
-7.5701962 4.14362 1.338459
-7.584681 4.1331048 1.3360662
-7.5827713 4.1207366 1.3341037
-7.595005 4.1021705 1.3354632
-7.5938897 4.0999079 1.3395498
-7.6071558 4.0809827 1.332921
-7.617568 4.07061 1.3349729
-7.6210108 4.071054 1.333662
-7.629488 4.0543132 1.332093
-7.6247473 4.0516243 1.3344989
-7.6436243 4.0381098 1.3274633
-7.6345334 4.0158625 1.3405099
-7.6478205 4.0212617 1.3317943
-7.643055 4.0001502 1.3351259
-7.6569152 3.9858618 1.3268168
-7.6666737 3.9839997 1.3302122
-7.6630459 3.9774039 1.3338726
-7.6773515 3.9530284 1.3286223
-7.6729527 3.9458239 1.3372847
-7.6901083 3.9289937 1.3339194
-7.6848426 3.918905 1.3277088
-7.6865978 3.923511 1.3299279
-7.6952915 3.9004192 1.3282315
-7.7126856 3.8876667 1.3361161
-7.7067327 3.8866131 1.3404126
-7.7090745 3.881345 1.3335555
-7.7280054 3.8652341 1.3308183
-7.7232614 3.8603315 1.3344291
-7.723752 3.8453271 1.341567
-7.7355652 3.8386514 1.3426136
-7.7507286 3.8227105 1.3243183
-7.7520876 3.8104687 1.3413835
-7.7512121 3.7949727 1.3261187
-7.752018 3.7875073 1.3288709
-7.7649245 3.7714036 1.3413467
-7.773519 3.7583525 1.3393391
-7.7689552 3.7517498 1.3320128
-7.7871141 3.7352557 1.3305837
-7.7816463 3.7236199 1.3249571
-7.7890258 3.7255051 1.3434696
-7.7953434 3.7175457 1.3368633
-7.7999411 3.6935313 1.3288448
-7.8074584 3.6956811 1.3361673
-7.8102255 3.6822984 1.3268687
-7.810225 3.6612682 1.3323179
-7.8177333 3.6568868 1.3355752
-7.8272338 3.642297 1.3430963
-7.8240457 3.6347616 1.3249968
-7.6639314 3.5357721 1.364239
-7.6676536 3.5369546 1.3781581
-7.6728487 3.5169876 1.3750132
-7.6646347 3.517575 1.3787566
-7.6844244 3.4957829 1.3755597
-7.676877 3.4963455 1.3698972
-7.6786127 3.4820158 1.3741285
-7.6948843 3.4652696 1.3649095
-7.6878839 3.4640989 1.3720393
-7.693347 3.4511778 1.3625792
-7.7168946 3.425077 1.3672019
-7.7192817 3.4201698 1.3637178
-7.7077341 3.4149692 1.3709837
-7.719317 3.4028685 1.3695616
-7.7271409 3.3958492 1.3770779
-7.7381468 3.3812339 1.3758951
-7.7347999 3.3697243 1.3711272
-7.7472067 3.3667693 1.3803643
-7.7488174 3.3556263 1.3791889
-7.7432833 3.3438165 1.3758572
-7.7471943 3.3332403 1.3771961
-7.7664671 3.3050435 1.3644062
-7.7692089 3.3131454 1.3772004
-7.7646699 3.2944009 1.3686854
-7.781538 3.2725534 1.3639492
-7.770874 3.2644064 1.3754025
-7.7813783 3.2642972 1.3661574
-7.7766347 3.2564571 1.3647751
-7.782639 3.231667 1.3630741
-7.789804 3.237057 1.3803941
-7.8002849 3.2231667 1.3779752
-7.809412 3.2146192 1.3782034
-7.8113136 3.1879301 1.3773836
-7.820406 3.1903653 1.3686761
-7.8179979 3.1805029 1.3689841
-7.8203106 3.1658592 1.3720146
-7.8311548 3.1452515 1.3658117
-7.8312292 3.1339118 1.3626506
-7.8326702 3.1210771 1.3655879
-7.6532526 3.0532806 1.4029064
-7.6589437 3.0320287 1.4191393
-7.667038 3.026114 1.4177318
-7.6748896 3.0227463 1.4005486
-7.8664918 3.0659914 1.3786241
-7.8639402 3.0645363 1.3758594
-7.8610649 3.0451713 1.3693831
-7.875144 3.0393496 1.3732373
-7.8754106 3.0378263 1.376696
-7.8788228 3.0192192 1.3782705
-8.0628185 3.0715632 1.3372002
-8.0641384 3.0724499 1.3436821
-8.0692091 3.0494528 1.3349627
-8.0756712 3.0427999 1.3335954
