# .PCD v0.7 - Point Cloud Data file format
VERSION 0.7
FIELDS x y z
SIZE 4 4 4
TYPE F F F
COUNT 1 1 1
WIDTH 1568
HEIGHT 1
VIEWPOINT 0 0 0 1 0 0 0
POINTS 1568
DATA ascii
1.9965202 -3.5445147 1.3407316
2.0153148 -3.5477645 1.3355598
2.0132296 -3.5412955 1.3327516
2.0149944 -3.5384774 1.3395144
2.0118165 -3.5399942 1.3406192
2.0191934 -3.5359333 1.341857
2.022496 -3.5189369 1.344193
2.02583 -3.5225251 1.3508732
2.0402682 -3.5204093 1.343425
2.0395131 -3.5186448 1.3498855
2.0471284 -3.5099189 1.3368338
2.0614495 -3.5073483 1.3377494
2.050595 -3.5118086 1.3423442
2.0569282 -3.4994462 1.3469604
2.0700202 -3.4951999 1.3472563
2.084213 -3.5085111 1.3488026
2.0796397 -3.5034497 1.344528
2.0773981 -3.4999809 1.3338408
2.0818326 -3.4869964 1.3424383
2.0988152 -3.4796853 1.3499622
2.1022539 -3.4896734 1.3433671
2.112637 -3.4902508 1.336491
2.1039317 -3.4865894 1.3422959
2.119817 -3.4814973 1.3375977
2.1203144 -3.4682119 1.3342735
2.1211035 -3.4656281 1.3347589
2.1234348 -3.4725084 1.3374196
2.1414876 -3.4665167 1.3406563
2.1288488 -3.4609728 1.3339778
2.1448035 -3.463325 1.3317039
2.148278 -3.4471126 1.3365285
2.1451533 -3.4453876 1.3378557
2.155148 -3.4572339 1.3399172
2.1709437 -3.4380574 1.3441371
2.1620369 -3.4432414 1.3387018
2.1698015 -3.4324901 1.3329031
2.1780474 -3.4442575 1.3372699
2.1889501 -3.4428177 1.3446674
2.183085 -3.4388583 1.3346412
2.1905372 -3.4237816 1.3392884
2.1957111 -3.4300637 1.3371667
2.2057056 -3.4242997 1.3337823
2.1970227 -3.4133656 1.3355566
2.2103972 -3.4114571 1.3335061
2.2079873 -3.4032717 1.3432634
2.2201381 -3.4121339 1.3407569
2.2264855 -3.3975585 1.3434616
2.2371955 -3.3968847 1.3445776
2.2352986 -3.4068754 1.3466179
2.2433712 -3.3942096 1.3406932
2.2360866 -3.401161 1.345438
2.246676 -3.382905 1.3328917
2.2538767 -3.3781142 1.3482174
2.2628472 -3.3847277 1.3423833
2.2697628 -3.3785253 1.3416593
2.2664313 -3.3849418 1.348991
2.2805891 -3.3697767 1.3478097
2.2774472 -3.3686628 1.344207
2.2754166 -3.3742027 1.3475115
2.2954221 -3.3564227 1.3403735
2.2894986 -3.3706753 1.3431689
2.2883151 -3.3590827 1.3410984
2.2945809 -3.3650289 1.3406903
2.2961681 -3.3467398 1.3505336
2.3119166 -3.3462658 1.3434378
2.3069367 -3.3538496 1.346777
2.309284 -3.3519979 1.3421264
2.3304455 -3.3380058 1.3354282
2.3279998 -3.3307574 1.3400222
2.3288541 -3.3282123 1.3392215
2.3425658 -3.3362954 1.3409867
2.3390684 -3.3302615 1.3511568
2.3534961 -3.3226573 1.3321863
2.3475108 -3.3181572 1.348304
2.3513644 -3.3225949 1.3416883
2.3681176 -3.3166947 1.3442744
2.3682053 -3.3131249 1.3454918
2.3636382 -3.3130667 1.337474
2.3723681 -3.3001227 1.3334711
2.3856874 -3.2909887 1.348773
2.3782012 -3.2928023 1.3327452
2.3924758 -3.3027685 1.3394979
2.3969159 -3.2829576 1.3505951
2.4023807 -3.2937777 1.3429264
2.4039588 -3.2853856 1.3475471
2.3989162 -3.2848773 1.3347887
2.416455 -3.2689133 1.3423145
2.4152067 -3.2821443 1.3466063
2.425936 -3.2712684 1.3405435
2.4326575 -3.2716918 1.3403097
2.4346762 -3.2642152 1.3349507
2.4406624 -3.2670732 1.3363075
2.4333968 -3.2500956 1.3341509
2.4372234 -3.2522533 1.3378432
2.4533768 -3.2574282 1.3465902
2.4541459 -3.2522361 1.3325019
2.4621518 -3.2340913 1.3510275
2.4576788 -3.241776 1.3329654
2.4574928 -3.2433083 1.3424163
2.4712393 -3.2426908 1.3480744
2.4847472 -3.224622 1.3378336
2.4728913 -3.2251294 1.3413526
2.4823873 -3.2174602 1.3384607
2.489722 -3.2105174 1.3500162
2.5007441 -3.2119696 1.3329957
2.5005083 -3.2171965 1.3377595
2.5061796 -3.2189562 1.3372543
2.5103714 -3.2097228 1.3456441
2.5164962 -3.2052047 1.3490751
2.5120671 -3.1914647 1.3496904
2.5132914 -3.1887367 1.3449355
2.4099522 -3.0368512 1.4120765
2.4242415 -3.0456674 1.4075859
2.4156344 -3.0316548 1.4265798
2.4185781 -3.031121 1.420657
2.4244967 -3.0353186 1.4260367
2.4351742 -3.0383363 1.4261798
2.4453418 -3.0216484 1.4120727
2.4438946 -3.0233171 1.4189941
2.4458735 -3.0138912 1.4161596
2.448463 -3.0077126 1.4125512
2.4462929 -3.0150225 1.4117918
2.4554102 -3.0123017 1.418861
2.4600322 -3.0024419 1.4165822
2.4636433 -2.9938881 1.4114704
2.4613268 -3.0036604 1.4187883
2.4643855 -2.986995 1.4197099
2.487582 -2.9843972 1.4139348
2.5944061 -3.1302514 1.3472521
2.6106067 -3.1354139 1.3424476
2.6039677 -3.1222074 1.3404194
2.6137154 -3.1153872 1.3476731
2.6226985 -3.123661 1.3342335
2.6187458 -3.1115196 1.3472338
2.632509 -3.0999684 1.3453621
2.6211555 -3.1149306 1.3502864
2.6371148 -3.1110268 1.3484385
2.6339905 -3.1081135 1.345745
2.6450861 -3.1002982 1.336522
2.6453426 -3.1006591 1.338517
2.6607895 -3.092031 1.3500924
2.6542027 -3.0780222 1.3448563
2.6548648 -3.079392 1.3477083
2.662082 -3.0690713 1.3390579
2.6622941 -3.069339 1.3383085
2.6806297 -3.0653067 1.3389404
2.6838841 -3.0696566 1.3398141
2.6852856 -3.0614672 1.3399326
2.6839883 -3.0665133 1.3441921
2.6934626 -3.0556293 1.3444101
2.704927 -3.0536191 1.3495697
2.7079613 -3.0425117 1.3450454
2.7057545 -3.0350528 1.3354528
2.7063942 -3.0446823 1.3324761
2.7183785 -3.0383999 1.3455213
2.7096078 -3.0380771 1.3388821
2.7214642 -3.01879 1.3441702
2.7341886 -3.0223861 1.3339192
2.7270262 -3.011559 1.3348874
2.7241182 -3.015532 1.3429991
2.7414229 -3.0123098 1.3493742
2.7438817 -3.0103171 1.3431042
2.7418113 -2.9947901 1.3405347
2.7501426 -3.0028765 1.3445711
2.755492 -3.0032272 1.3511196
2.7538812 -2.9965911 1.3342146
2.8907709 -3.1186659 1.2569656
2.8879886 -3.1157444 1.2681813
2.8949494 -3.124212 1.2664298
2.9028728 -3.1198094 1.2569053
2.8989024 -3.102318 1.2667972
2.9013014 -3.1065791 1.2748699
2.9174249 -3.097116 1.2746519
2.9109731 -3.1035221 1.2625238
2.9285519 -3.0887735 1.2662158
2.9326737 -3.0798254 1.2727084
2.9398849 -3.083317 1.2696145
2.9456899 -3.0739601 1.26542
2.9427052 -3.0820057 1.26873
2.937963 -3.0664859 1.2724087
2.9436908 -3.0592887 1.2695384
2.9593046 -3.0740392 1.2583611
2.9629853 -3.0570073 1.2725943
2.9664423 -3.0507624 1.2563634
2.9577656 -3.0512681 1.2708164
2.9727752 -3.0519762 1.2701472
2.9742715 -3.0497916 1.2619097
2.9726679 -3.0461142 1.2589467
2.9868643 -3.0297287 1.2638493
2.9843647 -3.0223866 1.2601771
2.9855382 -3.0336123 1.2596016
3.0038354 -3.0135138 1.2601689
2.9909496 -3.0140185 1.2736558
3.0122914 -3.0153446 1.2692689
3.0173962 -3.00962 1.2602516
3.0169482 -3.0131526 1.2663959
3.015825 -2.9994502 1.2705883
3.0264587 -2.9916065 1.2743156
3.0341234 -2.9938157 1.2702799
3.1579762 -3.1131887 1.1935833
3.1670415 -3.1250224 1.1973495
3.1755252 -3.1027906 1.1970481
3.1645699 -3.0976708 1.1920698
3.1870954 -3.0954294 1.1815873
3.1852279 -3.0922976 1.1926457
3.1943369 -3.0938222 1.1959815
3.1895838 -3.080673 1.1888242
3.1890171 -3.0810866 1.1853092
3.1921716 -3.078027 1.1953772
3.2112839 -3.0665908 1.1922796
3.2095423 -3.0704508 1.1929458
3.2115605 -3.0701821 1.1914351
3.2132714 -3.0652177 1.1906297
3.2299974 -3.0620704 1.1876447
3.2162347 -3.0451274 1.1833647
3.2335241 -3.0434058 1.193127
3.2341433 -3.0507612 1.1915998
3.2475986 -3.0430014 1.1852137
3.2375326 -3.0363991 1.1974365
3.2375286 -3.0349903 1.1966381
3.2544203 -3.0196223 1.1875168
3.2519722 -3.0265291 1.194195
3.268007 -3.0160124 1.1813626
3.2632298 -3.0130501 1.1871964
3.2754617 -3.0081251 1.1854862
3.263407 -3.0101786 1.1810046
3.2811084 -2.9958751 1.1846687
3.277276 -2.992372 1.1915873
3.4235146 -3.1081829 1.1047486
3.4256804 -3.1030517 1.1106508
3.4270415 -3.1052649 1.1073982
3.4392743 -3.0941567 1.11271
3.438179 -3.0912375 1.104004
3.4442444 -3.0973129 1.1137197
3.4561369 -3.0953679 1.1038142
3.4463127 -3.0896821 1.1073028
3.4520001 -3.0704939 1.1205368
3.4613447 -3.07933 1.1127099
3.4576013 -3.0625768 1.1095011
3.4628611 -3.0680113 1.1066571
3.4740164 -3.0564322 1.1168276
3.4819124 -3.0569606 1.1133277
3.4751134 -3.0429184 1.1079625
3.4796016 -3.0471377 1.1117312
3.493799 -3.0437853 1.1126484
3.4980838 -3.0345707 1.1144483
3.5058506 -3.0239761 1.1106278
3.5068445 -3.028337 1.1131564
3.5000048 -3.020735 1.1076175
3.5099492 -3.0121603 1.1118172
3.5170431 -3.0167103 1.1227633
3.5143006 -2.9976377 1.1083423
3.5280514 -2.9896309 1.1231188
3.5364299 -3.0013959 1.1088251
3.6694806 -3.1031809 1.0371786
3.6826985 -3.1047666 1.0457329
3.6777093 -3.1028249 1.0400133
3.6888926 -3.0841219 1.0450584
3.6825974 -3.0964847 1.032825
3.6907561 -3.0831218 1.0442802
3.7031071 -3.0868771 1.0462933
3.7063971 -3.0775807 1.0424808
3.7152588 -3.0587318 1.0417712
3.71889 -3.055696 1.0443867
3.70822 -3.0647047 1.0402658
3.7217453 -3.0448403 1.0294409
3.7238176 -3.0543034 1.0354332
3.7201631 -3.0369143 1.0349978
3.7415464 -3.0301447 1.0370635
3.7306888 -3.0395329 1.0473493
3.7512794 -3.0208797 1.0287312
3.7538757 -3.0232389 1.034255
3.7526524 -3.0210314 1.0334671
3.7507122 -3.0194809 1.0305483
3.75138 -3.012881 1.0334485
3.7679198 -2.9970293 1.0310342
3.773627 -3.003372 1.0339723
3.9100087 -3.1130056 0.95326006
3.9214194 -3.0899284 0.96996999
3.9348881 -3.1019528 0.95208925
3.9386351 -3.0976238 0.96765339
3.9437561 -3.0749283 0.95564413
3.9343934 -3.0776789 0.96062219
3.9442353 -3.0665851 0.96192473
3.9511507 -3.0590312 0.9645952
3.9609585 -3.0591385 0.95787948
3.9483442 -3.0577319 0.95957756
3.9586606 -3.0488188 0.96177
3.9641056 -3.052835 0.96158224
3.9662528 -3.0477145 0.96390653
3.9705117 -3.0431714 0.96509016
3.9703269 -3.0378242 0.96349353
3.9781251 -3.0261488 0.95366466
3.9908936 -3.0089333 0.96944183
3.984957 -3.0090961 0.96727902
4.0016832 -3.0037377 0.95950919
3.9916856 -2.9952719 0.96764034
4.0033784 -3.0007608 0.95917279
4.1452656 -3.0961542 0.88532281
4.1591024 -3.1023626 0.88691843
4.1552553 -3.0885601 0.88752753
4.1725841 -3.0791821 0.88794827
4.1683078 -3.0862381 0.89450306
4.1741948 -3.06475 0.892726
4.1758509 -3.0734153 0.88523275
4.1753359 -3.0695634 0.87753892
4.1870432 -3.0599101 0.89274585
4.1868734 -3.0427575 0.87689304
4.1982279 -3.035913 0.89115638
4.1915727 -3.0395644 0.89342183
4.2065053 -3.0313873 0.88369459
4.2020383 -3.0301986 0.87754381
4.2179842 -3.0175943 0.87852961
4.2204766 -3.0034037 0.89519
4.2211843 -3.0118492 0.87736571
4.2343898 -3.0050941 0.87756777
4.2398934 -2.9909079 0.88159162
4.3915 -3.0882809 0.8010819
4.3964906 -3.0912275 0.81742209
4.3957362 -3.0850804 0.80426145
4.3972387 -3.0682442 0.8134225
4.4090056 -3.0801098 0.81791121
4.4146128 -3.0602567 0.80913705
4.4211974 -3.0621297 0.80868053
4.4244337 -3.0475061 0.81389946
4.4298372 -3.043879 0.81998867
4.4154344 -3.0389426 0.81437331
4.4250464 -3.0374897 0.81260961
4.4299893 -3.0353732 0.80178636
4.4312634 -3.0183296 0.81099087
4.4393682 -3.0240939 0.81090635
4.436626 -3.0023928 0.81282479
4.4583631 -2.9993775 0.80845928
4.4513178 -2.9940622 0.81607735
4.4638071 -2.9897861 0.81216985
4.6150551 -3.0876694 0.72988528
4.618979 -3.0807045 0.74222469
4.6172791 -3.0683773 0.72984993
4.6338062 -3.0753486 0.73341858
4.6395011 -3.0652788 0.72785163
4.6343918 -3.0513279 0.73033565
4.6491885 -3.0443354 0.72832984
4.645895 -3.0398123 0.7431426
4.6582265 -3.0465326 0.73706818
4.6581674 -3.0249534 0.72906125
4.6541915 -3.0298553 0.7402522
4.6637712 -3.0151491 0.73197335
4.6656809 -3.0064504 0.72958106
4.6752067 -3.0055227 0.73377061
4.668292 -3.0031896 0.74157745
4.6758013 -2.9902463 0.73687631
4.8416028 -3.086617 0.65685439
4.8497114 -3.0704865 0.65073377
4.8526235 -3.0662773 0.65141612
4.8494515 -3.0663712 0.66719532
4.858263 -3.0546761 0.65158427
4.8582563 -3.0576277 0.66418493
4.8699613 -3.0428863 0.65898401
4.8792644 -3.0428269 0.66820455
4.8727479 -3.0338809 0.65324622
4.8740282 -3.0216153 0.66471332
4.8905983 -3.0235457 0.65312558
4.8829856 -3.0016787 0.65092117
4.8892426 -3.0012009 0.66617268
4.8961725 -2.9881868 0.65457094
4.8988724 -2.9906435 0.66789913
5.0638251 -3.0739348 0.57565588
5.0636301 -3.0730097 0.5872255
5.0782242 -3.0670352 0.59207129
5.0820289 -3.0518222 0.57907403
5.0708652 -3.0595634 0.59154731
5.0911589 -3.0349603 0.57528907
5.079855 -3.042186 0.5740912
5.0863371 -3.0273612 0.5865584
5.0880604 -3.0298035 0.58522099
5.0981722 -3.0137336 0.57460237
5.1016021 -3.0147629 0.59041679
5.1086278 -3.0002904 0.58009976
5.107213 -2.9955173 0.58869445
5.2702346 -3.0848961 0.5095849
5.2807789 -3.0758159 0.51150811
5.2837863 -3.0707054 0.51095372
5.2905254 -3.0611525 0.51608706
5.2960563 -3.0493615 0.50895268
5.294044 -3.040081 0.5122776
5.3106842 -3.0449128 0.50456792
5.3166952 -3.0305285 0.50871885
5.3185101 -3.0133231 0.50022608
5.309998 -3.0217266 0.50938451
5.31007 -3.0108933 0.51570946
5.3268714 -2.9938207 0.50375807
5.3255849 -2.9980352 0.50955451
7.1667228 1.0459805 0.11393436
7.1642423 1.0485557 0.10568605
7.1687326 1.0914068 0.10413247
7.1712074 1.1131339 0.10101201
7.1647882 1.1145558 0.11143846
7.1577635 1.1337445 0.10967968
7.159656 1.1348727 0.1053517
7.1527429 1.1475619 0.11390691
7.1597104 1.1646754 0.11406657
7.1595898 1.1742885 0.11022653
7.1424623 1.1948843 0.10421422
7.1502194 1.200036 0.11155911
7.1503134 1.2061386 0.10728956
7.1549225 1.2073591 0.11445296
7.1499443 1.2231053 0.11081815
7.1521001 1.2561783 0.10854223
7.1495485 1.2492548 0.10043954
7.1481118 1.2732905 0.10781024
7.1394181 1.288868 0.11244866
7.1271181 1.2883155 0.10525964
7.1221495 1.3095192 0.11420429
7.1328969 1.3170079 0.11440282
7.130794 1.3212081 0.10038345
7.1225591 1.3683619 0.11332317
7.1137438 1.3769675 0.10523941
3.8028994 3.0012619 1.0714617
3.8071306 3.0068855 1.0818573
3.7993555 2.9942942 1.0719817
3.7994592 3.008281 1.068265
3.7804589 3.0222127 1.0760157
3.7799253 3.0240619 1.069818
3.7746217 3.01706 1.0702076
3.7727296 3.0208991 1.0725309
3.7686749 3.0241463 1.073418
3.7674737 3.0363815 1.0821127
3.7637751 3.0499725 1.0817652
3.7678471 3.0519555 1.0817463
3.7623072 3.0503314 1.0638467
3.7468843 3.0529864 1.0746505
3.7477374 3.0608242 1.0741084
3.7363341 3.0723186 1.0701437
3.7387259 3.0827067 1.0739112
3.7414999 3.075408 1.0762576
3.7265902 3.0882666 1.0765972
3.7325599 3.0841436 1.0639237
3.7272174 3.100549 1.0795988
3.7215199 3.1052604 1.0720203
3.7157967 3.1086736 1.0775874
3.7121663 3.1209126 1.0805849
3.5573123 2.9987583 1.1406958
3.5640965 3.0087686 1.1525941
3.5469086 3.0054412 1.1496739
3.5534816 3.009166 1.1542543
3.5423942 3.0222664 1.1464987
3.5316393 3.025629 1.1494312
3.5282042 3.0279491 1.1435864
3.5404372 3.0288787 1.1572763
3.525085 3.0283992 1.1492084
3.5152929 3.0486107 1.1482149
3.5084913 3.0403173 1.1394112
3.5072999 3.0429766 1.1556631
3.5179996 3.0526242 1.1436392
3.5057726 3.0530274 1.1503975
3.4981189 3.0665324 1.1453192
3.502703 3.0734792 1.1386727
3.4902127 3.0811942 1.1494211
3.4918706 3.0853522 1.1561798
3.4872119 3.0783749 1.1575456
3.4744785 3.0858293 1.1542156
3.4807448 3.090713 1.1376905
3.4782007 3.0986426 1.1389294
3.4719019 3.1015162 1.144926
3.4535723 3.1164141 1.1464419
3.4619942 3.1079164 1.1565853
3.3075676 3.0038812 1.2232978
3.3044252 2.995821 1.2183652
3.3120246 3.0136976 1.2127305
3.3063765 3.0112007 1.2152648
3.3020875 3.0202625 1.2204055
3.2944622 3.0198896 1.225588
3.2903054 3.0212779 1.2138642
3.2873809 3.0206797 1.2201843
3.290447 3.0260711 1.2165784
3.2750225 3.0442102 1.2196568
3.2697351 3.0500185 1.2182745
3.2766595 3.03685 1.2242185
3.2586448 3.0554526 1.2234315
3.2549891 3.0525851 1.2155457
3.2538614 3.0496135 1.2321258
3.2578681 3.0632076 1.2237428
3.247051 3.0768425 1.2121642
3.2445037 3.0717568 1.215409
3.2482703 3.0739472 1.2194726
3.2284245 3.0849299 1.2171088
3.2316511 3.0948479 1.2159928
3.233489 3.0959198 1.2171533
3.2212646 3.1032126 1.2123677
3.2282467 3.0910919 1.2201717
3.2073371 3.1020918 1.2204671
3.2030013 3.1013529 1.2298256
3.2102761 3.114058 1.2282938
3.2059662 3.1084831 1.2171571
3.2048948 3.1309483 1.2236979
3.187881 3.1178477 1.216714
3.0560632 3.0022142 1.2896414
3.0557387 3.0025716 1.3046511
3.0565689 3.0150037 1.3024646
3.0526073 3.018723 1.3036741
3.0364439 3.0258441 1.2914064
3.0405703 3.0129471 1.2939287
3.034049 3.0316489 1.304691
3.02599 3.0303707 1.3054194
3.0267885 3.0323577 1.3041601
3.014122 3.0416734 1.3053533
3.0144658 3.0359538 1.2965177
3.0132368 3.0540831 1.3037897
3.0070114 3.0572214 1.2992495
2.998594 3.0605836 1.2941904
2.99138 3.0519733 1.2920201
2.9918926 3.0716863 1.2927262
2.9949217 3.0690804 1.2879133
2.9887073 3.0626245 1.2976077
2.9832156 3.0811815 1.3050801
2.9764588 3.0712922 1.2976651
2.9708893 3.085973 1.3003335
2.9764783 3.0836568 1.29694
2.9693339 3.0993533 1.2924995
2.9576433 3.0908761 1.2872419
2.9608879 3.0994344 1.2892008
2.9419563 3.1127608 1.2867048
2.9437253 3.1133776 1.2974417
2.9406755 3.1120467 1.297567
2.9273143 3.1094971 1.2920998
2.9414201 3.1244688 1.2925998
2.9281049 3.1181557 1.3036429
2.9174526 3.1217217 1.2882383
2.9234011 3.1424391 1.3044045
2.7986 2.9997599 1.3624681
2.7750292 3.000464 1.3704823
2.7734118 3.0065501 1.3677154
2.7692928 3.018724 1.3614635
2.7759056 3.0121727 1.3697855
2.7626383 3.0165911 1.3714683
2.7638984 3.0194511 1.3640397
2.7656529 3.0333381 1.3662205
2.7584453 3.0409203 1.3678961
2.7558277 3.0388041 1.3662239
2.7493711 3.0425491 1.373821
2.7464786 3.0468981 1.3782456
2.7315948 3.0538094 1.3648851
2.7339387 3.0607872 1.3798335
2.7300255 3.0585685 1.3643715
2.7344291 3.0672784 1.3694745
2.72051 3.0614498 1.3735902
2.7191572 3.0615828 1.3677512
2.7199798 3.0787201 1.3656586
2.7024727 3.0774577 1.3776201
2.7032881 3.073961 1.3695028
2.6916957 3.0918002 1.3619164
2.7045221 3.078989 1.3774291
2.6839833 3.0927608 1.3761137
2.6783874 3.0868635 1.3687792
2.6773243 3.0896189 1.3663603
2.6813591 3.1027102 1.3743246
2.6695044 3.0987084 1.3786393
2.6718054 3.0997944 1.3763151
2.6720085 3.1076438 1.3689579
2.6641681 3.1205845 1.3743397
2.6482053 3.1262136 1.3738022
2.6446507 3.1289556 1.376701
2.6566038 3.1354501 1.3696249
2.6472363 3.1406453 1.372911
2.6305292 3.1290793 1.3752182
2.631398 3.1458552 1.366888
2.6402261 3.1350887 1.3708336
2.5144506 3.0084267 1.4466431
2.5054581 3.0086384 1.4520973
2.4891033 3.005338 1.4467878
2.4981258 3.0104079 1.4434093
2.4866056 3.0162618 1.4390805
2.4779797 3.0184124 1.43756
2.4822726 3.0155439 1.4375546
2.469847 3.0203223 1.4423093
2.4797237 3.0303285 1.440172
2.4612653 3.0335267 1.4436064
2.466748 3.0342317 1.4392369
2.4535408 3.0501192 1.4515958
2.4657831 3.0538323 1.4371763
2.4527113 3.0507524 1.4443548
2.4562564 3.0603423 1.453921
2.4354675 3.0455003 1.4421774
2.4331536 3.0591509 1.444111
2.4308295 3.06458 1.4473745
2.4332554 3.0640945 1.4372014
2.4335392 3.0693645 1.4467897
2.4172525 3.0643356 1.4536521
2.4165921 3.070323 1.4529772
2.4082856 3.0727808 1.4525961
2.405555 3.0863998 1.4457221
2.4099982 3.087801 1.4450306
2.4040029 3.0926559 1.4460959
2.4062593 3.0994439 1.4374166
2.3904448 3.0881598 1.4507766
2.3978891 3.1035578 1.4402678
2.3751557 3.1035011 1.4516515
2.3820057 3.1114237 1.4546347
2.3757138 3.1029565 1.4402397
2.3687422 3.1104579 1.444943
2.3613851 3.119509 1.4399114
2.3671491 3.1172879 1.4529334
2.3522172 3.1133609 1.4474689
2.358346 3.1159842 1.4454566
2.3557909 3.1270916 1.4488305
2.3465912 3.1299465 1.444279
2.3468783 3.134376 1.4363528
2.3385444 3.1299682 1.4530379
2.3331892 3.1435857 1.43795
2.3334346 3.1345532 1.4470643
2.3183787 3.1424899 1.4419359
2.3182867 3.1405218 1.4512991
2.3112123 3.1479571 1.4534538
2.2091475 3.0160091 1.5294508
2.1947966 3.0155501 1.5187917
2.1838155 3.010241 1.5277245
2.1882782 3.009573 1.5178297
2.1848109 3.0249298 1.5202761
2.1780243 3.0192945 1.513095
2.1761456 3.0182722 1.5136428
2.1633768 3.026566 1.5188946
2.1654754 3.0391445 1.5189517
2.1569331 3.0290298 1.5232235
2.1505413 3.030757 1.5221856
2.145648 3.0423143 1.5176332
2.1500914 3.0470753 1.5247222
2.1434634 3.0404882 1.5280995
2.1469367 3.0546277 1.5237958
2.1328518 3.0461779 1.5108249
2.131582 3.0600514 1.5138056
2.130856 3.0653625 1.5220599
2.1153774 3.0569825 1.5198784
2.1199517 3.0642748 1.5245736
2.108794 3.0693941 1.5279934
2.1165941 3.0738432 1.519974
2.0998378 3.0669627 1.5137248
2.1101663 3.0776856 1.5179038
2.103868 3.076117 1.5132432
2.0932622 3.0847034 1.5171598
2.0896811 3.0762639 1.511983
2.0890768 3.091346 1.5291561
2.0767226 3.0952017 1.514994
2.0821831 3.087888 1.5251751
2.0723345 3.0936766 1.5175323
2.065902 3.0915296 1.5114012
2.0714459 3.0968945 1.5154581
2.0507367 3.0968606 1.5273128
2.0542023 3.1148052 1.5146794
2.0530035 3.1064243 1.5277191
2.0557172 3.1187472 1.5294118
2.0332503 3.1147547 1.5232853
2.0479522 3.1227009 1.5181189
2.0284884 3.120404 1.5227493
2.0392017 3.1325598 1.5102849
2.0222683 3.1225877 1.512796
2.0191996 3.1224685 1.5178009
2.020184 3.1259527 1.5199064
2.0130193 3.1372197 1.5170972
2.0132172 3.1316087 1.5230539
2.0064509 3.1330361 1.5184863
2.0013735 3.1363256 1.5270849
1.9901656 3.1386497 1.5207945
1.9937875 3.1458466 1.5293783
1.9820359 3.1480975 1.5272946
1.9778161 3.1577594 1.5124221
1.9761035 3.1487012 1.5146195
1.9793921 3.1649799 1.5174963
1.9647824 3.1584501 1.5288416
1.8696573 2.9986658 1.5862774
1.8584077 3.0141556 1.58786
1.8625871 3.0089364 1.5899514
1.8553613 3.0168815 1.5915928
1.8418416 3.0128245 1.5976629
1.836902 3.0213959 1.6032218
1.8498753 3.0301313 1.5956868
1.8279724 3.0215416 1.5963438
1.8282634 3.0206318 1.5905359
1.8314277 3.0295074 1.5954607
1.8259337 3.0253594 1.5956825
1.8233776 3.0341442 1.5888054
1.8224007 3.0312941 1.594126
1.8035116 3.0454082 1.5848144
1.8062605 3.0501957 1.5888746
1.7950759 3.0542402 1.5989405
1.7894467 3.0554585 1.5951822
1.7962791 3.0589778 1.6002803
1.7837648 3.0469956 1.6019207
1.7854394 3.0623887 1.5898949
1.7720351 3.0565023 1.5911849
1.7788494 3.0522778 1.5987294
1.7787831 3.0712981 1.6008997
1.7640339 3.0756545 1.5946655
1.7599697 3.0669885 1.5907062
1.7599622 3.0713701 1.5882851
1.7500173 3.074358 1.6045815
1.7563106 3.0684173 1.6019025
1.7476987 3.0742052 1.5847524
1.7407237 3.0859134 1.6005126
1.7417196 3.0884671 1.5879093
1.7440021 3.082088 1.5886108
1.7338258 3.0798988 1.5858675
1.7258164 3.0872204 1.5850216
1.7315694 3.0947411 1.5930564
1.7133598 3.0865211 1.6030256
1.7127258 3.0926261 1.5935415
1.7083849 3.1092978 1.5956815
1.7013615 3.1016345 1.6011802
1.6971849 3.1112766 1.5959638
1.6887652 3.1061983 1.590884
1.6877389 3.1076894 1.5970136
1.6874108 3.1032946 1.5985488
1.6843362 3.1151838 1.5850064
1.6804123 3.1171234 1.5965912
1.66452 3.1251538 1.5975688
1.6785936 3.1168537 1.6022701
1.66318 3.1285198 1.6012679
1.6699032 3.1174726 1.5902333
1.6621218 3.1265628 1.5864775
1.6491208 3.1315501 1.5952863
1.6510366 3.1398313 1.603235
1.639079 3.132108 1.6044437
1.6486533 3.1456368 1.5952028
1.644682 3.1395714 1.5855684
1.6322926 3.1419473 1.6016375
1.6208775 3.1427331 1.5870856
1.6141605 3.1524451 1.601885
1.6264383 3.1532233 1.6033287
1.6076782 3.1505659 1.5915599
1.6051593 3.1592572 1.6024818
1.6114459 3.1542168 1.5993944
1.6056782 3.1615744 1.5862993
1.6011161 3.1628654 1.6044546
1.5873101 3.1645472 1.5942725
1.5838666 3.158205 1.6042
1.576489 3.1648159 1.5926535
1.5745565 3.1690814 1.588565
1.5674202 3.1699994 1.6030068
1.5617247 3.1765351 1.5925497
1.5642573 3.1849329 1.5885483
1.476105 3.0172939 1.6717713
1.466699 3.0148683 1.6656345
1.464195 3.0122709 1.6785716
1.4598434 3.0202615 1.6709794
1.4653069 3.0092051 1.6748401
1.460695 3.0151711 1.6631131
1.4445338 3.0236073 1.6734591
1.4442813 3.0293133 1.6625366
1.4384679 3.0337327 1.6759697
1.4421945 3.0250967 1.6756266
1.4419169 3.0343273 1.6721842
1.4303653 3.0383372 1.664268
1.4326741 3.0440314 1.6717125
1.4279172 3.0295646 1.6651112
1.4155654 3.0447552 1.665423
1.4070716 3.0395305 1.6696764
1.4068481 3.0423443 1.6603473
1.4169676 3.0491076 1.6747116
1.3961622 3.0542624 1.6714883
1.388787 3.0473516 1.677628
1.4010661 3.044374 1.6710035
1.3899 3.0540581 1.6663995
1.390815 3.0502672 1.6655062
1.379172 3.0659382 1.6681689
1.3809248 3.0534792 1.6640506
1.3829869 3.0567508 1.672742
1.3692997 3.0640256 1.6622874
1.3662808 3.0656505 1.6766422
1.3576233 3.0707021 1.6742039
1.3657401 3.072614 1.6629131
1.3599939 3.071043 1.6667084
1.3476206 3.0625465 1.6782577
1.3506408 3.0792086 1.6640918
1.332765 3.0684736 1.6636789
1.3375492 3.0837402 1.6688944
1.3382126 3.0853202 1.6754751
1.3275648 3.0774672 1.6674305
1.3264599 3.090852 1.659116
1.3197072 3.0798385 1.6739647
1.3105136 3.0812039 1.6688428
1.3100268 3.0810878 1.6602732
1.3133326 3.0928655 1.6613365
1.3081852 3.0919333 1.6771972
1.2888696 3.0973973 1.6604642
1.2891384 3.0919209 1.677145
1.2946203 3.0913854 1.6735593
1.2866803 3.1044822 1.6602796
1.2706934 3.1007566 1.67855
1.2663895 3.0945637 1.6639782
1.2769318 3.1034653 1.668949
1.2623496 3.0961699 1.6719868
1.2591954 3.1164737 1.6649915
1.2571021 3.1159253 1.6752591
1.250867 3.1203592 1.6691921
1.2478966 3.1093621 1.6758558
1.2416046 3.10815 1.6601971
1.2317243 3.1233034 1.6758546
1.2285621 3.1267776 1.6660119
1.2236679 3.1102581 1.6682076
1.2241994 3.1285939 1.6775421
1.2296994 3.1166627 1.6778247
1.2182349 3.125895 1.6766603
1.2197727 3.1173542 1.673203
1.2115757 3.1269009 1.672441
1.1973094 3.1378021 1.6789496
1.2097043 3.1267385 1.6625196
1.2064383 3.1301248 1.6595225
1.1988275 3.134681 1.6782854
1.1813717 3.1386774 1.6788206
1.1861093 3.1475425 1.6759893
1.1801791 3.1462467 1.6595308
1.1745292 3.1378281 1.6706145
1.1677127 3.1352916 1.6714734
1.1574366 3.1489043 1.6602011
1.1663964 3.1525993 1.678158
1.1618624 3.1530404 1.6633857
1.1608962 3.1545689 1.6703399
1.1569307 3.152842 1.6601968
1.1517258 3.1580176 1.6724026
1.147054 3.1522908 1.671832
1.1395485 3.1649966 1.6683303
1.1355824 3.1564174 1.6747811
1.1226978 3.1653886 1.6770719
1.1306701 3.1684532 1.6713586
1.1273676 3.164849 1.6677293
1.12202 3.1610847 1.6629364
1.1018981 3.1607304 1.6780733
1.1087283 3.1607888 1.669891
1.1054131 3.1600227 1.6652977
1.0943015 3.1789677 1.6733975
1.0826172 3.1747921 1.6726289
1.0874293 3.1710377 1.6617129
1.0786898 3.1787879 1.6782063
1.0722393 3.1789017 1.6762085
1.0800731 3.1801069 1.6690569
1.0642757 3.1803601 1.6765976
1.0636835 3.1848893 1.6622467
1.058226 3.1806488 1.666423
1.0645841 3.1774955 1.6683083
1.046347 3.1876347 1.6676196
1.0562075 3.1904962 1.6612428
1.0452975 3.1825783 1.669605
1.0434694 3.1903317 1.664217
1.0381328 3.1960471 1.6774486
0.97417337 3.0172503 1.7448916
0.95993018 3.0237551 1.736612
0.97322589 3.014087 1.7513858
0.9521687 3.0233827 1.7404497
0.95528597 3.0234599 1.7448968
0.96028668 3.0297253 1.7380261
0.94459701 3.0302789 1.7525661
0.99742126 3.201658 1.663249
1.0034657 3.1984107 1.674741
0.98412013 3.1942601 1.6705163
0.9780044 3.2072079 1.6628294
0.98483551 3.210103 1.6603063
0.98338497 3.2104859 1.6667799
0.97670639 3.2140057 1.6612198
0.95908988 3.2048385 1.6744136
0.9659186 3.2048697 1.6725551
0.96587479 3.2134109 1.6699386
0.96036905 3.2240849 1.6600891
0.94003874 3.2252538 1.665616
1.0031129 3.3897309 1.5911278
0.98979723 3.3944185 1.6027178
0.98879278 3.390393 1.5958451
0.98526347 3.4093752 1.5880038
0.96820575 3.4061389 1.6023368
0.96558613 3.4097476 1.5861636
0.97615826 3.4046488 1.5886889
0.96487015 3.4039717 1.5984284
0.95096362 3.402256 1.5975217
0.94720572 3.4046793 1.5964701
0.948973 3.4027333 1.6003869
0.9999159 3.5911705 1.513123
0.99302554 3.5844183 1.5149608
0.97926056 3.5988619 1.51442
0.97765231 3.6009748 1.5292888
0.9703753 3.585197 1.5264187
0.96692318 3.604722 1.517109
0.96599436 3.5976918 1.5257879
0.95480335 3.6014893 1.5114237
0.96270382 3.6062655 1.5181618
0.99646938 3.777128 1.4471453
0.9869805 3.7749863 1.4387755
0.98472011 3.7909458 1.4422839
0.98429555 3.7781334 1.4388732
0.98332834 3.7887082 1.4362197
0.97722805 3.7970033 1.4364398
0.96825582 3.786845 1.4548433
0.94997209 3.7807589 1.4448819
0.96036541 3.7884843 1.4373904
1.0010511 3.9692712 1.3788601
0.98356295 3.9818172 1.364792
0.98955077 3.9701331 1.3672103
0.9671669 3.9814491 1.3642234
0.96828943 3.977603 1.3670669
0.96599942 3.978054 1.3791353
0.96105409 3.9776711 1.3781561
0.95632696 3.9735839 1.3656833
0.99264485 4.1571269 1.2913023
0.9761039 4.1757503 1.2978208
0.97206956 4.1756744 1.3036567
0.9639973 4.1636372 1.3006707
0.96185511 4.1631165 1.3046404
0.96212924 4.1657424 1.2985739
0.9594146 4.1750231 1.2873163
0.95954162 4.1675477 1.295173
0.9517352 4.1806631 1.3013176
0.94294775 4.1745896 1.3020535
0.94168574 4.1877303 1.3043747
0.92053527 4.1701241 1.3039541
0.92590141 4.1742792 1.3021005
0.91710168 4.1761599 1.2868603
0.90531421 4.1816974 1.2897584
0.89749473 4.1933107 1.2939492
0.90360683 4.1880126 1.3060958
0.89845985 4.1886468 1.2894506
0.88116777 4.1872811 1.3046125
0.89001852 4.1829371 1.2924002
0.87960345 4.1831412 1.2920364
0.87150794 4.1880074 1.2927819
0.8629902 4.1840539 1.2964065
0.85261714 4.1971169 1.3006436
0.84700233 4.2042093 1.2891586
0.84428388 4.189302 1.2880353
0.84575468 4.2063279 1.3003703
0.83937043 4.20403 1.292104
0.83633947 4.1902642 1.3012449
0.82846868 4.1911759 1.3048224
0.808384 4.2075 1.2873933
0.80793399 4.2015586 1.2936277
0.8082279 4.2129307 1.2947137
0.79214489 4.1997628 1.287676
0.80029738 4.2068148 1.3065525
0.77696341 4.2169843 1.2893516
0.77250457 4.2144628 1.2880147
0.7803793 4.2113967 1.3032256
0.75998616 4.2111406 1.3035252
0.76873243 4.2088561 1.3035988
0.76105481 4.2123318 1.2988672
0.7559467 4.2212033 1.287073
0.73707139 4.2162156 1.3055378
0.73928082 4.2209945 1.2897298
0.73445094 4.2197762 1.299877
0.72849619 4.221076 1.2991055
0.72533917 4.2237701 1.2947322
0.72084373 4.2201943 1.3062204
0.71155792 4.2220821 1.2963886
0.70257038 4.218574 1.3032169
0.69365501 4.2132478 1.2924731
0.70000678 4.2286744 1.2895613
0.69456303 4.2310882 1.3006309
0.68758273 4.2215753 1.2954563
0.68479311 4.2330976 1.2880486
0.67214948 4.2245317 1.300934
0.65873301 4.2386765 1.2955155
0.6609419 4.2341962 1.305531
0.65463775 4.2263002 1.2964523
0.63850057 4.2352891 1.3028916
0.64919043 4.2412362 1.3030393
0.62913531 4.2394099 1.2976563
0.62616706 4.2380157 1.2937379
0.61426735 4.2355189 1.2993654
0.61719179 4.2361116 1.2955827
0.61270738 4.2299404 1.3023095
0.60110712 4.2362342 1.3022654
0.60408723 4.2306199 1.2968326
0.59708172 4.244585 1.3026041
0.58099633 4.2482982 1.2964729
0.5713492 4.2485876 1.2954055
0.58184862 4.2347097 1.2916366
0.56696391 4.243752 1.305607
0.5681597 4.2467852 1.2962219
0.55498195 4.2386336 1.3065789
0.55802035 4.2518902 1.2899227
0.54778457 4.2394404 1.2987264
0.53750366 4.2558651 1.3010899
0.54178882 4.2511802 1.2966012
0.5318445 4.2563071 1.2950165
0.51576805 4.2576852 1.2929205
0.51862317 4.2554617 1.2961537
0.51770842 4.2442541 1.287645
0.51076299 4.2601433 1.301393
0.49443153 4.2487578 1.3062218
0.48845613 4.246314 1.3035476
0.4858236 4.2595391 1.2876718
0.47199386 4.2483892 1.2874777
0.48052675 4.2474308 1.301864
0.46457005 4.2624359 1.3006506
0.46702775 4.2472734 1.3000965
0.4473885 4.2608762 1.296609
0.45098153 4.2594743 1.3012118
0.44606501 4.2570391 1.3010106
0.43489575 4.264185 1.2887383
0.42855445 4.2512689 1.2933451
0.41953805 4.2616348 1.2905083
0.41464514 4.2640867 1.2958609
0.40955734 4.2609878 1.299603
0.41885504 4.2678494 1.2977064
0.40693843 4.2630873 1.3000115
0.39446709 4.2646046 1.2952917
0.39850742 4.2556348 1.288551
0.38714987 4.2676697 1.298764
0.37559032 4.2544565 1.2955203
0.37175775 4.2608247 1.2987663
0.37253127 4.2641001 1.2917923
0.37046728 4.2684064 1.2866924
0.35375518 4.2735496 1.2979242
0.34078449 4.2739162 1.2954564
0.34591654 4.2682934 1.2876732
0.33335307 4.2761259 1.300863
0.33606914 4.2739267 1.3045467
0.33204386 4.2662988 1.2997371
0.31823105 4.2730408 1.3011947
0.32117391 4.2618804 1.288509
0.3073622 4.2774248 1.2985954
0.30657592 4.2768364 1.2924932
0.30068916 4.2654681 1.2910478
0.2860336 4.2670622 1.2894909
0.2889097 4.2797222 1.3018409
0.28400218 4.2657528 1.3015617
0.27228385 4.2804341 1.2986301
0.26424873 4.2770262 1.2876256
0.25140345 4.2657413 1.3029263
0.26001528 4.2633357 1.2866381
0.25594106 4.273056 1.3054738
0.24195267 4.2679281 1.3033093
0.24186163 4.2828522 1.2893732
0.24032477 4.2690592 1.2966357
0.21723066 4.264082 1.2961712
0.22648607 4.2801375 1.3013586
0.21546189 4.2704153 1.3008571
0.20150571 4.2785993 1.2965853
0.19654457 4.2798791 1.3006749
0.18688376 4.2757134 1.3020138
0.18093446 4.273416 1.2927358
0.17382053 4.2830734 1.2980011
0.18454179 4.278583 1.2978694
0.16132651 4.2785001 1.3036329
0.16537355 4.2812672 1.3041152
0.16895571 4.2792344 1.3003575
0.1577249 4.2721229 1.3065903
0.14599232 4.2770009 1.300728
0.14998771 4.2828636 1.2958751
0.13807242 4.2850122 1.3065941
0.12749577 4.287158 1.2947617
0.12764095 4.2681365 1.2923409
0.11305112 4.2857842 1.3051924
0.11832951 4.2861643 1.2977316
0.1093711 4.2765398 1.2928172
0.10089488 4.2764454 1.305658
0.088660747 4.271069 1.2911829
0.082659252 4.2799087 1.3013899
0.090795241 4.2786932 1.2972723
0.074078269 4.271512 1.2951238
0.068080209 4.2797036 1.2949502
0.070249587 4.2739906 1.295593
0.049997997 4.2796378 1.2937293
0.042597797 4.2765136 1.2920997
0.047736794 4.2703819 1.3007077
0.047961414 4.2817245 1.2890922
0.041026622 4.2867837 1.2919793
0.01961676 4.2717929 1.3035938
0.028413929 4.2708893 1.2938883
0.013093413 4.2792196 1.2969058
0.015624388 4.2875037 1.2880272
-0.0020182221 4.2839088 1.2933561
0.00098198815 4.2860141 1.3042612
0.0021184338 4.2866712 1.2919796
-0.018374678 4.2784185 1.2935116
-0.01025972 4.2763433 1.3063403
-0.03376022 4.2732849 1.3041906
-0.034373533 4.2747684 1.2870207
-0.043372337 4.2710018 1.2889258
-0.042076401 4.2778664 1.2991487
1.4342036 -4.9848676 0.91488123
1.4276838 -4.9899325 0.92715609
1.4424931 -4.9852734 0.91942728
1.4444464 -4.9739451 0.91903508
1.4536035 -4.9872947 0.91896343
1.413749 -4.8048177 0.99135667
1.4237708 -4.8071165 1.0027639
1.4244157 -4.7909722 0.99608988
1.4262723 -4.8033056 0.99701029
1.4318535 -4.7884707 1.0019709
1.4377604 -4.7900767 0.99701297
1.4451834 -4.7851729 1.0050055
1.4648784 -4.7924275 0.99566334
1.4029733 -4.6070738 1.0701394
1.4142938 -4.5972195 1.0747583
1.4255399 -4.6022983 1.0816201
1.4346823 -4.604063 1.0642228
1.4352289 -4.5918875 1.0809999
1.4490989 -4.604558 1.0634643
1.4438865 -4.5983467 1.078775
1.4636319 -4.5929255 1.0704815
1.4584166 -4.5867753 1.0650845
1.4050946 -4.4106922 1.1449105
1.418277 -4.4063411 1.1559503
1.4314384 -4.4171081 1.1548841
1.4292159 -4.4030633 1.1467704
1.4338526 -4.4063091 1.154914
1.4410892 -4.3954382 1.1532459
1.4450999 -4.3971238 1.1569114
1.4515723 -4.3904457 1.144783
1.4533527 -4.3904438 1.156062
1.4668368 -4.4020758 1.1514684
1.4163599 -4.2212205 1.2184913
1.429527 -4.2095594 1.2134085
1.4337312 -4.2108998 1.2155881
1.4368665 -4.2206235 1.2298324
1.4318854 -4.2118688 1.2188427
1.435045 -4.2020321 1.2167275
1.4565338 -4.2143373 1.2309211
1.4616853 -4.2063198 1.2297786
1.4547055 -4.2026687 1.2266154
1.4590019 -4.1916771 1.2297891
1.4176873 -4.0234494 1.290144
1.4096683 -4.0233254 1.3056995
1.4165637 -4.0248871 1.2979398
1.4256362 -4.009201 1.2984734
1.42895 -4.0043802 1.3057706
1.4412714 -4.0022817 1.3009049
1.4514748 -4.0045733 1.3017263
1.4558691 -4.0075893 1.2885495
1.459118 -4.003458 1.2970001
1.4592009 -4.0009012 1.2944095
1.4624546 -4.0045123 1.3027132
1.4715661 -4.0017619 1.2891773
1.4762303 -3.9977336 1.2921084
1.4931318 -3.9902472 1.2887468
1.490564 -3.985059 1.288219
1.4952908 -3.9931583 1.2877951
1.4951488 -3.9966605 1.3030772
1.5158254 -3.9813719 1.2933331
1.5233222 -3.9884348 1.3057016
1.5192666 -3.9810126 1.298601
1.5326176 -3.9759316 1.3058558
1.5342691 -3.9873314 1.2938191
1.5423819 -3.9796562 1.3037612
1.5334228 -3.9806659 1.2991322
1.5410992 -3.9698269 1.2976264
1.5482447 -3.9798417 1.3059484
1.5549632 -3.9755764 1.2886875
1.5569611 -3.9562092 1.3046268
1.5692116 -3.9549172 1.2914069
1.5738276 -3.9632497 1.3035049
1.5713401 -3.9637973 1.2985721
1.5961041 -3.9482565 1.3001198
1.5888286 -3.9501629 1.2872152
1.5914919 -3.9465857 1.2911658
1.6095232 -3.9408863 1.3038125
1.6060456 -3.9535928 1.3042935
1.6108868 -3.9451287 1.2868814
1.6184641 -3.9402118 1.2866702
1.6219774 -3.9485867 1.305577
1.6322678 -3.9378848 1.2939696
1.6346531 -3.9352064 1.2996252
1.6321023 -3.9332969 1.2986243
1.651096 -3.9241929 1.2935119
1.657182 -3.9379525 1.2897639
1.6672155 -3.9192047 1.2894951
1.6698923 -3.929455 1.2942917
1.6730469 -3.9203815 1.3053166
1.6787863 -3.9292455 1.2990146
1.6843112 -3.9201071 1.3020865
1.6887395 -3.9261868 1.2936014
1.6815574 -3.9153862 1.3055279
1.7000273 -3.9126382 1.2970896
1.6974932 -3.9163949 1.2954731
1.7098433 -3.8995614 1.2978072
1.7184421 -3.8981867 1.2965919
1.7267689 -3.8996241 1.3028212
1.7198888 -3.9033926 1.2958109
1.7240303 -3.9069045 1.2976164
1.7418665 -3.8903711 1.306232
1.7427711 -3.8948851 1.3064322
1.7551874 -3.8920543 1.2950897
1.7595268 -3.8962231 1.3041443
1.7554245 -3.8883924 1.2870831
1.7697023 -3.8736746 1.3044893
1.7663108 -3.8758178 1.300896
1.7817005 -3.8750906 1.293484
1.783316 -3.8666964 1.2999139
1.7779179 -3.8796105 1.3004351
1.7943218 -3.8801348 1.2950852
1.7993377 -3.8651974 1.3028092
1.8045505 -3.8632836 1.2909442
1.7984174 -3.8624666 1.2924832
1.8013352 -3.8511846 1.299418
1.8071884 -3.8510544 1.2986279
1.8304441 -3.8597419 1.2932446
1.8301032 -3.8584623 1.3061309
1.8423465 -3.8409863 1.3049461
1.8410163 -3.8543243 1.2883743
1.8402036 -3.8366709 1.2887977
1.8540376 -3.8394101 1.3016707
1.855592 -3.8423421 1.293962
1.8652778 -3.8368092 1.3045673
1.856499 -3.8337567 1.3039438
1.8746513 -3.830246 1.3009322
1.8720099 -3.8288713 1.2867075
1.8839816 -3.833225 1.2912291
1.8888359 -3.8307197 1.2906859
1.8925017 -3.8149257 1.2942564
1.8995922 -3.8253212 1.2929246
1.9071023 -3.8072567 1.3062901
1.9074818 -3.8130078 1.2941529
1.9201488 -3.8144395 1.3049701
1.9234176 -3.8100131 1.296254
1.9260589 -3.8127935 1.2884551
1.925685 -3.803571 1.2994303
1.9310826 -3.8077288 1.3034433
1.9409982 -3.7923808 1.2873456
1.9503667 -3.7987115 1.3044188
1.943302 -3.783293 1.2884656
1.9549017 -3.7857015 1.2879388
1.9598631 -3.7930646 1.2990152
1.9726834 -3.7930903 1.3060067
1.9763173 -3.7751739 1.294764
1.9712311 -3.7799385 1.2980729
1.9783423 -3.770396 1.2879289
1.9964247 -3.780771 1.290944
1.9985163 -3.766542 1.3066169
2.0045063 -3.7682519 1.2932613
2.0075657 -3.7623305 1.292619
2.014668 -3.7701094 1.2868555
2.0212398 -3.7582233 1.2910089
2.0188837 -3.7588093 1.2924093
2.0235155 -3.7610502 1.2889912
2.0369005 -3.7536621 1.2980664
2.0335906 -3.7444439 1.2939343
2.0401328 -3.7424207 1.2966704
2.049686 -3.7435789 1.2908711
2.054908 -3.7440169 1.3005903
2.0467706 -3.7466607 1.2934518
2.057987 -3.7274642 1.2957479
2.0634356 -3.726954 1.2871364
2.0730338 -3.7340536 1.2951376
2.0840285 -3.7217717 1.2980895
2.0916009 -3.7213509 1.3056136
2.0882444 -3.7294819 1.2995329
2.1007519 -3.7163093 1.292645
2.0959914 -3.7188179 1.3017609
2.1054275 -3.7013345 1.2875938
2.1045787 -3.7172151 1.2879304
2.1165874 -3.7071016 1.3046037
2.110888 -3.6967578 1.2989202
2.1165731 -3.7020304 1.3032627
2.1302552 -3.7015185 1.2970057
2.1268852 -3.6986408 1.2882806
2.1310351 -3.6843219 1.2885281
2.1491001 -3.6826935 1.2990448
2.1402729 -3.6910203 1.3041424
2.1605575 -3.6751008 1.3038052
2.166671 -3.6852162 1.3046625
2.1731167 -3.668505 1.2927006
2.1762316 -3.6626711 1.2881428
2.1736588 -3.676326 1.2953656
2.1754243 -3.6614683 1.3001459
2.1909285 -3.6551464 1.3048426
2.1977034 -3.669836 1.3008897
2.2047215 -3.651618 1.2955892
2.2022519 -3.6473804 1.298979
2.2048759 -3.6480069 1.2952981
2.2071583 -3.6476648 1.2985044
2.2102938 -3.6460176 1.2954171
2.221463 -3.6463921 1.2951519
2.22807 -3.6344717 1.2982129
2.2218957 -3.6259136 1.2931052
2.2404974 -3.6269753 1.2912862
2.2437913 -3.6263816 1.2917371
2.2431278 -3.6238852 1.2873583
2.2571597 -3.6289692 1.3041625
2.2545772 -3.6165361 1.2972782
2.2683091 -3.6269231 1.2876668
2.2652428 -3.6192729 1.2966263
2.2790852 -3.6055477 1.3021281
2.2726576 -3.6103046 1.2964599
2.2892869 -3.6063213 1.2962521
2.2808039 -3.6088176 1.291878
2.2904975 -3.5930965 1.3049858
2.3006377 -3.603111 1.2974712
2.3063946 -3.5841618 1.3017465
2.3089511 -3.5928586 1.2953219
2.3046188 -3.5928829 1.2953702
2.3106706 -3.5810282 1.2999214
2.3256776 -3.5803816 1.2950438
2.3261817 -3.5712087 1.3022479
2.3410132 -3.5704482 1.2902669
2.3356323 -3.5632076 1.2926142
2.3458726 -3.5713062 1.2875001
2.3492165 -3.5542932 1.2891822
2.345041 -3.5565474 1.3066169
2.3651364 -3.5612643 1.2921512
2.3588023 -3.5553286 1.2944506
2.3725123 -3.5483515 1.3053874
2.3707688 -3.5513732 1.2937459
2.3841429 -3.5388925 1.2880459
2.3847167 -3.5365775 1.299868
2.3933048 -3.5446355 1.2956851
2.3842356 -3.527441 1.3001509
2.3900476 -3.5318863 1.2983702
2.397537 -3.525486 1.291069
2.4024568 -3.5239646 1.2957776
2.4129057 -3.5137467 1.3031415
2.4256496 -3.5147841 1.2941952
2.4293256 -3.5225255 1.2989328
2.4213555 -3.5018489 1.29285
2.4276805 -3.5055497 1.3057743
2.445823 -3.5056093 1.2873255
2.4397776 -3.49968 1.3027492
2.4381936 -3.4928761 1.2903987
2.454824 -3.4835157 1.3011129
2.4641485 -3.4941638 1.2900059
2.4581766 -3.4792862 1.3057673
2.459564 -3.4765835 1.2971349
2.4720004 -3.4751191 1.2973976
2.4691694 -3.4665344 1.2949671
2.4802511 -3.4765294 1.3054587
2.484252 -3.4732816 1.2925069
2.4897993 -3.4609747 1.3020936
2.4907656 -3.4551425 1.2950866
2.4993765 -3.4575658 1.2940358
2.4986966 -3.4555457 1.2989256
2.5069051 -3.4443734 1.295275
2.51087 -3.4566855 1.2909021
2.5261977 -3.4414279 1.3045621
2.4124992 -3.283838 1.3778627
2.4254398 -3.2902017 1.3632288
2.4288676 -3.2774172 1.3683904
2.4193387 -3.2839332 1.3624003
2.4393916 -3.2743258 1.3787767
2.4324331 -3.2809458 1.3692576
2.4444189 -3.2730789 1.3782796
2.4412899 -3.2618322 1.3749877
2.4545054 -3.2714441 1.3758913
2.4633434 -3.2505469 1.368553
2.4658365 -3.2588782 1.3652732
2.4671314 -3.2588685 1.3722697
2.4737873 -3.240026 1.3686842
2.4656003 -3.2553027 1.3752098
2.4714181 -3.2351115 1.3679633
2.4736075 -3.24646 1.3707112
2.4862731 -3.2303984 1.3779336
2.4879558 -3.2420373 1.3730044
2.5063417 -3.2250271 1.3750584
2.5056267 -3.2237411 1.3745981
2.4975681 -3.2245188 1.3623888
2.5062251 -3.228554 1.3667653
2.5218737 -3.2104809 1.3665538
2.513932 -3.2051377 1.3676289
2.5325108 -3.1985147 1.3654521
2.4093852 -3.068115 1.4429716
2.4232519 -3.0558581 1.4386026
2.4243362 -3.0464425 1.4391326
2.4204867 -3.0431597 1.4532042
2.4386864 -3.0451062 1.4450872
2.4364212 -3.0396204 1.4527113
2.4419417 -3.0299821 1.4528128
2.4518342 -3.0291946 1.4474937
2.4415102 -3.0408437 1.4440179
2.4522569 -3.0184038 1.4436589
2.4608216 -3.0291209 1.444067
2.4524071 -3.0302477 1.4533732
2.4596188 -3.0145617 1.4487301
2.4673555 -3.0069916 1.4439991
2.4691591 -3.0054841 1.4539447
2.482841 -3.010499 1.4459934
2.4841421 -2.994246 1.4442918
2.4855402 -2.9923482 1.4399832
2.4816139 -3.0050175 1.440625
2.4942071 -2.9911785 1.4403003
2.5064366 -2.9930081 1.445846
2.6177571 -3.1301832 1.3723524
2.6198902 -3.1215031 1.3656149
2.6373751 -3.1293051 1.3630172
2.6301239 -3.1195178 1.3784912
2.6328132 -3.1202581 1.3655083
2.6475461 -3.1039016 1.3653307
2.6405723 -3.1103473 1.3635973
2.6492848 -3.1049139 1.3657351
2.6586337 -3.0910776 1.3782465
2.6676531 -3.0891969 1.3654569
2.6622128 -3.0988641 1.3747172
2.677768 -3.0907731 1.3690089
2.6665804 -3.0895667 1.3718436
2.6727903 -3.0799761 1.3808048
2.6744688 -3.0720556 1.3653586
2.6831589 -3.0737567 1.3625956
2.6916666 -3.0667808 1.3697077
2.6984355 -3.0754364 1.3785678
2.7073369 -3.059082 1.3775729
2.7087445 -3.058042 1.3747611
2.7173574 -3.046771 1.3785785
2.7152252 -3.0442681 1.3667774
2.7073793 -3.057271 1.3724672
2.722363 -3.0483775 1.3640258
2.7263026 -3.0421133 1.3797772
2.7347906 -3.0314617 1.3700938
2.7405105 -3.0365999 1.3636466
2.7333369 -3.0192614 1.3647982
2.7350183 -3.0173087 1.3785524
2.7556994 -3.01823 1.3695889
2.7535634 -3.0148151 1.3681327
2.7552395 -3.0178037 1.3654097
2.7651091 -3.0129042 1.365908
2.7606633 -2.9972818 1.3715185
2.7677705 -3.0019755 1.3796054
2.7706239 -3.0024314 1.3745507
2.7837884 -3.0014122 1.3805583
2.7705004 -2.9918063 1.3800989
2.9044468 -3.1209605 1.3032868
2.9062438 -3.1172793 1.2962303
2.9190717 -3.1199574 1.2887657
2.9304376 -3.1051779 1.2944833
2.9190748 -3.1047411 1.3012656
2.9282048 -3.0929577 1.2998294
2.9429395 -3.0982692 1.2898529
2.9457552 -3.084924 1.2955681
2.9435108 -3.0826054 1.2984439
2.947268 -3.0777609 1.2870613
2.9505603 -3.0892386 1.2988616
2.9515288 -3.0832846 1.2902908
2.9654353 -3.0688624 1.2949836
2.9718714 -3.0674279 1.2903918
2.9640193 -3.0617044 1.3021662
2.9829435 -3.0711937 1.3016475
2.9804261 -3.0502849 1.2917348
2.987926 -3.0508914 1.2910788
2.9811356 -3.0580678 1.2886465
2.9972153 -3.0458069 1.2869581
3.0019064 -3.0345674 1.2896852
2.9983919 -3.0266678 1.2942535
3.0063009 -3.0291641 1.2891253
3.0188968 -3.0295212 1.3013067
3.0068953 -3.0220215 1.2950807
3.0266621 -3.0198827 1.2952288
3.0259044 -3.0245409 1.292143
3.035228 -3.0059726 1.3043017
3.0238898 -2.9984629 1.3051293
3.0301135 -2.9991355 1.2940573
3.0346429 -2.9993734 1.2900579
3.0418932 -2.9873765 1.2897855
3.0537062 -2.991715 1.3028383
3.1926131 -3.1179512 1.2168552
3.191649 -3.1099825 1.2286757
3.1844528 -3.1064737 1.2184389
3.1973987 -3.1079438 1.2193415
3.2072523 -3.1043055 1.2146043
3.2092583 -3.0962145 1.2131628
3.212086 -3.0861034 1.2268287
3.2238352 -3.0756605 1.2160308
3.2115788 -3.0821588 1.2129986
3.2190437 -3.0810299 1.2213902
3.2195554 -3.0774021 1.2295573
3.2285719 -3.059094 1.2212591
3.2294025 -3.0723314 1.2320296
3.23999 -3.0569665 1.2168839
3.2514737 -3.0560851 1.2209245
3.258214 -3.057528 1.2285978
3.2435067 -3.0404685 1.221918
3.2624588 -3.0359778 1.2212106
3.2706068 -3.0280557 1.2295288
3.2557161 -3.0369747 1.2144934
3.2692106 -3.0296817 1.2185975
3.2708659 -3.0176656 1.2165153
3.2842166 -3.0091062 1.2166953
3.2883315 -3.01424 1.2277339
3.2772944 -3.0121646 1.2151415
3.2902915 -3.0076172 1.2165878
3.2909553 -3.0020392 1.2305695
3.3049331 -3.001765 1.2245115
3.435415 -3.1225793 1.1473452
3.437165 -3.1173482 1.1512121
3.4438729 -3.102859 1.1378239
3.4546783 -3.0909443 1.1518978
3.4633949 -3.0899029 1.1499712
3.4522846 -3.088964 1.138345
3.4722061 -3.0832732 1.1442225
3.4795287 -3.0887899 1.15007
3.4682908 -3.0778408 1.1569117
3.4710276 -3.077106 1.1394387
3.4877 -3.0672929 1.1415436
3.4816933 -3.0600829 1.1440867
3.4995468 -3.0505118 1.1563203
3.5040054 -3.0544753 1.1556637
3.5025311 -3.0540555 1.1512376
3.4991231 -3.0490727 1.1429335
3.5040824 -3.0284882 1.1554972
3.5149124 -3.0248945 1.137715
3.5115829 -3.036845 1.1460468
3.5150883 -3.0303583 1.1502721
3.5211139 -3.0114923 1.1394637
3.5292375 -3.002919 1.1510121
3.5398972 -3.0007715 1.1472725
3.542784 -2.9984381 1.1547043
3.545007 -3.0018451 1.1376848
3.5427971 -2.992919 1.1407712
3.6939402 -3.1032107 1.0650648
3.6961432 -3.1067951 1.0825576
3.700557 -3.0979474 1.0632049
3.7132955 -3.0898256 1.0654383
3.710252 -3.0799031 1.0816309
3.716393 -3.0860748 1.0814844
3.7140749 -3.0857975 1.0785669
3.7280102 -3.0668378 1.0730584
3.7293701 -3.0698524 1.0792125
3.7337031 -3.059267 1.0693569
3.7411153 -3.0633864 1.0641925
3.747308 -3.0496461 1.0702981
3.7509863 -3.055829 1.0800996
3.7553046 -3.033603 1.072865
3.7618489 -3.0387428 1.070389
3.7645788 -3.0220568 1.0765716
3.7671549 -3.031997 1.0778552
3.7668061 -3.0123024 1.0729167
3.7609413 -3.0155416 1.0797758
3.7812233 -3.0187337 1.0720261
3.7716424 -2.9987929 1.0749574
3.7768898 -2.9969308 1.0664227
3.7882354 -2.9956551 1.0664933
3.9348166 -3.1096327 0.98907787
3.9488752 -3.1057985 0.9957931
3.9404502 -3.0834765 0.99396455
3.9582002 -3.0828137 0.99696034
3.957226 -3.0867276 0.99440908
3.9513059 -3.0807269 1.0033712
3.9722369 -3.0786572 1.0038879
3.9654105 -3.0703743 0.99908608
3.9615078 -3.0610425 0.99088115
3.9690626 -3.0445561 0.99868089
3.9766803 -3.0511141 1.0025406
3.981369 -3.0479505 1.0047489
3.9927652 -3.0375416 1.0037872
4.0023251 -3.033705 0.99799019
3.994873 -3.0351567 1.0027752
4.0048623 -3.0268354 1.008051
4.0038056 -3.0218821 0.9898805
4.0032578 -3.0080462 0.99447078
4.0179 -3.0023966 1.0028648
4.0243301 -2.9934683 1.0022111
4.0185518 -3.0011907 0.98945957
4.1653848 -3.0994854 0.91983128
4.1858139 -3.0994279 0.9295541
4.1852727 -3.0940552 0.91755575
4.1789269 -3.0803714 0.91854191
4.1973577 -3.0809278 0.92227966
4.201056 -3.0667624 0.92539519
4.2065759 -3.0573587 0.91676503
4.1966777 -3.0575182 0.92819691
4.2151656 -3.0554459 0.92296374
4.2129917 -3.0433424 0.92440933
4.2180576 -3.0373473 0.93295604
4.2279816 -3.035253 0.91574168
4.2276201 -3.0180209 0.91807538
4.2352524 -3.0314481 0.92826205
4.2438622 -3.0107496 0.93205547
4.2362013 -3.0106497 0.92417151
4.2516484 -3.0093186 0.9198426
4.2384567 -3.0021663 0.92949945
4.2566886 -3.0007987 0.91536778
4.40133 -3.0928855 0.85297883
4.4159074 -3.0969343 0.84520632
4.4190226 -3.0753071 0.85364956
4.4249148 -3.0782807 0.85344028
4.4331317 -3.0778539 0.85391331
4.4315271 -3.0530403 0.84918845
