# .PCD v0.7 - Point Cloud Data file format
VERSION 0.7
FIELDS x y z
SIZE 4 4 4
TYPE F F F
COUNT 1 1 1
WIDTH 1510
HEIGHT 1
VIEWPOINT 0 0 0 1 0 0 0
POINTS 1510
DATA ascii
-3.3922622 -3.0350363 1.5432216
-3.3964896 -3.0451822 1.5441575
-3.3957207 -3.0474553 1.5477167
-3.3787069 -3.0627542 1.5585188
-3.3802047 -3.065954 1.5557355
-3.3772738 -3.0598781 1.5525823
-3.3685353 -3.0715094 1.5515615
-3.3715568 -3.0684671 1.5548182
-3.3679292 -3.0737321 1.5506467
-3.3560245 -3.0735738 1.5591055
-3.3583393 -3.0830574 1.5542897
-3.3529692 -3.1010244 1.5440824
-3.3466566 -3.1024854 1.5563507
-3.3367779 -3.1112018 1.5580629
-3.3360908 -3.1056919 1.561312
-3.3381808 -3.1015337 1.5553677
-3.3234172 -3.112926 1.5425171
-3.329668 -3.1116354 1.5574272
-3.1739156 -3.0003994 1.6125276
-3.1812508 -2.9919941 1.6117506
-3.1801207 -3.0102193 1.6061907
-3.1638005 -3.0073967 1.6073583
-3.1576812 -3.0025899 1.6117537
-3.1592875 -3.0122402 1.6121151
-3.1591752 -3.0255449 1.622663
-3.155808 -3.0252879 1.6220397
-3.1383786 -3.034622 1.6146883
-3.1337936 -3.0345683 1.6132855
-3.1342926 -3.0418701 1.6171508
-3.1404274 -3.0406985 1.6138737
-3.1273332 -3.0425949 1.6168181
-3.1197927 -3.0523753 1.6070257
-3.1310785 -3.0602467 1.6064751
-3.1179626 -3.0539408 1.6207031
-3.1044796 -3.0717456 1.6060494
-3.1004422 -3.0704119 1.6160698
-3.0970223 -3.0758839 1.6211672
-3.1009479 -3.0810122 1.6107235
-3.0862699 -3.0908868 1.6173775
-3.0877206 -3.0911496 1.6095964
-3.0924425 -3.0825779 1.6043063
-3.074214 -3.0907311 1.6136173
-3.0857716 -3.0944421 1.6194326
-3.0778739 -3.1093152 1.6159232
-3.0757422 -3.114989 1.6189725
-3.0682583 -3.1209159 1.6077131
-3.0707479 -3.1077187 1.6153333
-3.0481341 -3.1227493 1.6221708
-3.055958 -3.1274104 1.6034732
-2.9241641 -3.0013351 1.6695887
-2.9132938 -3.0006177 1.6678609
-2.9077082 -3.0059984 1.6823012
-2.8928056 -3.0072694 1.6773459
-2.8920822 -3.0049815 1.6818268
-2.8948627 -3.0049064 1.6649371
-2.894588 -3.021698 1.6664178
-2.8855672 -3.025336 1.6653867
-2.8889203 -3.0307229 1.6736099
-2.8854306 -3.0283022 1.681451
-2.8806326 -3.0314202 1.6831388
-2.8704562 -3.0278578 1.6696254
-2.8620019 -3.0429049 1.6748065
-2.8591015 -3.047251 1.682786
-2.861151 -3.0550804 1.677117
-2.8587141 -3.0499027 1.6755806
-2.8531611 -3.0486686 1.6813043
-2.846122 -3.0626371 1.667436
-2.8401084 -3.0641885 1.6722207
-2.825866 -3.0664849 1.68346
-2.823777 -3.0682244 1.6756096
-2.8199947 -3.0840335 1.6753436
-2.8297203 -3.0756404 1.6640466
-2.8142591 -3.0886045 1.6724141
-2.810813 -3.0878811 1.6769562
-2.8130305 -3.0889893 1.6706744
-2.7967787 -3.0888188 1.6696192
-2.7947977 -3.1058891 1.6785816
-2.7866797 -3.1012311 1.6699731
-2.7937715 -3.1066215 1.6830425
-2.7896183 -3.1142194 1.6783409
-2.7733104 -3.1223369 1.6817926
-2.7772627 -3.1244874 1.6775938
-2.7725067 -3.1154897 1.6643813
-2.759378 -3.1273646 1.6758364
-2.7617016 -3.1257811 1.6701217
-2.6443698 -2.9892662 1.7292521
-2.6342194 -2.9979386 1.7344959
-2.6351016 -3.0028336 1.7283177
-2.6245868 -2.9991665 1.7406633
-2.6209977 -3.0156977 1.7293187
-2.6221051 -3.0202782 1.7337586
-2.5997555 -3.0131738 1.7399437
-2.6015999 -3.025681 1.7390161
-2.5966516 -3.029433 1.7300971
-2.6002429 -3.0198874 1.7266392
-2.5895438 -3.0233259 1.7405586
-2.5804522 -3.0408037 1.729495
-2.5861113 -3.0433586 1.7372203
-2.5779438 -3.0395987 1.7322904
-2.5774255 -3.0364552 1.7345009
-2.5682468 -3.0386291 1.7357968
-2.5746231 -3.0426688 1.7278575
-2.5548096 -3.0527735 1.731065
-2.5559185 -3.0621552 1.7341689
-2.5459414 -3.0593588 1.7304608
-2.559417 -3.0700996 1.7269506
-2.5389686 -3.075989 1.7295933
-2.5495784 -3.0717838 1.7333056
-2.6537333 -3.2306402 1.6836538
-2.6613326 -3.2264249 1.6815009
-2.6467164 -3.2372918 1.6807809
-2.6507988 -3.2388008 1.6796218
-2.6428154 -3.2447667 1.6719531
-2.6316195 -3.2361174 1.6784915
-2.6373143 -3.2417717 1.6714089
-2.6267123 -3.2451875 1.6771628
-2.6196151 -3.2524452 1.6805978
-2.6098702 -3.2546086 1.6718031
-2.6164079 -3.2639525 1.6746893
-2.6118498 -3.2654066 1.6655128
-2.6094394 -3.2767603 1.669185
-2.607744 -3.2767181 1.6750579
-2.5872025 -3.2732189 1.6786677
-2.5943246 -3.2830553 1.6746237
-2.5949035 -3.2831235 1.6686159
-2.5825596 -3.2771316 1.6828763
-2.5844569 -3.2885895 1.6735567
-2.5629141 -3.2948546 1.665745
-2.5701611 -3.2922149 1.6722544
-2.5545168 -3.3095794 1.6809685
-2.5480442 -3.3091009 1.6819808
-2.557894 -3.3114996 1.6666814
-2.5418661 -3.3179345 1.6785206
-2.5422235 -3.3160744 1.6641563
-2.6624806 -3.4706638 1.6126081
-2.6526685 -3.4663808 1.6114146
-2.6485906 -3.4685929 1.6223768
-2.6338274 -3.4738648 1.6106813
-2.6268706 -3.4909911 1.6052265
-2.633399 -3.497086 1.6060016
-2.6312084 -3.5013256 1.6108433
-2.6280003 -3.5000379 1.6168677
-2.6200867 -3.5073502 1.6200322
-2.6203284 -3.4996521 1.6086257
-2.6149297 -3.5009882 1.6174748
-2.6003313 -3.5173659 1.6143243
-2.5869215 -3.5145249 1.6126722
-2.5825443 -3.521785 1.609452
-2.5898576 -3.5269575 1.6128021
-2.5826204 -3.5235331 1.6137475
-2.5746033 -3.5227981 1.6141365
-2.5617394 -3.5237396 1.6194894
-2.5628459 -3.5416572 1.6211998
-2.5607831 -3.5447121 1.6142709
-2.5501218 -3.5472679 1.6096619
-2.5506063 -3.5401309 1.6123242
-2.5542364 -3.5444944 1.6214697
-2.5395133 -3.549396 1.6069905
-2.6387331 -3.7216115 1.5502245
-2.6436539 -3.7165897 1.5612471
-2.627624 -3.7284811 1.5566194
-2.6312001 -3.732444 1.5546581
-2.6294179 -3.7224538 1.5583798
-2.6259201 -3.7353463 1.5426407
-2.6093462 -3.7425277 1.5479326
-2.6173761 -3.7351489 1.5439419
-2.6027386 -3.7363605 1.5591606
-2.5989506 -3.7478147 1.553044
-2.5896366 -3.7527316 1.5533512
-2.5963409 -3.7477608 1.5423868
-2.5920179 -3.7519572 1.5432305
-2.5723174 -3.7649319 1.5438036
-2.574573 -3.7613318 1.5580518
-2.5731022 -3.7594461 1.5430853
-2.5673652 -3.7662044 1.5446078
-2.5563312 -3.7662153 1.5571721
-2.5492833 -3.7768164 1.5521805
-2.5470114 -3.7888625 1.5593833
-2.5508511 -3.7768326 1.5453105
-2.6405122 -3.9550097 1.4990996
-2.634778 -3.9560001 1.4930613
-2.628195 -3.962543 1.4976676
-2.6210339 -3.9565997 1.4894859
-2.6196194 -3.9544482 1.4867939
-2.6131663 -3.971828 1.5009409
-2.6051855 -3.9634466 1.4986668
-2.6046352 -3.973295 1.4893738
-2.5890715 -3.9661546 1.4916098
-2.5863001 -3.988142 1.4894432
-2.5975962 -3.9789498 1.4909192
-2.5743558 -3.9895427 1.4951054
-2.5771484 -3.9990766 1.4964417
-2.5753298 -3.9869785 1.4874068
-2.5616879 -3.9990003 1.484201
-2.5507329 -4.0101085 1.4872853
-2.5456259 -3.9987803 1.4824131
-2.542788 -4.0124516 1.4913467
-2.5492382 -4.0161142 1.4910673
-2.6353455 -4.1835842 1.4316969
-2.6414912 -4.1870379 1.4258922
-2.6261561 -4.1928215 1.433118
-2.6266294 -4.1869721 1.4344254
-2.6257613 -4.1848841 1.4314384
-2.6139231 -4.1947384 1.4400296
-2.6052854 -4.1992283 1.4211049
-2.5935585 -4.2042055 1.4370924
-2.5866988 -4.2119446 1.4229848
-2.5909002 -4.2117386 1.4287834
-2.575376 -4.2213516 1.4316918
-2.5784745 -4.22295 1.434841
-2.5673728 -4.2150583 1.4358939
-2.5690403 -4.2334895 1.4264748
-2.5493956 -4.2369075 1.4228144
-2.5527325 -4.2343473 1.4329615
-2.5474732 -4.2290149 1.422273
-2.6391819 -4.4012184 1.3695108
-2.6366217 -4.4091816 1.3733894
-2.6281638 -4.4072266 1.3611033
-2.6139023 -4.4156327 1.3628255
-2.6167276 -4.4130278 1.3665624
-2.6163981 -4.4252162 1.361796
-2.595011 -4.4249725 1.362195
-2.6030376 -4.4309888 1.3627641
-2.5947199 -4.4262528 1.3694733
-2.5762498 -4.442173 1.3650864
-2.5684631 -4.4376736 1.3754519
-2.5726912 -4.4367681 1.3615459
-2.5530355 -4.4535627 1.3732783
-2.565661 -4.4422603 1.3602791
-2.5565591 -4.4599514 1.3735511
-2.5437155 -4.4634871 1.3782922
-2.630007 -4.6173563 1.3061832
-2.6212895 -4.6200261 1.3124403
-2.6119978 -4.6405673 1.307065
-2.6159918 -4.6288323 1.3093926
-2.6043677 -4.63551 1.2998335
-2.6023726 -4.6526194 1.3147858
-2.5942788 -4.6562819 1.31654
-2.5944476 -4.6587844 1.313185
-2.5876102 -4.6584039 1.3157183
-2.5674961 -4.6514039 1.3182864
-2.5626357 -4.6625504 1.316089
-2.5691369 -4.6714449 1.3149066
-2.5493758 -4.6775179 1.3168588
-2.554985 -4.6740603 1.3142127
-2.5382617 -4.6854591 1.3085471
-2.5310924 -4.6813488 1.3094208
-2.528966 -4.6756349 1.3102714
-2.5250802 -4.6765857 1.3122504
-2.5245447 -4.6972003 1.3182312
-2.501471 -4.684206 1.3148247
-2.4958241 -4.6928625 1.3038747
-2.4923699 -4.6945362 1.3076245
-2.490093 -4.7029696 1.3088863
-2.4858592 -4.7035384 1.3171817
-2.4842668 -4.7139144 1.3176451
-2.4683349 -4.7236571 1.3057767
-2.4715245 -4.7178144 1.3031706
-2.4538586 -4.7146316 1.303153
-2.4542091 -4.7174644 1.3060514
-2.4485736 -4.7237787 1.3054647
-2.4263403 -4.7310066 1.2997335
-2.4350519 -4.7413454 1.3158314
-2.4200091 -4.7359781 1.3069894
-2.4236999 -4.7329521 1.3010633
-2.4190903 -4.7549133 1.3082361
-2.3940127 -4.7475276 1.3091321
-2.4007988 -4.7499213 1.2993277
-2.3901863 -4.7612433 1.3161535
-2.3795867 -4.7595153 1.3135853
-2.3860843 -4.7587562 1.3081317
-2.3731637 -4.762372 1.3188699
-2.3659697 -4.7613134 1.3026799
-2.362673 -4.7718306 1.3152585
-2.3482137 -4.7726612 1.3142552
-2.3396761 -4.7755103 1.3146735
-2.343961 -4.7799144 1.3058511
-2.3273454 -4.7777414 1.3179994
-2.3205295 -4.7915983 1.3021805
-2.3168833 -4.8015018 1.3114355
-2.3158009 -4.804554 1.3047861
-2.3001676 -4.8013415 1.3178478
-2.2937913 -4.797596 1.3152859
-2.2836008 -4.7972183 1.3055155
-2.280827 -4.8090515 1.3182136
-2.2790523 -4.8190212 1.3113525
-2.2768545 -4.8199549 1.3033681
-2.2634747 -4.8109565 1.3008275
-2.2579424 -4.8218303 1.3076921
-2.2482245 -4.8157501 1.3079053
-2.2492473 -4.8352847 1.3083094
-2.2369149 -4.8258877 1.3151597
-2.2315166 -4.8368206 1.3089802
-2.2286758 -4.8442731 1.3063931
-2.215601 -4.8356676 1.3151785
-2.2098238 -4.8520064 1.3171902
-2.2109034 -4.8528719 1.3014551
-2.1999629 -4.847086 1.3178961
-2.1915588 -4.8425002 1.3066313
-2.176286 -4.8549342 1.3046052
-2.1807957 -4.8551326 1.3061936
-2.1648967 -4.8697443 1.3003187
-2.1621435 -4.8657084 1.3066413
-2.1455653 -4.8655868 1.308632
-2.1515701 -4.879149 1.3023397
-2.1487854 -4.8736978 1.3028103
-2.1239846 -4.8760934 1.3055083
-2.1349149 -4.8743215 1.3170751
-2.1294 -4.8909211 1.3163011
-2.1151457 -4.8790293 1.3061572
-2.1029131 -4.8784313 1.3188698
-2.1090884 -4.8887239 1.3000154
-2.1011345 -4.9030566 1.3082325
-2.0868537 -4.887609 1.2995977
-2.0705781 -4.9049678 1.3004169
-2.080591 -4.9063478 1.3096948
-2.0701289 -4.9097376 1.299574
-2.0569651 -4.910872 1.3142138
-2.0522301 -4.9133096 1.3152319
-2.0482655 -4.9083161 1.3111112
-2.0344403 -4.9179168 1.3105477
-2.0278988 -4.9205241 1.3026414
-2.0202076 -4.9220119 1.3033428
-2.0242953 -4.9160585 1.3024229
-2.017014 -4.9206724 1.3070651
-2.0089095 -4.9221468 1.313239
-1.9915234 -4.9400105 1.3189251
-1.9842539 -4.9315658 1.3063695
-1.9823408 -4.9452457 1.3142588
-1.9794058 -4.941824 1.3100152
-1.9605874 -4.9514446 1.3190343
-1.9623288 -4.9413953 1.3083005
-1.9519726 -4.9505305 1.3189231
-1.9409112 -4.9506326 1.3183341
-1.950766 -4.9503365 1.3159562
-1.9359746 -4.9488235 1.3149197
-1.9350055 -4.9568152 1.3188254
-1.9283466 -4.9644322 1.3139722
-1.9142395 -4.9570355 1.3182261
-1.9122393 -4.9736066 1.3086785
-1.8944792 -4.9782658 1.3122776
-1.8876961 -4.9715772 1.3086836
-1.8916432 -4.9814467 1.3187028
-1.884964 -4.9871731 1.3113583
-1.87887 -4.989676 1.3070384
-1.8551502 -4.9843135 1.3069508
-1.8524634 -4.9849119 1.3015808
-5.5376477 -2.9998231 1.0551229
-5.5305767 -2.9948721 1.0487568
-5.5221968 -3.0030386 1.0533441
-5.5092707 -3.0149906 1.0604428
-5.5218949 -3.0221682 1.0526229
-5.4996476 -3.0329578 1.0607781
-5.5045104 -3.0450151 1.0507505
-5.5024185 -3.0446877 1.0559916
-5.4928627 -3.0591302 1.053431
-5.4989104 -3.0551779 1.0596042
-5.4910293 -3.080193 1.0446519
-5.4931045 -3.0823321 1.0423831
-5.315196 -2.9864404 1.1190228
-5.29916 -2.9954629 1.1120832
-5.2960148 -3.0013373 1.1056808
-5.3006787 -3.0092027 1.1161979
-5.2971778 -3.0261798 1.1023607
-5.2836938 -3.0253241 1.1165481
-5.2849579 -3.0391831 1.1039839
-5.2887726 -3.043371 1.1030571
-5.2864041 -3.0439694 1.1047946
-5.2789774 -3.0509458 1.112066
-5.2738094 -3.0706656 1.1090397
-5.2713394 -3.078542 1.1044198
-5.2557988 -3.087476 1.1013486
-5.1020422 -2.9884274 1.1771774
-5.0825014 -3.0067315 1.1640923
-5.0767884 -3.0157859 1.1792684
-5.0768781 -3.0103493 1.1679847
-5.0695214 -3.0129824 1.1799067
-5.0630822 -3.0375116 1.1786178
-5.0748954 -3.0388899 1.1777344
-5.0594273 -3.0393856 1.1645066
-5.0669756 -3.0417073 1.1707718
-5.059134 -3.0527945 1.1754669
-5.0543537 -3.0590498 1.1697078
-5.0530829 -3.0699561 1.1727662
-5.0448875 -3.0793502 1.1738862
-5.0415063 -3.0930455 1.1675528
-4.866715 -2.9835463 1.225039
-4.8628154 -2.9916706 1.2257458
-4.8601952 -2.9958496 1.2321666
-4.858449 -3.0088115 1.2251782
-4.8499212 -3.0135825 1.2229487
-4.8551188 -3.0347824 1.2367061
-4.8356113 -3.0354829 1.2312769
-4.8418541 -3.0392029 1.2220038
-4.8450289 -3.0390279 1.2303929
-4.8270741 -3.0597816 1.2321374
-4.835443 -3.0527477 1.2303665
-4.825665 -3.0660043 1.2272823
-4.8151703 -3.0808399 1.2268248
-4.8182459 -3.0781384 1.2202049
-4.8083 -3.0911272 1.235608
-4.8005743 -3.0935414 1.2365986
-4.6386743 -2.9970176 1.2830191
-4.6427469 -2.9944274 1.2931471
-4.6360831 -3.0192683 1.2902201
-4.6210213 -3.0104201 1.2933035
-4.6242061 -3.0142164 1.2901789
-4.6291528 -3.0325191 1.28055
-4.6171746 -3.0446215 1.2828314
-4.6056447 -3.0441024 1.2945546
-4.6007257 -3.057951 1.2800229
-4.6003947 -3.0483961 1.2898049
-4.5990644 -3.0616806 1.2791647
-4.5906525 -3.0632334 1.2976066
-4.592104 -3.0823281 1.2976938
-4.5964732 -3.070575 1.2931095
-4.5777502 -3.0862298 1.2912035
-4.5821424 -3.0910637 1.2974632
-4.4181027 -3.0009353 1.3574314
-4.4099751 -2.9905322 1.3450267
-4.4101152 -2.9994698 1.3452244
-4.4047785 -3.0123448 1.3414217
-4.3896513 -3.0081666 1.3507733
-4.3851557 -3.0198631 1.3450047
-4.3822093 -3.0373063 1.3465682
-4.3791676 -3.0434232 1.3463055
-4.3807011 -3.0351303 1.3568026
-4.3841324 -3.055552 1.3488746
-4.3812952 -3.0543175 1.3502522
-4.37783 -3.0691452 1.3482087
-4.3667607 -3.0683122 1.343398
-4.355485 -3.0663497 1.3518765
-4.3480039 -3.0734763 1.3506914
-4.3511624 -3.0803316 1.3439623
-4.3400807 -3.088474 1.3459367
-4.3474274 -3.0978162 1.3479347
-4.1797209 -2.9817791 1.4037088
-4.1769714 -3.0043786 1.4058415
-4.1821418 -3.0084088 1.4153314
-4.1659265 -3.0132496 1.4161104
-4.1717467 -3.011306 1.4038333
-4.1623693 -3.0223799 1.3996234
-4.1645055 -3.0302742 1.414386
-4.1478181 -3.0256369 1.408386
-4.1578522 -3.0342374 1.4003303
-4.1459036 -3.0345116 1.4090132
-4.1319489 -3.0467222 1.4086444
-4.1415606 -3.0603721 1.4115281
-4.1290312 -3.0633895 1.4162275
-4.1270037 -3.0743968 1.4019262
-4.1241894 -3.0754373 1.4154028
-4.1136441 -3.071322 1.4036338
-4.1073003 -3.0935719 1.4097933
-4.1061864 -3.0833726 1.406406
-4.1110644 -3.0874527 1.4002292
-4.1039896 -3.103838 1.3995829
-3.9360809 -2.995074 1.4718728
-3.9408376 -2.9954357 1.4569573
-3.942703 -3.0075462 1.4648111
-3.9398613 -3.0019157 1.4674382
-3.9313133 -3.0177653 1.4747996
-3.9292808 -3.0273716 1.4720453
-3.9190097 -3.014945 1.4728036
-3.9225714 -3.0257227 1.4695182
-3.9095128 -3.0457048 1.4679033
-3.9026232 -3.0429471 1.4756476
-3.8963726 -3.0487664 1.462438
-3.8971725 -3.0435314 1.4743868
-3.8928802 -3.0643589 1.4597396
-3.8807266 -3.0665491 1.4762311
-3.8859384 -3.0644033 1.4623758
-3.883781 -3.064445 1.4644107
-3.8843703 -3.0784431 1.4643629
-3.8641939 -3.0802383 1.4590222
-3.8672955 -3.0932176 1.4591782
-3.8720043 -3.1035578 1.4675651
-3.8689611 -3.0919054 1.4755995
-3.8591199 -3.1053188 1.4743298
-3.7087967 -2.9986386 1.5170362
-3.7018068 -3.0039532 1.5236533
-3.6983182 -2.9987681 1.5178592
-3.6886775 -3.015722 1.5174603
-3.6769948 -3.0175693 1.5284946
-3.6853528 -3.0235517 1.5231588
-3.6790442 -3.0169547 1.5302626
-3.6725724 -3.0193927 1.5324392
-3.6777067 -3.0431221 1.5316752
-3.6747992 -3.0413518 1.5228987
-3.6531541 -3.0421333 1.5261226
-3.648144 -3.0401142 1.5292134
-3.6565096 -3.0588021 1.5226649
-3.6506619 -3.052053 1.524332
-3.6452062 -3.0578318 1.5293158
-3.6487091 -3.0761862 1.533475
-3.6375408 -3.0724571 1.5293835
-3.6392612 -3.0864882 1.528
-3.6187983 -3.0898929 1.5280273
-3.6190922 -3.0946367 1.5349591
-3.6081555 -3.101989 1.5262376
-3.6139877 -3.1085918 1.5246578
-3.6167221 -3.1078281 1.5295064
-3.605998 -3.1054919 1.5262146
-3.5935996 -3.1219821 1.5222484
-3.4519656 -3.0010798 1.5843745
-3.4505851 -2.9982889 1.575974
-3.4532895 -3.0015223 1.5786288
-3.4373705 -3.0086033 1.5829592
-3.4414177 -3.0202961 1.5876204
-3.4385262 -3.0253773 1.5899976
-3.4243495 -3.0206225 1.5908344
-3.431746 -3.0229414 1.5774909
-3.4142871 -3.0388823 1.5915339
-3.4201136 -3.046778 1.5941308
-3.4098992 -3.0416448 1.5774832
-3.3969007 -3.0393233 1.5884572
-3.3922958 -3.043905 1.5810227
-3.4050295 -3.0567737 1.591326
-3.3934264 -3.0579019 1.5947493
-3.3971553 -3.0603578 1.5778989
-3.3785002 -3.0728629 1.5906041
-3.3790019 -3.076997 1.5857857
-3.3728404 -3.0879114 1.589816
-3.3726292 -3.0888982 1.5907339
-3.3698149 -3.0839233 1.5815625
-3.3636413 -3.0902088 1.5794842
-3.366487 -3.0961556 1.5775898
-3.3567607 -3.0991087 1.587586
-3.3567247 -3.1147375 1.5812079
-3.3532588 -3.1183808 1.5771214
-3.3466368 -3.1276617 1.5852714
-3.1878788 -2.9912109 1.6533713
-3.1935391 -3.003242 1.6359382
-3.1951632 -2.9993744 1.6422418
-3.175863 -2.9970114 1.638238
-3.1857278 -3.0128002 1.65266
-3.177665 -3.0157671 1.6458408
-3.1714902 -3.0133464 1.6407679
-3.175313 -3.0152352 1.6447597
-3.165508 -3.0180094 1.6497952
-3.1597831 -3.0385203 1.650231
-3.1459019 -3.0440621 1.6412604
-3.1432631 -3.0394535 1.6447332
-3.1380513 -3.040664 1.6365422
-3.1465294 -3.0467758 1.6351769
-3.1390054 -3.0469601 1.6424795
-3.1370533 -3.0632951 1.6512662
-3.1219141 -3.0576758 1.6469187
-3.1318417 -3.0601056 1.6451215
-3.1177714 -3.0769625 1.6449831
-3.1186597 -3.0723331 1.6487612
-3.1191058 -3.0780675 1.6514188
-3.1085167 -3.0854142 1.6431005
-3.0944486 -3.0918059 1.6379812
-3.1085656 -3.090939 1.6511537
-3.1040416 -3.1068177 1.6485394
-3.0922089 -3.1050196 1.6539816
-3.0915835 -3.1123641 1.6494286
-3.0752997 -3.1139238 1.6468257
-3.0808072 -3.1057072 1.6517392
-3.0664468 -3.1226788 1.6456497
-3.0683024 -3.1244025 1.6381874
-2.9338489 -2.9834065 1.7070823
-2.9215436 -2.9889169 1.6945868
-2.9143522 -2.9928684 1.7073014
-2.9139824 -2.9966266 1.7084749
-2.9162214 -3.0128889 1.6957779
-2.9130123 -3.0128684 1.7000617
-2.9143507 -3.0209129 1.7071049
-2.8982863 -3.0188191 1.706678
-2.8973026 -3.026726 1.7135866
-2.8824027 -3.0208552 1.7030723
-2.8949594 -3.0385489 1.7014061
-2.877964 -3.0281255 1.698332
-2.8734586 -3.0347044 1.6954025
-2.8762326 -3.0451131 1.7128053
-2.8778279 -3.041966 1.6980305
-2.8721142 -3.0598204 1.7073549
-2.8621113 -3.0632298 1.7127079
-2.8650596 -3.0547969 1.7042215
-2.8484292 -3.0696084 1.7118893
-2.8448844 -3.0737534 1.7094831
-2.8518486 -3.0746944 1.7134324
-2.8404734 -3.082885 1.7118484
-2.8321667 -3.0708203 1.7077228
-2.8267839 -3.0857859 1.6972198
-2.823993 -3.0866082 1.7138896
-2.8159711 -3.0859842 1.6967243
-2.8186193 -3.0996304 1.7001632
-2.8159089 -3.1005032 1.6960424
-2.8016796 -3.1090298 1.7011119
-2.799777 -3.0983012 1.7060318
-2.8002748 -3.1188319 1.7140002
-2.796818 -3.1122882 1.6977619
-2.7949398 -3.1217442 1.6975656
-2.7971818 -3.1301293 1.7063752
-2.789921 -3.1200407 1.6983281
-2.7859852 -3.1262531 1.6948643
-2.6525877 -2.9964573 1.7610559
-2.6425672 -2.9910934 1.7709739
-2.6366622 -2.9958401 1.7563066
-2.6456826 -3.0030293 1.7563033
-2.6297779 -3.0150671 1.7596982
-2.6258998 -3.0080042 1.7735597
-2.6182549 -3.0234249 1.7618823
-2.610801 -3.0254543 1.7657307
-2.6145322 -3.024596 1.7635723
-2.6063056 -3.0241795 1.7591001
-2.6015377 -3.0213706 1.7653311
-2.6099215 -3.0327303 1.7606356
-2.588382 -3.0423791 1.7548974
-2.6015048 -3.045248 1.7656678
-2.5946257 -3.0364168 1.7680926
-2.584347 -3.0479169 1.7612665
-2.5802014 -3.0559869 1.7627002
-2.567728 -3.0608232 1.7657787
-2.5714016 -3.0536158 1.7733842
-2.5772283 -3.0624118 1.7650687
-2.567522 -3.0706754 1.7632186
-2.5515802 -3.071563 1.7736598
-2.5603285 -3.0751569 1.7580969
-2.5548103 -3.0761237 1.763304
-2.5385163 -3.0744674 1.7609754
-2.5397928 -3.0867929 1.7707736
-2.669239 -3.2267251 1.6967745
-2.6556919 -3.2311378 1.7009026
-2.659061 -3.2434993 1.6958473
-2.6548195 -3.2459681 1.7055988
-2.6388884 -3.2430162 1.7106839
-2.6448019 -3.2484131 1.6984726
-2.6402693 -3.266854 1.7062526
-2.6312943 -3.2640772 1.6966448
-2.6171072 -3.2693119 1.7122663
-2.6252434 -3.2601337 1.6991295
-2.6235764 -3.2633686 1.6971079
-2.6165552 -3.2775829 1.6943982
-2.6054006 -3.2796981 1.7030448
-2.5992963 -3.2821085 1.7129343
-2.6034353 -3.2931299 1.7094808
-2.5824842 -3.2946122 1.7043293
-2.5937393 -3.296114 1.7044296
-2.5772095 -3.2931986 1.7109929
-2.5702822 -3.3006587 1.6960013
-2.5677285 -3.3008227 1.7138611
-2.5583067 -3.3038929 1.7121532
-2.5709012 -3.3045197 1.6998917
-2.5662005 -3.3185749 1.7091691
-2.5528483 -3.3111141 1.6996841
-2.5496016 -3.3123858 1.7028191
-2.5498035 -3.3173046 1.7081068
-2.5351517 -3.3380818 1.695521
-2.6560986 -3.478893 1.6501245
-2.6545608 -3.4855967 1.6402321
-2.6480098 -3.494365 1.6537845
-2.6435935 -3.4983344 1.6478698
-2.6408803 -3.499527 1.6449245
-2.6304233 -3.5006523 1.6515137
-2.6306837 -3.5130634 1.649147
-2.6204238 -3.5068715 1.6490856
-2.6070242 -3.5055294 1.6476758
-2.6083314 -3.514189 1.6490524
-2.6022196 -3.5127497 1.6451305
-2.6021507 -3.5346484 1.6382171
-2.5919693 -3.5348763 1.6462408
-2.5882301 -3.5355742 1.6539936
-2.5904009 -3.5384495 1.6442455
-2.5755119 -3.5357637 1.6370571
-2.5740285 -3.5382397 1.6411353
-2.5749068 -3.5553625 1.6350769
-2.5558414 -3.5439968 1.6540247
-2.558181 -3.5588551 1.6479703
-2.559139 -3.5525229 1.6470059
-2.5440137 -3.5710487 1.6477865
-2.5357971 -3.5643251 1.6519759
-2.650317 -3.714391 1.5797491
-2.6460962 -3.7361324 1.5876182
-2.6316187 -3.727931 1.5817891
-2.6243243 -3.7431984 1.5770931
-2.6329465 -3.7443006 1.5788767
-2.6276221 -3.7512994 1.5956213
-2.6233447 -3.7456043 1.5810959
-2.6051164 -3.7458391 1.5764841
-2.6078477 -3.7559257 1.5769206
-2.6097929 -3.7627769 1.5876486
-2.587544 -3.7583694 1.5874629
-2.5981684 -3.7549505 1.589244
-2.5809186 -3.7622683 1.582927
-2.5894928 -3.7675109 1.5850363
-2.5827579 -3.7666001 1.5897294
-2.5742345 -3.7855945 1.5911027
-2.5689614 -3.7855463 1.5818424
-2.5582087 -3.7925096 1.5760115
-2.5520627 -3.7874491 1.5837512
-2.5454752 -3.7895842 1.5882889
-2.5481551 -3.7947252 1.5808762
-2.6371715 -3.9545233 1.5211689
-2.6380241 -3.9637125 1.5171199
-2.6251884 -3.9667461 1.5314484
-2.6302383 -3.9683197 1.5303004
-2.6305897 -3.9666502 1.5337633
-2.6095629 -3.9849925 1.5208725
-2.6177914 -3.9778724 1.5246089
-2.6118455 -3.9899013 1.5169889
-2.5981548 -3.980643 1.5308098
-2.5999215 -3.9993694 1.5230577
-2.5890956 -3.9862661 1.517841
-2.5786238 -3.9995522 1.5271364
-2.5721958 -4.0055447 1.5170923
-2.5714343 -4.0021338 1.5291605
-2.571816 -4.0046272 1.5265766
-2.5687294 -4.011651 1.529321
-2.5585289 -4.0124655 1.5228482
-2.5445869 -4.0129018 1.5280015
-2.53826 -4.0252199 1.5260603
-2.6400146 -4.1864147 1.4696839
-2.6273832 -4.2009768 1.4693905
-2.6199634 -4.1906543 1.4594347
-2.6232429 -4.1994963 1.4671028
-2.6165614 -4.2131748 1.4617895
-2.6178067 -4.2128372 1.4575833
-2.6016307 -4.2150211 1.469946
-2.6027055 -4.2126169 1.4650788
-2.5902476 -4.2218885 1.4633521
-2.5926316 -4.2304559 1.4728761
-2.5769515 -4.2244983 1.4662983
-2.5782948 -4.2317672 1.4688541
-2.5599263 -4.2374797 1.4654195
-2.5715084 -4.2323403 1.4768218
-2.5554178 -4.2463932 1.4582164
-2.5446353 -4.24757 1.4636109
-2.5380538 -4.2384548 1.4704759
-2.6371498 -4.4202085 1.4040427
-2.622834 -4.4116297 1.4113241
-2.6302397 -4.4313335 1.4136677
-2.6281166 -4.4212613 1.4055905
-2.6125658 -4.4384408 1.4138573
-2.6144543 -4.4431663 1.4000164
-2.5997722 -4.4453926 1.4149114
-2.5936828 -4.4374518 1.3993417
-2.5861936 -4.4446578 1.4061753
-2.5733049 -4.4512162 1.4056957
-2.5735462 -4.4447641 1.4109313
-2.5608671 -4.4501696 1.4084374
-2.5609019 -4.4691586 1.4099227
-2.5585878 -4.4722071 1.4051548
-2.5443461 -4.4658933 1.406873
-2.5418327 -4.4676614 1.407523
-2.6275141 -4.6469998 1.3502471
-2.6237047 -4.6405296 1.3438998
-2.6154597 -4.6527786 1.353978
-2.6203761 -4.6583519 1.3411202
-2.605767 -4.6503849 1.3383281
-2.605917 -4.655962 1.3537359
-2.5885561 -4.6678023 1.3537513
-2.5897045 -4.6635623 1.3543055
-2.5756159 -4.6713185 1.3447526
-2.5798042 -4.6628046 1.3570019
-2.5633373 -4.6718616 1.3395287
-2.5647929 -4.6835942 1.3522102
-2.5525908 -4.6735721 1.356318
-2.5503056 -4.6949615 1.3385187
-2.5408733 -4.6882429 1.3523436
-2.6250889 -4.8561735 1.284891
-2.6227963 -4.865387 1.2885853
-2.6204832 -4.8622642 1.2801496
-2.5976107 -4.8715734 1.2875783
-2.604286 -4.8715963 1.2871326
-2.598707 -4.8816829 1.2812325
-2.590596 -4.8797607 1.2871933
-2.5697985 -4.8921776 1.2867603
-2.5648882 -4.8888545 1.2885128
-2.5577722 -4.9026494 1.28055
-2.5568261 -4.8963547 1.2962071
-2.5439794 -4.8945627 1.2863252
-2.5474336 -4.8972573 1.2832308
-2.5393183 -4.9038854 1.2944825
-2.5237694 -4.9039989 1.2893569
-2.528661 -4.9253488 1.297781
-2.519448 -4.9254084 1.2917538
-2.5042694 -4.9314966 1.2969271
-2.5095186 -4.9195046 1.289031
-2.4930108 -4.9272323 1.290938
-2.4844606 -4.940855 1.282728
-2.4802485 -4.9284768 1.2798891
-2.4659133 -4.946403 1.2979248
-2.474668 -4.9430699 1.2928922
-2.4521658 -4.9510489 1.2912962
-2.4547846 -4.9507847 1.2918909
-2.4489744 -4.9481778 1.2959569
-2.4491868 -4.9572682 1.2974561
-2.424221 -4.958488 1.294459
-2.4271464 -4.9700851 1.2872361
-2.4281604 -4.960022 1.289883
-2.4173794 -4.9726419 1.2883911
-2.4094326 -4.9778261 1.292446
-2.4034455 -4.9786701 1.2832974
-2.3824863 -4.9839211 1.2896243
-2.3831182 -4.9787054 1.2796594
-2.3831508 -4.9945984 1.2957356
-5.5303288 -3.0060537 1.1049873
-5.5338225 -3.014801 1.0934243
-5.5228438 -3.0252557 1.1060255
-5.5351939 -3.0227437 1.0896199
-5.524559 -3.048883 1.1053205
-5.5184598 -3.0436516 1.1012089
-5.5069695 -3.0513813 1.0995584
-5.5014329 -3.0542877 1.0945323
-5.5091319 -3.0802147 1.1007931
-5.5042043 -3.0839903 1.0960604
-5.3292441 -2.9996397 1.1473222
-5.3276801 -2.9965997 1.1596295
-5.3176689 -3.0068066 1.1492203
-5.3150458 -3.0136008 1.1490556
-5.3088179 -3.0140076 1.1504776
-5.306879 -3.0325735 1.1648515
-5.3090415 -3.0439179 1.15921
-5.2928443 -3.0540061 1.1583705
-5.3016624 -3.0560837 1.1593063
-5.2842097 -3.0575352 1.1641632
-5.2914791 -3.0751822 1.1472265
-5.2854276 -3.0754569 1.1607814
-5.2870584 -3.089922 1.151575
-5.113975 -2.9891295 1.2209649
-5.1062942 -3.0029488 1.2194312
-5.0971818 -2.9990625 1.2067595
-5.0936852 -3.0215824 1.2101653
-5.0958204 -3.0121589 1.2108988
-5.0787849 -3.0358181 1.216965
-5.0808039 -3.0262992 1.2089839
-5.0779562 -3.0483348 1.2107539
-5.0720348 -3.0486143 1.2196414
-5.0725493 -3.0548301 1.22145
-5.0622597 -3.0573912 1.2145839
-5.0605211 -3.0764625 1.2210423
-5.0603065 -3.0706222 1.2185246
-5.0527539 -3.0854959 1.220619
-4.8785973 -2.9866698 1.2772137
-4.8870254 -2.9948668 1.2793185
-4.8693776 -3.0093238 1.2780563
-4.8797016 -3.0051832 1.2618666
-4.8682461 -3.0193822 1.2724997
-4.8678932 -3.0183659 1.2640135
-4.8657227 -3.0313404 1.2800565
-4.8504086 -3.0468667 1.2641124
-4.8486266 -3.0464785 1.281087
-4.8493528 -3.0628476 1.2702601
-4.8479753 -3.052568 1.2652698
-4.8479447 -3.0749066 1.2789148
-4.8257995 -3.0637968 1.2649297
-4.8249073 -3.0872197 1.2619057
-4.8201952 -3.0834053 1.2714975
-4.6637831 -3.0000145 1.3268656
-4.6570497 -3.0019174 1.3381114
-4.6542645 -3.0127532 1.320628
-4.6474142 -3.0060635 1.3303241
-4.64358 -3.0243659 1.3304361
-4.6305637 -3.0255663 1.327607
-4.642529 -3.0310206 1.3292127
-4.6408396 -3.038624 1.3286954
-4.6331267 -3.049639 1.3315164
-4.6284289 -3.0402551 1.3249069
-4.61413 -3.059839 1.3249859
-4.6224051 -3.0568769 1.3296803
-4.6194248 -3.075326 1.3300515
-4.6139193 -3.0711303 1.3236191
-4.5987091 -3.0873151 1.3253849
-4.6033773 -3.0947075 1.332445
-4.5908656 -3.0982976 1.32054
-4.4381828 -2.9971955 1.3854651
-4.424715 -2.9996548 1.3879017
-4.4284177 -3.0016761 1.3861933
-4.4187207 -3.0136678 1.3913662
-4.4089365 -3.0182123 1.3859603
-4.4144492 -3.0240641 1.3885585
-4.3995819 -3.0287063 1.3817996
-4.3911386 -3.042443 1.3852971
-4.4009209 -3.0451622 1.3878373
-4.3836341 -3.0396926 1.3932166
-4.3782444 -3.064429 1.3788762
-4.3858714 -3.0598886 1.3882723
-4.3710532 -3.0632503 1.3818368
-4.3779349 -3.0811234 1.3895936
-4.3796353 -3.0734291 1.378984
-4.3667331 -3.0754728 1.3886948
-4.3712244 -3.0868835 1.3799297
-4.3624659 -3.0940936 1.3835881
-4.1943893 -2.9841416 1.4486328
-4.1997313 -2.992141 1.4473445
-4.1796861 -2.9990191 1.4474622
-4.1939731 -3.0178015 1.438257
-4.1788554 -3.0060518 1.4518207
-4.1701651 -3.0254779 1.4536358
-4.1737103 -3.0309074 1.4492637
-4.1678567 -3.027746 1.4489604
-4.1722841 -3.0333955 1.4433529
-4.1654682 -3.0546145 1.4366359
-4.1549864 -3.0479062 1.4547697
-4.157402 -3.05073 1.4507749
-4.141098 -3.0577064 1.4457672
-4.1446686 -3.0631759 1.447836
-4.1374359 -3.0777423 1.447508
-4.1366315 -3.0878415 1.4536009
-4.1340041 -3.085716 1.4401058
-4.1157403 -3.0819762 1.4356077
-4.1177721 -3.1069107 1.4512898
-4.1254034 -3.1092849 1.4515762
-3.967097 -2.9899378 1.5023396
-3.9634569 -2.9925673 1.4981402
-3.9438035 -3.0031729 1.5127701
-3.9491503 -3.0016363 1.5077302
-3.9324207 -3.017163 1.4939176
-3.9360113 -3.0161896 1.4957936
-3.9335012 -3.0169005 1.5055766
-3.9244785 -3.0236681 1.5048752
-3.9199462 -3.0367956 1.5050089
-3.9197242 -3.0418904 1.5085322
-3.9192083 -3.0456696 1.5016575
-3.9058721 -3.0499992 1.4976916
-3.9167275 -3.0588744 1.5086529
-3.9129455 -3.0573025 1.5066773
-3.8941958 -3.0632148 1.4946955
-3.889251 -3.0769396 1.5092021
-3.8824227 -3.0723834 1.5085068
-3.8858037 -3.0830417 1.506547
-3.8898785 -3.0934124 1.4969568
-3.873812 -3.0878136 1.5077631
-3.8742146 -3.1059589 1.5002755
-3.8614843 -3.1150353 1.4939374
-3.7236855 -2.9991066 1.5621483
-3.7041125 -3.003607 1.5594476
-3.7065082 -3.0136483 1.5562959
-3.7008781 -3.0030432 1.5648748
-3.7007344 -3.0099158 1.5634589
-3.7012787 -3.0244832 1.5568281
-3.6837757 -3.0274465 1.5652639
-3.6958554 -3.0386717 1.5647296
-3.6771216 -3.0346363 1.5514752
-3.6858685 -3.0422144 1.5545633
-3.6809461 -3.0453718 1.5588571
-3.6657565 -3.0531476 1.5638496
-3.6732605 -3.0475171 1.5639938
-3.663909 -3.0604622 1.5599302
-3.6659715 -3.0574765 1.5541754
-3.6494427 -3.0792549 1.5590286
-3.6395376 -3.0677576 1.5660881
-3.6411893 -3.0725744 1.5670859
-3.6433687 -3.0828993 1.5572768
-3.6387951 -3.0862198 1.5650414
-3.6311262 -3.0888739 1.5547944
-3.6191566 -3.1006014 1.5619116
-3.6221874 -3.1041033 1.5597929
-3.6250668 -3.1025314 1.569857
-3.4670844 -2.982245 1.6259797
-3.4599431 -2.9945807 1.6274889
-3.4679415 -3.0013106 1.6256053
-3.4488735 -3.0139985 1.6240088
-3.4488013 -3.0131791 1.6171854
-3.4385314 -3.0121064 1.6121333
-3.44049 -3.0276926 1.6095129
-3.432689 -3.0156436 1.6202446
-3.4377639 -3.0309672 1.612548
-3.4249508 -3.0335193 1.6114911
-3.4220672 -3.047363 1.6107205
-3.421005 -3.0382535 1.6224673
-3.4184268 -3.0413375 1.6123317
-3.4177256 -3.0495553 1.6143497
-3.4186141 -3.0619092 1.6220227
-3.4063194 -3.0682082 1.6155981
-3.3990703 -3.0606878 1.6184111
-3.3944347 -3.0695951 1.6180909
-3.3990607 -3.0878127 1.6272589
-3.391377 -3.0774591 1.6186811
-3.3847435 -3.0884707 1.6210595
-3.3788738 -3.0826755 1.6173416
-3.3812509 -3.0985644 1.6153282
-3.3737566 -3.0980206 1.6098791
-3.364238 -3.1026409 1.6168524
-3.3670397 -3.1192486 1.6222968
-3.3562593 -3.1128957 1.6200259
-3.3426597 -3.1262028 1.6136061
-3.2094541 -2.9978082 1.671672
-3.207176 -2.9964728 1.6868867
-3.1934695 -3.0128195 1.67583
-3.1973782 -3.0076187 1.6753027
-3.1849985 -3.0091236 1.6836149
-3.1946261 -3.0074697 1.6771928
-3.1896966 -3.0206389 1.6708665
-3.1777875 -3.0209584 1.6726424
-3.1804278 -3.0348525 1.6854749
-3.1653328 -3.0395086 1.6696982
-3.1566513 -3.0352466 1.676378
-3.1678488 -3.0528986 1.6688833
-3.1638253 -3.0410428 1.6695265
-3.1508522 -3.0573001 1.6798489
-3.1584003 -3.0653887 1.6731393
-3.1376302 -3.067322 1.6725503
-3.143276 -3.0685492 1.6832532
-3.135242 -3.0620968 1.6780915
-3.1254258 -3.0825205 1.6834848
-3.122771 -3.0720911 1.6686652
-3.1158869 -3.0772283 1.6825447
-3.1223168 -3.0778174 1.6832035
-3.1162355 -3.0986433 1.6801434
-3.1095047 -3.0907629 1.6852454
-3.1124454 -3.0947037 1.6866721
-3.1020896 -3.1021531 1.6705729
-3.0923169 -3.0995333 1.6776481
-3.0918353 -3.1131709 1.675571
-3.096509 -3.1212895 1.6774597
-3.0757837 -3.131057 1.6741612
-2.935545 -2.9818757 1.7280537
-2.9359381 -2.9996269 1.7277777
-2.9356668 -2.9956186 1.7310411
-2.9384499 -3.0092077 1.7265441
-2.936125 -3.0100718 1.7424598
-2.9323678 -3.0049202 1.7352731
-2.9247041 -3.0143423 1.7350472
-2.9099596 -3.0276351 1.7255188
-2.9172864 -3.0299604 1.7322006
-2.9027188 -3.0359244 1.7334377
-2.9114439 -3.0403473 1.7317985
-2.9042218 -3.0293493 1.7365314
-2.89727 -3.0422716 1.7293899
-2.8870492 -3.0421743 1.7327707
-2.8813198 -3.0439553 1.739393
-2.879669 -3.0461881 1.7352664
-2.8851991 -3.0649719 1.7258116
-2.8709495 -3.0532312 1.7271519
-2.8662229 -3.0730436 1.730249
-2.8548086 -3.0625198 1.7314582
-2.8621519 -3.0649586 1.7323146
-2.8511286 -3.0844183 1.7282335
-2.8553669 -3.0811751 1.7352883
-2.846741 -3.0919652 1.7264926
-2.834729 -3.0812857 1.7399625
-2.8360889 -3.0932212 1.7352399
-2.8415697 -3.0949581 1.7357681
-2.8364999 -3.1067224 1.7320653
-2.8300843 -3.0980422 1.7325729
-2.8205662 -3.102236 1.7276207
-2.8098333 -3.118067 1.7442402
-2.8182383 -3.1071737 1.7254045
-2.8107193 -3.1248238 1.7338108
-2.7961397 -3.1181583 1.7354194
-2.7903502 -3.1237967 1.7316939
-2.7910857 -3.1351166 1.7400134
-2.6692326 -2.9932935 1.7885212
-2.6543512 -2.9935067 1.7912822
-2.6631672 -2.9916427 1.7866855
-2.6514707 -3.0046043 1.8018512
-2.644721 -3.0111825 1.7851361
-2.6413465 -3.0105209 1.7832582
-2.6368027 -3.0067005 1.7876683
-2.6438475 -3.0126667 1.8026757
-2.6292784 -3.017215 1.7959704
-2.6184297 -3.0268755 1.8018647
-2.6192563 -3.0263708 1.7905447
-2.6095209 -3.0351727 1.8027413
-2.6170197 -3.036984 1.8005257
-2.6091096 -3.0312972 1.7890664
-2.606029 -3.0430641 1.794741
-2.5996583 -3.0556657 1.7847836
-2.5951602 -3.0479374 1.8023468
-2.5862472 -3.0514729 1.7976384
-2.5823214 -3.0646636 1.7920704
-2.5850961 -3.0712352 1.8005246
-2.5819714 -3.0628681 1.7931603
-2.5701616 -3.0690053 1.8006649
-2.5661502 -3.0668857 1.7900231
-2.5643494 -3.0811064 1.788727
-2.554003 -3.0765014 1.799317
-2.5579767 -3.0897856 1.8009524
-2.551903 -3.0828371 1.7939574
-2.5482612 -3.0912457 1.7870618
-2.5493226 -3.100004 1.7906047
-2.6573615 -3.2438045 1.7332482
-2.6553202 -3.2409477 1.7258271
-2.6606379 -3.2505715 1.73588
-2.6384456 -3.260479 1.7316575
-2.6468902 -3.2528861 1.7368137
-2.6366255 -3.2592518 1.7301682
-2.6357658 -3.2739017 1.7338254
-2.6332655 -3.266793 1.7280123
-2.6177552 -3.2803628 1.7373657
-2.6291351 -3.279319 1.7415298
-2.6169672 -3.2892301 1.7334437
-2.6041996 -3.2816415 1.7319406
-2.5988483 -3.2839177 1.7445337
-2.6034389 -3.288554 1.7309328
-2.5922468 -3.3061922 1.7286321
-2.5958934 -3.2981284 1.7436664
-2.5861804 -3.3137727 1.7277453
-2.5928051 -3.3114893 1.7426209
-2.585238 -3.318274 1.7276086
-2.5683124 -3.3210218 1.7373151
-2.5672176 -3.3161898 1.7407795
-2.574204 -3.3231838 1.735495
-2.5626884 -3.3294249 1.7315903
-2.5585747 -3.3248599 1.7266989
-2.5480568 -3.3337116 1.7278124
-2.5398347 -3.3308239 1.7406265
-2.5365734 -3.3428419 1.7414263
-2.6449788 -3.4985666 1.6701825
-2.64254 -3.4990563 1.6737221
-2.6351085 -3.5072541 1.6781249
-2.6379652 -3.498996 1.670964
-2.6373522 -3.502368 1.6804068
-2.6220186 -3.518873 1.6672001
-2.6305847 -3.5159178 1.6821431
-2.624037 -3.5271039 1.6718127
-2.6163707 -3.5347314 1.6679419
-2.615885 -3.5237663 1.6756185
-2.5945945 -3.5301294 1.6835872
-2.6065919 -3.5389454 1.6747797
-2.5950446 -3.5452266 1.6814812
-2.5790894 -3.5392663 1.680141
-2.5902901 -3.5576003 1.679122
-2.5720427 -3.5455129 1.6852843
-2.5669973 -3.5469091 1.6780809
-2.5670035 -3.56668 1.6833643
-2.5573354 -3.5637119 1.6846856
-2.551533 -3.5651913 1.6806309
-2.558049 -3.5703177 1.6738648
-2.5565913 -3.5723846 1.6819278
-2.543936 -3.567852 1.6673476
-2.6553702 -3.7284131 1.6244078
-2.637126 -3.7491915 1.6247091
-2.6398952 -3.7366858 1.620715
-2.636497 -3.744102 1.6189351
-2.6202972 -3.7564979 1.6209878
-2.6188087 -3.7642033 1.6096047
-2.6159937 -3.7510891 1.6203319
-2.6172285 -3.769479 1.6095151
-2.6052239 -3.771404 1.6202067
-2.6051517 -3.7656717 1.6189996
-2.5996542 -3.7655807 1.6168886
-2.5991409 -3.772471 1.6177083
-2.578321 -3.7873616 1.6147356
-2.5814903 -3.7840905 1.6280409
-2.5664341 -3.7898607 1.6126376
-2.5693207 -3.7993889 1.6132087
-2.5635848 -3.7913539 1.6105663
-2.567117 -3.7898102 1.613199
-2.561461 -3.8015239 1.6175646
-2.5451083 -3.7984321 1.6113126
-2.5499578 -3.8151152 1.6287948
-2.6430855 -3.9758387 1.5650715
-2.6289937 -3.9818957 1.5680364
-2.6378696 -3.9764087 1.5578935
-2.633435 -3.9811578 1.565594
-2.6243985 -3.9940903 1.5673721
-2.6147857 -3.986589 1.560784
-2.6078105 -3.987927 1.5593307
-2.5981972 -3.9889207 1.5697474
-2.6042135 -3.998879 1.5668324
-2.5964763 -3.9990087 1.5708033
-2.5912521 -4.0114207 1.5568891
-2.5917952 -4.015295 1.56062
-2.5693684 -4.0136051 1.5535321
-2.5770793 -4.0130453 1.5653818
-2.5570848 -4.0290189 1.5679778
-2.5553071 -4.0209551 1.561746
-2.5601127 -4.0314956 1.5578396
-2.5463665 -4.0380077 1.5565947
-2.5421984 -4.0361271 1.5690393
-2.6428504 -4.1941414 1.5070431
-2.6373904 -4.2106371 1.4942178
-2.6258392 -4.2132807 1.5011418
-2.6305521 -4.2191081 1.493372
-2.6223478 -4.2182612 1.5097703
-2.6022887 -4.2230406 1.4937958
-2.5996284 -4.231667 1.5094781
-2.6031947 -4.2307296 1.4982047
-2.5906625 -4.2416816 1.5039957
-2.57937 -4.2341051 1.4952369
-2.5756278 -4.230916 1.4940618
-2.5759258 -4.2481437 1.5000865
-2.5690444 -4.2397017 1.5071547
-2.555234 -4.2418599 1.5120746
-2.5491881 -4.2617054 1.5015119
-2.5467389 -4.2673883 1.5098326
-2.5402594 -4.2563138 1.5131807
-2.6361282 -4.4191227 1.4431614
-2.625 -4.4310384 1.4437791
-2.6280756 -4.4375787 1.4356024
-2.6199052 -4.4462986 1.4542359
-2.6129045 -4.4412441 1.4392546
-2.599874 -4.4552402 1.4363199
-2.5997703 -4.4413633 1.4548236
-2.5947416 -4.4473825 1.4370698
-2.5802703 -4.4568996 1.4372123
-2.5774736 -4.4658899 1.452001
-2.5713234 -4.4586701 1.4519538
-2.5772369 -4.4665141 1.4436823
-2.5625274 -4.4636307 1.4525535
-2.5559897 -4.4787784 1.4363787
-2.5508137 -4.4731331 1.4489238
-2.5406137 -4.4806695 1.4511296
-2.627682 -4.6608787 1.3929096
-2.6216705 -4.6558537 1.3902607
-2.6134079 -4.6625853 1.381725
-2.6049972 -4.6727519 1.3878213
-2.6017931 -4.6630058 1.3847506
-2.5986309 -4.6654158 1.3774405
-2.5837352 -4.6793633 1.3966094
-2.5799632 -4.6730256 1.3842175
-2.5723608 -4.6877694 1.3810492
-2.5722084 -4.678575 1.393914
-2.5698452 -4.6883779 1.3966897
-2.5677459 -4.6986747 1.3881735
-2.5482907 -4.7072182 1.3966005
-2.5373662 -4.6938663 1.3785261
-2.6314054 -4.8722019 1.3359029
-2.6172101 -4.8856564 1.3324682
-2.6103201 -4.8707457 1.3387235
-2.6042557 -4.8785977 1.3349456
-2.6105781 -4.8853874 1.3200437
-2.6000638 -4.8985701 1.3379465
-2.5966797 -4.8959398 1.3296478
-2.5905147 -4.8977661 1.3346449
-2.5728607 -4.9066968 1.3346814
-2.5667748 -4.9112687 1.3316435
-2.5587585 -4.905385 1.3222059
-2.5554092 -4.9121165 1.3229963
-2.5554898 -4.9187732 1.3223708
-2.54931 -4.9261866 1.3375566
-2.5269032 -4.9267478 1.3296064
-2.5193932 -4.9236255 1.3321178
-2.5139756 -4.923955 1.3208942
-2.5168517 -4.9249606 1.3314699
-2.5147257 -4.9351583 1.3367302
-2.4925585 -4.9461212 1.3210249
-2.4934242 -4.9359236 1.3347998
-2.4837224 -4.9492383 1.32543
-2.4732256 -4.9494991 1.3329809
-2.4633493 -4.9504514 1.3366864
-2.4582827 -4.955873 1.3233887
-2.4611611 -4.9606657 1.3367617
-2.4615233 -4.9669261 1.3333441
-2.4531045 -4.962954 1.3324503
-2.4341052 -4.9637518 1.3248782
-2.4298406 -4.9692826 1.3298532
-2.4212766 -4.9825845 1.328526
-2.4189332 -4.9730954 1.337375
-2.4059546 -4.9800248 1.3294441
-2.4054205 -4.9839983 1.3240321
-5.5405459 -3.0424697 1.1443063
-5.5282979 -3.0542467 1.1390386
-5.5254726 -3.0534966 1.1437428
-5.5193281 -3.0653391 1.1339231
-5.528194 -3.0800488 1.1500987
-5.524826 -3.0682328 1.1520307
-5.3351545 -2.9997592 1.1998252
-5.3400836 -3.0088191 1.2024677
-5.3319058 -3.0133421 1.1913202
-5.341157 -3.022562 1.208455
-5.3204875 -3.022624 1.1952145
-5.3257804 -3.0346947 1.1979405
-5.3163309 -3.0282078 1.2091537
-5.3221669 -3.0398548 1.1962554
-5.317812 -3.0446568 1.196373
-5.2972713 -3.0503914 1.1960257
-5.2947879 -3.0581048 1.1980593
-5.3010502 -3.0749376 1.1985065
-5.2846599 -3.0877931 1.2018985
-5.1337972 -2.9972835 1.2600828
-5.1115341 -3.0069222 1.2491109
-5.1225014 -3.0060866 1.2535185
-5.1107326 -3.0200438 1.251857
-5.1077409 -3.0240898 1.2659868
-5.0976372 -3.0280442 1.2627468
-5.1074061 -3.0357316 1.2611986
-5.0975122 -3.0452197 1.2593573
-5.0855751 -3.0452645 1.2480977
-5.0931807 -3.0532236 1.2513907
-5.0773845 -3.0602443 1.2557681
-5.0799441 -3.0691919 1.2576715
-5.0734658 -3.0733068 1.2475699
-5.0625701 -3.0898628 1.2506645
-4.9096408 -2.987601 1.313411
-4.8863969 -2.9992833 1.3227942
-4.8863835 -3.0049744 1.3116256
-4.8879085 -3.0050218 1.3180988
-4.8912654 -3.0173917 1.3116508
-4.8858724 -3.0216372 1.3043616
-4.8771768 -3.0343661 1.3171636
-4.8640943 -3.0339444 1.3081237
-4.8690987 -3.0513442 1.3220689
-4.8641953 -3.0621576 1.3065518
-4.8561878 -3.0680463 1.320338
-4.8619747 -3.0748804 1.3092954
-4.8583694 -3.0658998 1.319409
-4.8459225 -3.082653 1.3163167
-4.8469934 -3.0869811 1.3076903
-4.8345027 -3.0901434 1.321648
-4.8292913 -3.1088474 1.3097007
-4.8312693 -3.0987155 1.304993
-4.8222771 -3.1178441 1.3096976
-4.8193307 -3.1163352 1.3103946
-4.8118916 -3.1310935 1.3120031
-4.810657 -3.1359236 1.3135716
-4.8004556 -3.1414421 1.3109086
-4.8001313 -3.1388171 1.3182744
-4.8028898 -3.161576 1.3080883
-4.7942657 -3.1561666 1.3215096
-4.7916741 -3.1698778 1.322991
-4.7810206 -3.169908 1.3213623
-4.7750659 -3.1852968 1.3073566
-4.7843966 -3.1820991 1.3216057
-4.7730212 -3.195832 1.3078358
-4.7600279 -3.192709 1.3159695
-4.4473505 -2.9892585 1.4184128
-4.4357333 -3.003952 1.4171016
-4.4367414 -3.0058115 1.4197465
-4.427927 -3.0034633 1.4345098
-4.4256825 -3.0229499 1.4222645
-4.421948 -3.0162184 1.4166855
-4.4198332 -3.0279768 1.4224079
-4.411716 -3.03352 1.4180123
-4.4093409 -3.0521514 1.4265616
-4.4007273 -3.0422623 1.4249054
-4.4039712 -3.0622842 1.4188505
-4.3978634 -3.0548804 1.4243174
-4.3930588 -3.0726845 1.434134
-4.385601 -3.0658832 1.4325022
-4.3833709 -3.0810549 1.4175812
-4.3733773 -3.0767181 1.4355832
-4.3689547 -3.0945015 1.4280127
-4.3788009 -3.0884109 1.4210786
-4.2167263 -2.9929769 1.4782373
-4.2025576 -3.0041916 1.4749026
-4.2100363 -3.0029199 1.4777079
-4.2035618 -3.0198185 1.4740731
-4.1916122 -3.0161994 1.4787838
-4.1898379 -3.029417 1.47644
-4.1896873 -3.0247083 1.4850624
-4.1844492 -3.0343184 1.4841535
-4.181201 -3.0438268 1.491587
-4.1655154 -3.0475106 1.4912311
-4.1767559 -3.0497653 1.4812026
-4.1673794 -3.0620422 1.4858488
-4.1613297 -3.0659969 1.4776505
-4.1524668 -3.0676847 1.4784312
-4.1472301 -3.0816383 1.4887033
-4.1372747 -3.0780413 1.4916236
-4.1496553 -3.0785253 1.4851128
-4.1334052 -3.0980117 1.4748459
-4.1380563 -3.0984981 1.480919
-4.1352654 -3.1075549 1.4891506
-3.9796808 -2.9965756 1.5375142
-3.9674196 -2.99582 1.5428809
-3.9705048 -3.0132957 1.5301173
-3.9617801 -3.0061975 1.5414845
-3.9522672 -3.0181599 1.5447104
-3.9524744 -3.0244722 1.5373397
-3.9497535 -3.0274785 1.5352854
-3.9335358 -3.0385563 1.539539
-3.9475775 -3.0386145 1.5490946
-3.9355381 -3.0402193 1.5353755
-3.9352596 -3.0437269 1.5428708
-3.9231601 -3.0591655 1.536678
-3.9256861 -3.0618892 1.53856
-3.9209683 -3.060096 1.533085
-3.9048755 -3.0730054 1.5411862
-3.9055493 -3.0703452 1.5485079
-3.8935859 -3.089195 1.5383502
-3.9036696 -3.096066 1.5426357
-3.8894918 -3.1012247 1.5323781
-3.8857508 -3.098598 1.5460248
-3.8957214 -3.0999541 1.5416672
-3.8781891 -3.1134803 1.5473682
-3.7373211 -2.9936197 1.5923871
-3.7242522 -2.9933071 1.5881341
-3.7166512 -3.0011945 1.5964509
-3.7209415 -3.0140555 1.5929012
-3.7179031 -3.0192611 1.5959688
-3.7050149 -3.0188656 1.5976268
-3.7078342 -3.0286152 1.5995814
-3.7009037 -3.0389547 1.5896116
-3.7003193 -3.0436027 1.6037287
-3.6840854 -3.0350645 1.5897565
-3.682143 -3.0395322 1.600886
-3.671725 -3.0551243 1.5975442
-3.6855528 -3.0473154 1.5915254
-3.6710567 -3.0680044 1.5978502
-3.6601031 -3.0698695 1.6041678
-3.6660748 -3.0630689 1.5960735
-3.6503811 -3.0833163 1.6034163
-3.6527259 -3.0808699 1.6056005
-3.6450334 -3.0820827 1.5883113
-3.6432164 -3.0913126 1.6047297
-3.6353645 -3.1028583 1.601843
-3.6363761 -3.1082511 1.5885216
-3.6407225 -3.1117444 1.58816
-3.6310804 -3.1050212 1.5922545
-3.4896963 -2.9864993 1.6561732
-3.4675727 -3.0031719 1.6554756
-3.4735363 -3.0084527 1.6596574
-3.4721506 -3.0003865 1.6514066
-3.4685736 -3.0089433 1.6470581
-3.4622791 -3.0200059 1.6585888
-3.4595597 -3.0275469 1.6436768
-3.4597201 -3.0204363 1.6484689
-3.4531951 -3.022016 1.6548584
-3.4470251 -3.038305 1.6530559
-3.4367535 -3.0429783 1.649722
-3.4391072 -3.0497184 1.6545852
-3.4221516 -3.0466197 1.6590316
-3.4210076 -3.046339 1.6564021
-3.4281077 -3.0666924 1.6500678
-3.4195497 -3.0649691 1.657517
-3.4194541 -3.0647504 1.6622654
-3.414264 -3.0689235 1.6589588
-3.4042752 -3.0708094 1.6589009
-3.4078903 -3.0907698 1.6473763
-3.393301 -3.0847101 1.6559951
-3.3820391 -3.0852621 1.6626843
-3.3859074 -3.093123 1.6572771
-3.3853226 -3.1041117 1.6569492
-3.3673606 -3.1064782 1.6610605
-3.3757265 -3.1045716 1.6516818
-3.3766365 -3.1268611 1.6473024
-3.2322011 -2.9977353 1.7000751
-3.2118385 -2.9932523 1.7191803
-3.2115276 -2.9966962 1.7030878
-3.2027349 -3.0098693 1.7178116
-3.205317 -3.0161054 1.7167341
-3.2012038 -3.0105412 1.7125399
-3.2024918 -3.0287304 1.7020959
-3.1841011 -3.0333023 1.7140174
-3.1815929 -3.0305915 1.712572
-3.1884573 -3.0331488 1.7135572
-3.1796947 -3.0362256 1.7178594
-3.1747036 -3.0431285 1.7111561
-3.1706009 -3.0539155 1.705515
-3.1625848 -3.0601113 1.711201
-3.1598387 -3.0530968 1.7151452
-3.1581638 -3.0661829 1.709142
-3.160677 -3.0647767 1.7094321
-3.1536279 -3.0692062 1.7096267
-3.1546512 -3.0753605 1.7170026
-3.1371138 -3.0726175 1.7062862
-3.1385849 -3.0853572 1.7169517
-3.1357477 -3.0773568 1.7051672
-3.1396077 -3.0895114 1.7070426
-3.1291027 -3.0979133 1.7071632
-3.1129057 -3.1078391 1.7187334
-3.1127584 -3.1003659 1.7016467
-3.118608 -3.0996878 1.710389
-3.1041615 -3.1162493 1.7191187
-3.1095145 -3.1181283 1.7061054
-3.1074853 -3.1267707 1.7002399
-3.0961664 -3.1211908 1.7060338
-2.9593649 -3.0006022 1.7607715
-2.9493437 -3.0044892 1.7711912
-2.9574413 -3.0021966 1.7575898
-2.9454126 -3.0080383 1.7584378
-2.941808 -3.0180702 1.7711276
-2.9352841 -3.0182955 1.7688582
-2.9400125 -3.0084243 1.774384
-2.9360054 -3.0282617 1.7623814
-2.9250057 -3.0304317 1.766081
-2.9198658 -3.0256507 1.7596986
-2.9089265 -3.0432537 1.7617527
-2.8997939 -3.0350246 1.7640579
-2.9002361 -3.0390885 1.7727879
-2.8942738 -3.0553243 1.7598026
-2.8874581 -3.0521619 1.7609057
-2.8879468 -3.0466883 1.765898
-2.8906991 -3.0501611 1.7648704
-2.8879201 -3.0538504 1.7681081
-2.8771381 -3.0707695 1.7732728
-2.8826509 -3.0667841 1.7673092
-2.8745403 -3.0761003 1.7678277
-2.8643701 -3.0805306 1.7606544
-2.8718891 -3.0896552 1.7734904
-2.8506725 -3.0770757 1.7741578
-2.8624356 -3.081944 1.7620486
-2.8530898 -3.0915704 1.7594683
-2.8387463 -3.1082239 1.7574646
-2.8454249 -3.1063793 1.775815
-2.8288603 -3.0980387 1.7612835
-2.8271253 -3.1195028 1.7747686
-2.8313484 -3.1171539 1.7629629
-2.8150475 -3.1089377 1.7707464
-2.8259144 -3.1125491 1.7734184
-2.8239396 -3.1192582 1.7726772
-2.8012922 -3.1220503 1.7710689
-2.682765 -2.9969153 1.82038
-2.6749954 -3.0044961 1.8204759
-2.6692245 -3.0030923 1.8263998
-2.665098 -3.0094659 1.8246411
-2.6554976 -2.9984529 1.8253894
-2.6524072 -3.0160162 1.8124514
-2.6611168 -3.0216377 1.8316884
-2.6420383 -3.0224903 1.8312665
-2.6402824 -3.0257385 1.8280821
-2.6392624 -3.0307145 1.8260461
-2.6398456 -3.0295274 1.8301725
-2.6276629 -3.0247579 1.8304679
-2.6353791 -3.0384095 1.8159108
-2.6171665 -3.0321317 1.818718
-2.6207073 -3.0404561 1.8162702
-2.6234946 -3.0498974 1.8199853
-2.619215 -3.0522618 1.8217993
-2.5956931 -3.0597653 1.8264748
-2.5925882 -3.0497363 1.8316108
-2.5926623 -3.0629156 1.8154733
-2.5947676 -3.0609114 1.8242193
-2.5927413 -3.0709636 1.8214258
-2.5904145 -3.0729756 1.8286654
