# .PCD v0.7 - Point Cloud Data file format
VERSION 0.7
FIELDS x y z
SIZE 4 4 4
TYPE F F F
COUNT 1 1 1
WIDTH 1523
HEIGHT 1
VIEWPOINT 0 0 0 1 0 0 0
POINTS 1523
DATA ascii
-5.1327038 3.181386 1.612904
-5.134748 3.1717405 1.6054586
-4.9666438 3.063904 1.6512864
-4.9839926 3.0503442 1.6500202
-4.9893222 3.0420601 1.6528441
-4.9850845 3.0520296 1.6435543
-4.9852486 3.039675 1.6483316
-4.9897451 3.0316777 1.6503989
-4.9884791 3.0146756 1.6437827
-5.0005765 3.0239527 1.6436044
-5.0031333 3.0033944 1.6529251
-5.1791816 3.1049771 1.6145349
-5.1754737 3.0930073 1.6025981
-5.1911716 3.0879447 1.6040602
-5.1881261 3.0817983 1.6042031
-5.2022462 3.064126 1.6012863
-5.205646 3.0705161 1.6129913
-5.204258 3.0566268 1.6036817
-5.2007933 3.0482106 1.6043584
-5.2039337 3.0518942 1.6013064
-5.207243 3.0372086 1.6046965
-5.221221 3.0379837 1.6169086
-5.2283354 3.0267737 1.6043965
-5.227376 3.024163 1.6140734
-5.3940587 3.1055982 1.5596175
-5.4116087 3.1002409 1.5599968
-5.412065 3.0957503 1.5540358
-5.4208059 3.0769038 1.561461
-5.4188461 3.0657687 1.5677513
-5.4161987 3.0757289 1.5650127
-5.4365926 3.0666063 1.5548817
-5.4335856 3.0477214 1.552825
-5.4383564 3.0459278 1.5668635
-5.4356284 3.0292885 1.5656022
-5.443213 3.0192664 1.5563799
-5.4399991 3.0160038 1.5693589
-5.4563951 3.0165842 1.5654124
-5.6295829 3.1063399 1.5249463
-5.6246238 3.0884681 1.526166
-5.6333637 3.0775108 1.5249288
-5.6448312 3.0704167 1.5221577
-5.6464181 3.0705755 1.5080965
-5.6500511 3.0701995 1.5198421
-5.6596346 3.0567763 1.5225555
-5.6504683 3.0399833 1.5228591
-5.6705132 3.0306082 1.5075185
-5.657568 3.0290306 1.5203825
-5.6685586 3.029289 1.5170047
-5.6747599 3.0188091 1.5236295
-5.8521166 3.0946333 1.4619339
-5.8584399 3.0922778 1.4662745
-5.8675227 3.0726044 1.4786665
-5.8706555 3.0735562 1.4785811
-5.8620315 3.0691721 1.472977
-5.8706822 3.0581906 1.4784902
-5.8790178 3.0513895 1.4625447
-5.8826828 3.0417478 1.4729438
-5.8934717 3.0253191 1.4715294
-5.8876276 3.0268812 1.4675691
-5.8951468 3.0076537 1.4766204
-6.072866 3.0944939 1.4262588
-6.0725961 3.0881991 1.42966
-6.0799227 3.0830452 1.4222114
-6.0873222 3.0707781 1.4185833
-6.0803146 3.0541108 1.4321839
-6.0877814 3.0533469 1.4271997
-6.0911822 3.0331459 1.4207962
-6.1041718 3.0263722 1.4261919
-6.0985637 3.0296474 1.4213837
-6.1169043 3.0095968 1.4255879
-6.2811542 3.095428 1.3715397
-6.2956567 3.0799184 1.3849351
-6.3067455 3.0813634 1.3816769
-6.3052707 3.0596781 1.3746576
-6.3074117 3.049258 1.3794831
-6.3159399 3.0556164 1.3720629
-6.3094397 3.0428081 1.3729659
-6.3093309 3.0412319 1.3756251
-6.3238139 3.0294735 1.3900954
-6.3230929 3.0235727 1.3730568
-6.514307 3.0957892 1.3394934
-6.5182772 3.0743425 1.3444619
-6.5088391 3.066088 1.3396796
-6.5226469 3.0635772 1.3420215
-6.5234613 3.0431819 1.342759
-6.5194373 3.0385029 1.3386769
-6.5428205 3.0245559 1.3306141
-6.5452881 3.0149376 1.3298086
-6.545084 3.0150435 1.3260841
-6.7275796 3.081054 1.3000602
-6.730031 3.0749488 1.2971395
-6.7407889 3.0691597 1.281875
-6.7265649 3.0570822 1.2874651
-6.7371101 3.0554576 1.2996594
-6.7453003 3.0372667 1.3005793
-6.7527399 3.0273354 1.2859471
-6.7442479 3.0182436 1.2865008
-6.7638063 3.0108938 1.2865747
-6.9423432 3.0867009 1.2506551
-6.9465146 3.0623755 1.2541519
-6.9514527 3.0598834 1.2409474
-6.9592977 3.0509045 1.2513635
-6.9623933 3.0404079 1.2391175
-6.9598856 3.0236111 1.2546685
-6.9651699 3.022856 1.2414563
-6.9695206 3.0188804 1.2477462
-7.1475453 3.0843623 1.2091395
-7.1660542 3.0774679 1.1978722
-7.1644754 3.0544026 1.1931077
-7.1735587 3.0514417 1.1937236
-7.1791306 3.0478048 1.2015587
-7.1778932 3.0205719 1.2101327
-7.1862259 3.0144782 1.1979338
-7.18679 3.0151141 1.1986674
-7.3716912 3.0694289 1.1631376
-7.3699932 3.0685806 1.1586171
-7.3819904 3.0529435 1.1525655
-7.3873367 3.0430715 1.1496227
-7.3839355 3.0390384 1.1536235
-7.3852844 3.0301685 1.1646781
-7.386003 3.0199587 1.162117
-7.5794954 3.0681984 1.1171057
-7.5838776 3.0590637 1.1012775
-7.5804443 3.0535545 1.1161233
-7.596262 3.0472221 1.1005729
-7.6023512 3.026854 1.1144757
-7.5929461 3.0187404 1.1030489
-7.6095777 3.0095186 1.1120634
-7.7904654 3.0791459 1.0621201
-7.7861085 3.0601549 1.058876
-7.7906818 3.0446396 1.0557532
-7.797801 3.0404351 1.0582132
-7.8046722 3.0361154 1.0621336
-7.8073568 3.0194817 1.0711458
-9.4439268 1.378981 0.78318435
-9.4353991 1.3681039 0.79340327
-9.4481258 1.3476167 0.79024386
-9.4459724 1.3394605 0.78720737
-9.4384356 1.3254713 0.78595132
-9.4456367 1.308785 0.79949802
-9.44561 1.2971998 0.79832375
-9.4507332 1.2834871 0.79884374
-9.4463387 1.274567 0.78790838
-9.4493361 1.2508986 0.78420311
-9.4511032 1.2410358 0.79422462
-9.4526834 1.2415999 0.78656083
-9.4640255 1.2113184 0.7916044
-9.4585094 1.2050538 0.80168885
-9.4560108 1.1881706 0.7909838
-9.4547501 1.1859124 0.79679459
-9.4599237 1.1654885 0.78422505
-9.4662533 1.1617309 0.79115009
-9.4720449 1.1441382 0.80236483
-9.4687529 1.1253015 0.78312343
-9.2756414 1.083887 0.83247781
-9.285965 1.0854224 0.83036953
-9.2839336 1.0573125 0.83119917
-9.2768412 1.056398 0.8389861
-9.2796469 1.0396425 0.84311402
-9.2931385 1.0257899 0.83821017
-9.2808018 1.0083867 0.84611118
-9.2810163 1.0062591 0.84348571
-9.2942877 0.97992682 0.83650082
-9.2963257 0.97845453 0.84391457
-9.2975874 0.95813709 0.84569544
-9.2947206 0.94899601 0.84198123
-9.2939444 0.94336754 0.84312892
-9.2923193 0.92629522 0.83633584
-9.3028898 0.9078635 0.84576297
-9.2893143 0.89736742 0.83431524
-9.3006248 0.8806178 0.83844417
-9.3040152 0.86504507 0.83342713
-9.3100138 0.85757434 0.83506155
-9.3029785 0.84942037 0.8482092
-9.3085117 0.84134173 0.83402687
-9.3122454 0.81744897 0.84369272
-9.2996759 0.81563383 0.84072125
-9.3059397 0.79672587 0.83367038
-9.3189793 0.78851217 0.84118253
-9.3025732 0.77512056 0.83119512
-9.3175964 0.75164729 0.83745623
-9.3084726 0.74599344 0.8411445
-9.304348 0.73553348 0.83036369
-9.3185701 0.71328259 0.84443206
-9.3196268 0.70665461 0.84342676
-9.3148479 0.69743025 0.83153516
-9.320385 0.68189549 0.83083642
-9.3088751 0.66119796 0.84423935
-9.324398 0.64854461 0.84243971
-9.3123903 0.63336265 0.8402611
-9.3303518 0.62420428 0.84762335
-9.3220348 0.6051985 0.84234726
-9.3300104 0.59132838 0.83962822
-9.3287487 0.58422822 0.84767669
-9.3334007 0.57704574 0.84211689
-9.3190403 0.55559874 0.84035385
-9.3165531 0.54955298 0.83607852
-9.3347454 0.53593701 0.84412938
-9.3195181 0.52770007 0.8325519
-9.3260708 0.51235431 0.83881867
-9.3347845 0.49991229 0.82895458
-9.3361177 0.47663522 0.83311337
-9.3227091 0.46621135 0.83643186
-9.3320017 0.4578599 0.84568119
-9.3332272 0.44564933 0.84078014
-9.3399935 0.42857423 0.84746534
-9.3285055 0.41474313 0.84113896
-9.3412743 0.40345725 0.83423203
-9.3259745 0.38811958 0.83212447
-9.1475677 0.35929823 0.89295238
-9.1375313 0.35035092 0.88913274
-9.1373415 0.34073591 0.87507516
-9.1329746 0.32517713 0.88363397
-9.1452713 0.3209556 0.87688231
-9.1483011 0.29611978 0.89096206
-9.1362143 0.28510985 0.88100946
-9.1374245 0.28616288 0.89026934
-9.1449423 0.27500352 0.88128769
-9.1393499 0.25968263 0.89001346
-9.1358471 0.24862278 0.89059603
-9.1367426 0.22809076 0.87500614
-9.1414404 0.20822251 0.88257664
-9.1401768 0.19317684 0.88736451
-9.1503372 0.18627226 0.88070756
-9.1472321 0.17675814 0.8819921
-9.1500282 0.15973347 0.88504463
-9.1427593 0.14188345 0.88192868
-9.1462135 0.13688174 0.88043231
-9.1386309 0.11782143 0.87639451
-9.1423044 0.12259496 0.87407684
-9.1453772 0.10678636 0.88400757
-9.1440229 0.086575985 0.88685089
-9.1550798 0.067906305 0.88742977
-9.1413317 0.059336133 0.87388569
-9.1542215 0.054113865 0.88360941
-9.1458101 0.046319243 0.88909078
-9.1543274 0.025999688 0.88950473
-9.1459436 0.0024150929 0.87769979
-9.1390381 0.0065838392 0.87961763
-9.1561518 -0.012768241 0.8790924
-9.1555662 -0.035058547 0.8755421
-9.145031 -0.035876989 0.88456511
-9.1516352 -0.047653031 0.88770235
-9.1376429 -0.065598778 0.87505335
-9.1371765 -0.076371163 0.88996625
-9.1469688 -0.098685607 0.88986862
-9.1512623 -0.10948954 0.88223571
-9.1551237 -0.11189891 0.88380241
-9.1507721 -0.12741007 0.88232213
-9.1444845 -0.14006077 0.87427402
-9.1387043 -0.15216863 0.87671977
-9.1364565 -0.1738029 0.89113116
-9.1451683 -0.18212026 0.88655055
-9.1507254 -0.19654179 0.87680805
-9.1489124 -0.21061157 0.88907689
-9.1521692 -0.21460582 0.89181489
-9.1355066 -0.22304317 0.87653232
-9.1464577 -0.23550966 0.8916235
-9.1358252 -0.26381022 0.88398641
-9.1466551 -0.26602688 0.87648124
-9.1455145 -0.28268495 0.88965058
-9.1419115 -0.29733467 0.87396765
-9.143878 -0.300953 0.88274896
-9.1304083 -0.3304027 0.88989007
-9.1466627 -0.33833271 0.87574226
-9.1306305 -0.34983015 0.89038068
-9.1318426 -0.36499256 0.8893618
-9.1483192 -0.3714529 0.8886559
-9.1296873 -0.38764435 0.89242858
-9.1386738 -0.39504722 0.88676304
-9.135148 -0.40170959 0.87721747
-9.1384354 -0.42518568 0.88579959
-9.1373882 -0.4310641 0.88354015
-9.1275406 -0.44392541 0.88460726
-9.1305351 -0.45351207 0.89051986
-9.1276598 -0.46755525 0.87770993
-9.130127 -0.4833169 0.88251179
-9.1335964 -0.49607959 0.87362671
-9.1377535 -0.51075214 0.88132292
-9.1381197 -0.53497154 0.87438816
-9.1241341 -0.53624296 0.87356222
-9.1196766 -0.54139709 0.88203049
-9.1266184 -0.56611681 0.87738985
-9.1358023 -0.58162075 0.89265651
-9.1239014 -0.58076781 0.89110422
-9.3204489 -0.61073422 0.84303159
-9.3153906 -0.63109595 0.83720708
-9.5198545 -0.6492002 0.78614086
-9.5188246 -0.65888172 0.79840994
-9.7043829 -0.70378155 0.75397849
-9.8968182 -0.71599388 0.70103747
-9.8957558 -0.73040771 0.70094699
-10.100449 -0.76748246 0.66365254
-10.289721 -0.79509223 0.60361266
-10.289464 -0.81669992 0.60242712
-10.484918 -0.83706152 0.57181585
-10.663136 -0.87378812 0.51386929
-10.672979 -0.8857944 0.52965879
-10.862735 -0.91426086 0.48381805
-11.060153 -0.95547897 0.44048527
-11.042627 -0.95928711 0.43813309
-11.246817 -1.0004326 0.3899568
-11.431026 -1.0336218 0.33346561
-11.627214 -1.0634952 0.29866534
-11.818126 -1.0947859 0.25662893
-12.010149 -1.1290464 0.20434198
-12.207464 -1.1691049 0.16598007
-12.203519 -1.1817938 0.15576464
-12.397621 -1.2306486 0.12330014
-4.9764009 4.9664059 1.4295865
-4.9833174 4.959775 1.4317294
-4.9846458 4.9366369 1.4350431
-4.9857373 4.9363508 1.4416504
-5.0038128 4.9303069 1.4257498
-5.0027266 4.9206123 1.4358691
-5.0163465 4.9199128 1.4349558
-5.01614 4.9058223 1.4230465
-5.033854 4.8975105 1.4335313
-5.0317516 4.895123 1.4287122
-5.0384173 4.8961086 1.4246694
-5.058157 4.8770747 1.4409603
-5.0557437 4.8836002 1.4410868
-5.0700068 4.8759127 1.4279107
-5.0776529 4.8570175 1.4356838
-5.0811896 4.8460674 1.4407648
-5.0745969 4.8483467 1.4321587
-5.0889077 4.8376708 1.436484
-5.095118 4.8361101 1.4395287
-5.1108332 4.823472 1.4272269
-5.1113577 4.810977 1.422961
-4.9734869 4.6721482 1.4705402
-4.9815569 4.676116 1.4678954
-4.9894915 4.6726007 1.484642
-4.9905915 4.6482105 1.469582
-5.0039091 4.6470437 1.4706697
-5.012136 4.6392202 1.4811438
-5.0089593 4.643827 1.4680592
-5.0214477 4.6289539 1.4805399
-5.0308809 4.6250863 1.467518
-5.0326066 4.6074057 1.4691461
-5.038588 4.6118679 1.4724941
-5.0407996 4.5947652 1.4667746
-5.0456462 4.5962234 1.4845138
-5.0537362 4.583066 1.4848452
-5.0568762 4.5830669 1.4710019
-5.0789189 4.5813074 1.4763361
-5.070477 4.5691805 1.4732869
-5.0751104 4.5510116 1.4823838
-5.0872531 4.5498462 1.4746413
-5.0924077 4.5533814 1.4762549
-5.0959239 4.5373526 1.469377
-5.1160827 4.5255189 1.4724513
-5.1219506 4.5152364 1.4840474
-4.9834318 4.3944983 1.5133784
-4.9910293 4.3859553 1.5259732
-4.9924607 4.3817382 1.523899
-4.9885483 4.3723202 1.5167973
-5.0076752 4.3646169 1.5186355
-4.9976954 4.3511095 1.5264252
-5.0154486 4.3387756 1.5248768
-5.0115781 4.3292437 1.5144345
-5.0145755 4.3258619 1.5193024
-5.0344892 4.3229103 1.5210403
-5.0427966 4.3181281 1.5179543
-5.0455823 4.3118467 1.5132908
-5.0557632 4.3102231 1.5113837
-5.0480089 4.2985916 1.5270408
-5.0673461 4.2939029 1.5219859
-5.0648355 4.285254 1.5104228
-5.0745249 4.2849021 1.5135339
-5.085753 4.2744608 1.5141295
-5.0874133 4.2670527 1.5183679
-5.0841961 4.2457519 1.5266877
-5.0992312 4.2421541 1.517267
-5.097342 4.2417717 1.5286151
-5.1001062 4.2371998 1.525398
-5.1047678 4.2263637 1.5176163
-5.1137624 4.2221618 1.5122207
-4.9767594 4.0828757 1.5690784
-4.9821796 4.0836196 1.5688571
-4.984479 4.0790777 1.5652947
-4.9861727 4.0588074 1.5614325
-5.0036182 4.067677 1.563386
-4.9927344 4.0474238 1.5688667
-5.0112615 4.0549626 1.5610983
-5.0184307 4.0456295 1.5558994
-5.0288072 4.0375175 1.567014
-5.0269556 4.0262837 1.5610845
-5.0304899 4.0268726 1.5665917
-5.0409756 4.0077224 1.5598062
-5.0516725 4.0119433 1.55545
-5.0459223 4.0001311 1.5578026
-5.0440245 3.9965246 1.5560118
-5.060163 3.9894428 1.560963
-5.0708108 3.9694657 1.5604559
-5.0692177 3.9679413 1.5576262
-5.072813 3.9616523 1.5737031
-5.0852842 3.962817 1.5655723
-5.0836744 3.9460399 1.565065
-5.0965481 3.94436 1.5724493
-5.0961971 3.9375558 1.5711045
-5.1001925 3.9220648 1.5650052
-5.1018252 3.9140248 1.5623643
-5.1052384 3.9153895 1.5597152
-5.1236911 3.9116395 1.5641696
-5.1226406 3.8950064 1.5541881
-4.9686537 3.7627327 1.608833
-4.9741721 3.7612679 1.6079277
-4.9878116 3.7669067 1.6173569
-4.9819484 3.7451563 1.6122257
-4.9886913 3.7492309 1.6074172
-4.996769 3.7347744 1.6142524
-5.0109363 3.7241395 1.60019
-5.0077348 3.7155354 1.6146423
-5.0071726 3.7139132 1.612502
-5.0221462 3.718766 1.6008937
-5.0270915 3.7072639 1.6017433
-5.0412011 3.6954842 1.608091
-5.0362062 3.6952956 1.6070473
-5.0417724 3.6861911 1.6112305
-5.0524597 3.675555 1.6064728
-5.0479455 3.6620426 1.6142507
-5.0565867 3.6595542 1.5983927
-5.0592799 3.6454496 1.600937
-5.0675116 3.6370792 1.6088728
-5.0778732 3.6388977 1.6086823
-5.079833 3.6409235 1.6040179
-5.0809336 3.6339824 1.6146089
-5.0956764 3.6171691 1.6120536
-5.0914531 3.6199131 1.6074437
-5.1030369 3.5970831 1.5992544
-5.0993681 3.6038704 1.6046165
-5.1079116 3.5871103 1.6145616
-5.1123028 3.5727408 1.61748
-5.11414 3.5752134 1.5991135
-5.1280313 3.5723884 1.6096576
-5.1221032 3.5526576 1.6093271
-4.9801331 3.4461613 1.6529808
-4.9681039 3.4408898 1.643116
-4.9786201 3.4248664 1.6431156
-4.9937367 3.4222744 1.6474128
-4.9970331 3.4083555 1.6456318
-4.9949574 3.410888 1.6542324
-5.0029268 3.3940139 1.6556119
-5.0079679 3.4002776 1.6466197
-5.0113659 3.3776145 1.641965
-5.02421 3.3858345 1.6447488
-5.017375 3.3802731 1.6589218
-5.030695 3.3715212 1.6547823
-5.0338702 3.3570237 1.6615847
-5.0370364 3.3521705 1.6527671
-5.0358953 3.3487723 1.6570094
-5.0365252 3.3321915 1.6507696
-5.0485444 3.3323729 1.6546477
-5.0591745 3.3322351 1.6517881
-5.0587873 3.3134117 1.6532706
-5.0630445 3.3064466 1.649985
-5.064508 3.3110094 1.6481562
-5.0717888 3.2869351 1.6446004
-5.083199 3.2843583 1.6535785
-5.0877972 3.2832792 1.6447414
-5.081203 3.2679946 1.6595507
-5.0903563 3.2567236 1.6448301
-5.0857396 3.2580671 1.6573484
-5.0972347 3.2534046 1.6567929
-5.1115799 3.2537434 1.6444843
-5.1044321 3.2344294 1.6522875
-5.1205602 3.2382462 1.6517367
-5.1185074 3.2193668 1.6542014
-5.1199999 3.2136517 1.6611853
-5.1325045 3.2079031 1.6541926
-5.1338363 3.1933041 1.6590241
-5.1403484 3.1940961 1.6597
-4.9755158 3.0815444 1.69266
-4.9840674 3.0847499 1.7042662
-4.973165 3.078126 1.7033457
-4.9745612 3.0631549 1.6902515
-4.9881449 3.0565512 1.688121
-5.0022688 3.0564859 1.6942641
-4.9939189 3.0394034 1.7018514
-4.9985752 3.0342817 1.6908559
-5.0102148 3.032284 1.6924331
-5.0170126 3.0282192 1.7019805
-5.0231247 3.0073669 1.688656
-5.1876969 3.1021788 1.6416767
-5.1931815 3.0919986 1.6588567
-5.1995769 3.0846848 1.6480364
-5.1990561 3.0880408 1.6575886
-5.2006555 3.081516 1.654058
-5.2161021 3.0675745 1.6604331
-5.2039509 3.0732009 1.6486808
-5.222785 3.0514021 1.6419307
-5.2200322 3.0470097 1.6581219
-5.2277212 3.0406997 1.6604728
-5.228725 3.0416131 1.64472
-5.2328787 3.0213561 1.6460445
-5.2398419 3.0190082 1.647319
-5.2376151 3.0214751 1.6592193
-5.4153581 3.1032646 1.6080512
-5.4272242 3.0970066 1.6140426
-5.4327044 3.0871634 1.6129479
-5.4299269 3.0827394 1.617348
-5.4338884 3.0653117 1.6046553
-5.4416485 3.0644279 1.612958
-5.4470468 3.0667634 1.6094854
-5.4481874 3.0491576 1.6130732
-5.4479928 3.0487912 1.6016362
-5.4465127 3.0348434 1.5999953
-5.4531221 3.0168667 1.6108406
-5.4670701 3.0113304 1.6030056
-5.4750156 3.0046093 1.6129109
-5.635303 3.0984967 1.5621628
-5.6400523 3.098913 1.5654014
-5.6574836 3.0758333 1.5553578
-5.6466007 3.0716088 1.555257
-5.6591797 3.0704865 1.5651641
-5.66816 3.0537908 1.5623239
-5.6685658 3.0427966 1.5731612
-5.6706014 3.0494041 1.573653
-5.6817808 3.026264 1.5562453
-5.6807842 3.0193679 1.5597594
-5.6898713 3.027621 1.5712645
-5.8585501 3.1063278 1.5272605
-5.8714323 3.1007457 1.5118958
-5.8743463 3.090323 1.5202122
-5.8773499 3.0715866 1.5153179
-5.8704348 3.068125 1.5216459
-5.8863487 3.0685008 1.5249032
-5.8914132 3.0510731 1.5226974
-5.8959746 3.0466874 1.5252872
-5.8979325 3.0275087 1.5289221
-5.8963647 3.0234423 1.5287575
-5.9032803 3.0275588 1.5243485
-5.9103694 3.0030973 1.5225576
-6.0869842 3.0880122 1.474731
-6.0812211 3.0859628 1.4801993
-6.1003408 3.0750978 1.4704242
-6.0931201 3.072577 1.4692488
-6.1026301 3.0492377 1.4788758
-6.1143341 3.0455718 1.472353
-6.1034365 3.0441713 1.4748933
-6.1088924 3.0285509 1.4816148
-6.1145005 3.030215 1.4807067
-6.1245055 3.0089791 1.4835964
-6.3116746 3.0950363 1.4278491
-6.3075738 3.0853422 1.4423858
-6.3179922 3.0808051 1.4345781
-6.3181734 3.0677531 1.4327759
-6.3195181 3.0494435 1.4361666
-6.331223 3.0436707 1.4244299
-6.3294387 3.0330245 1.439837
-6.3251014 3.0211396 1.4281735
-6.3340302 3.0278516 1.4267304
-6.3438549 3.0087514 1.4326131
-6.5273395 3.085149 1.3837439
-6.5262938 3.0665886 1.397818
-6.5306988 3.0618856 1.3961794
-6.5428987 3.061265 1.3903193
-6.5368881 3.0435514 1.3949863
-6.5474739 3.0383718 1.3827227
-6.5497837 3.0392034 1.3886611
-6.5566735 3.0285869 1.391569
-6.5552144 3.0132432 1.390049
-6.7327776 3.0931404 1.3544756
-6.7469654 3.0691686 1.3448898
-6.7461905 3.070523 1.3458676
-6.7513289 3.0517404 1.3512727
-6.7580919 3.0450132 1.3451935
-6.7507024 3.0285389 1.3505427
-6.7586322 3.0257084 1.3398603
-6.7588129 3.0247853 1.3391637
-6.9515262 3.0800636 1.293191
-6.9629436 3.081856 1.3048594
-6.9558678 3.0678563 1.3047209
-6.9605327 3.0639467 1.3100359
-6.9747701 3.0450773 1.3061367
-6.9680157 3.0453222 1.2928923
-6.9758425 3.0230427 1.3023639
-6.9897351 3.0123789 1.3048103
-7.1576195 3.0948861 1.2500625
-7.1769252 3.0842733 1.2476715
-7.1769137 3.0636177 1.2511383
-7.1790419 3.0558276 1.2661197
-7.1894875 3.0393825 1.2568291
-7.1800575 3.0425282 1.253363
-7.1852984 3.0156789 1.2607673
-7.1944251 3.0198123 1.2581623
-7.3769836 3.0752144 1.2192104
-7.3899589 3.065793 1.2231711
-7.3804736 3.0520294 1.222514
-7.3819027 3.0432413 1.2212638
-7.3857083 3.0387321 1.2093838
-7.4060326 3.0363481 1.2197453
-7.4113607 3.0277576 1.2036992
-7.5868907 3.085938 1.1770235
-7.5850487 3.0697203 1.1773669
-7.5957875 3.0685732 1.1718991
-7.609117 3.0492527 1.177014
-7.5975642 3.0412304 1.1630261
-7.602036 3.0269523 1.1655993
-7.6071496 3.0154901 1.169715
-7.7951303 3.0757961 1.1158391
-7.8134441 3.0683963 1.1337405
-7.8013816 3.0598693 1.1333998
-7.8053493 3.0409248 1.1284779
-7.8121591 3.0280962 1.117951
-7.8186097 3.0287883 1.1168958
-7.830513 3.0203958 1.1271447
-9.4559517 1.3672314 0.87249994
-9.4607124 1.351963 0.85645962
-9.4659681 1.350978 0.86806959
-9.4646902 1.3254708 0.86308545
-9.4541798 1.3184431 0.87116903
-9.4607229 1.3012609 0.861022
-9.475318 1.2889658 0.86308169
-9.4668951 1.2706815 0.85555571
-9.471386 1.2588456 0.87092388
-9.4703608 1.2500615 0.86088526
-9.4763556 1.2258366 0.87008411
-9.4784279 1.2187351 0.8572312
-9.4765215 1.208244 0.85661238
-9.4829874 1.2008789 0.86370808
-9.4744186 1.1858536 0.85700023
-9.2840471 1.1424316 0.91015607
-9.297473 1.1301413 0.90042728
-9.2888193 1.1280481 0.90564597
-9.2876749 1.103219 0.9122631
-9.2911434 1.1011525 0.90333289
-9.3046322 1.0748101 0.90341705
-9.2889051 1.0680954 0.90964115
-9.3060122 1.0449681 0.89861816
-9.3037195 1.0370383 0.91347629
-9.2943134 1.0193217 0.90655774
-9.3115969 1.019902 0.91313177
-9.2995253 1.0086323 0.90039814
-9.297164 0.98757207 0.89855617
-9.3095665 0.96919554 0.90487212
-9.3153334 0.96887088 0.90211076
-9.3100128 0.95655948 0.90599823
-9.3045893 0.94146025 0.91616434
-9.3129234 0.93072033 0.91619861
-9.3122625 0.90372074 0.90130049
-9.3167257 0.90755737 0.90168524
-9.3080893 0.89552236 0.9156518
-9.3128605 0.87695259 0.91135198
-9.3103466 0.86211932 0.89899725
-9.3096571 0.85624123 0.90127331
-9.3226337 0.82593548 0.91623384
-9.3183527 0.82227188 0.91189402
-9.3301668 0.80533463 0.90546775
-9.3317957 0.80134791 0.90131617
-9.3333731 0.77928865 0.90318149
-9.3298292 0.77401501 0.9019016
-9.3258839 0.75860858 0.90160662
-9.3279524 0.73964334 0.91576344
-9.3343029 0.72438568 0.90811032
-9.3329906 0.71099371 0.9076041
-9.3293839 0.70578331 0.90981871
-9.3307981 0.68599319 0.90139788
-9.3365335 0.67551088 0.90906966
-9.3286781 0.6645025 0.90578598
-9.324955 0.65300232 0.91347599
-9.3393488 0.64611226 0.90892673
-9.3350039 0.62421715 0.9020068
-9.3309364 0.62128353 0.909159
-9.3326931 0.59301156 0.91409224
-9.3420858 0.58704662 0.89867365
-9.3319654 0.56566471 0.9110862
-9.339613 0.56382644 0.89675146
-9.3356628 0.53719199 0.90497857
-9.3440228 0.53933519 0.91524285
-9.3356476 0.52610439 0.90705365
-9.3395643 0.49936494 0.9050225
-9.3480129 0.49783707 0.91414541
-9.3433628 0.48122573 0.91338521
-9.3515415 0.46368784 0.89740455
-9.3547697 0.45757025 0.90851176
-9.1584644 0.43336073 0.95510989
-9.1446495 0.41155815 0.9491058
-9.1451521 0.41446358 0.94952327
-9.1574087 0.38974878 0.94514102
-9.1593838 0.37413013 0.94058609
-9.1495295 0.37529761 0.94235086
-9.1616888 0.34870195 0.95564789
-9.1647072 0.34742334 0.94539452
-9.148468 0.33861396 0.95066524
-9.1481924 0.32720712 0.94288123
-9.1567907 0.29778421 0.95295739
-9.1625919 0.28275779 0.95402342
-9.1543798 0.28779316 0.95078802
-9.1657324 0.26111749 0.95563173
-9.1614494 0.25299504 0.95765156
-9.1617031 0.23523669 0.95363426
-9.1601744 0.22581124 0.95581746
-9.1653309 0.21384169 0.9495188
-9.1607227 0.19856779 0.94720823
-9.1508265 0.184009 0.94628888
-9.1686954 0.18127248 0.94874537
-9.1564713 0.17313744 0.94897461
-9.1631622 0.1535998 0.94703907
-9.1530714 0.14307709 0.9512282
-9.1581182 0.11718708 0.9600957
-9.161128 0.11137486 0.94400615
-9.1681376 0.10740524 0.95129293
-9.1529455 0.078575209 0.95941234
-9.1640348 0.07463146 0.94506037
-9.1574163 0.060844734 0.94895262
-9.1516991 0.049431004 0.94291168
-9.1635075 0.030466499 0.94153935
-9.1550694 0.025017245 0.95343328
-9.1685476 0.0098478738 0.94760871
-9.1578197 -0.010197829 0.94869864
-9.1582069 -0.013100036 0.95678097
-9.154665 -0.02287603 0.95369864
-9.1638193 -0.037342608 0.95459133
-9.1648359 -0.062798388 0.94434547
-9.1601858 -0.061553892 0.95311826
-9.1516266 -0.074528426 0.94328278
-9.1690903 -0.099265538 0.94728833
-9.1679077 -0.095535919 0.95865017
-9.1548147 -0.12527509 0.94764829
-9.1675272 -0.1242939 0.94940627
-9.159132 -0.14372483 0.94106764
-9.1626368 -0.15965739 0.95575857
-9.1692066 -0.1648048 0.94878834
-9.1548653 -0.19104765 0.94916773
-9.1507521 -0.19273783 0.94359684
-9.1578474 -0.20598306 0.95785654
-9.1547613 -0.21682428 0.96018404
-9.1676512 -0.22663382 0.95904583
-9.1491623 -0.24351771 0.94097298
-9.1616564 -0.25330049 0.9566856
-9.1523752 -0.27489221 0.94577122
-9.1514149 -0.28021049 0.95172799
-9.1557455 -0.29233766 0.94534069
-9.147028 -0.310381 0.94551355
-9.1579142 -0.3245863 0.95679891
-9.1543522 -0.32618079 0.94764125
-9.1565142 -0.34499988 0.96044415
-9.1563301 -0.35703805 0.95623893
-9.1572657 -0.37093338 0.94795066
-9.1562567 -0.37768781 0.94268006
-9.1595173 -0.39554328 0.94861764
-9.1536751 -0.4128384 0.94203621
-9.1418571 -0.41488224 0.95612633
-9.1564093 -0.42864496 0.94497132
-9.1507702 -0.45374718 0.95240855
-9.1538286 -0.45575973 0.9510482
-9.1460266 -0.48042294 0.94366491
-9.1454039 -0.48540926 0.95703906
-9.1489677 -0.49185684 0.94931263
-9.1408024 -0.51783854 0.94762582
-9.1378908 -0.52764171 0.94087678
-9.1490231 -0.53218067 0.94962513
-9.146718 -0.54549867 0.94912136
-9.1503067 -0.57398289 0.9476456
-9.145031 -0.57746059 0.9538576
-9.1323013 -0.58464628 0.95084608
-9.3356171 -0.61774796 0.91214049
-9.3315773 -0.63813394 0.90505475
-9.5288105 -0.65638173 0.86048865
-9.5190668 -0.67386353 0.86654508
-9.7256193 -0.70330948 0.81176353
-9.9188623 -0.72518802 0.78522611
-9.9087095 -0.73139954 0.78197181
-10.113608 -0.77694392 0.73919523
-10.105375 -0.78334272 0.72953975
-10.305435 -0.81333524 0.68165839
-10.488442 -0.83332932 0.64650309
-10.491793 -0.85466909 0.64782894
-10.676665 -0.8957867 0.5937289
-10.882218 -0.90864104 0.55546451
-11.061648 -0.9549188 0.51520771
-11.077583 -0.96424407 0.50488698
-11.270579 -1.0018466 0.47839254
-11.446759 -1.0313766 0.41516158
-11.641826 -1.0743098 0.37965736
-11.846474 -1.104434 0.34378034
-12.03511 -1.1447606 0.29807058
-12.040771 -1.1514235 0.2895039
-12.219294 -1.1887423 0.24697332
-12.40802 -1.2189825 0.20310232
-12.611115 -1.2560875 0.1650086
-12.810567 -1.29102 0.11306086
-4.9725509 4.9703984 1.4872574
-4.9847403 4.9688883 1.4811385
-4.9904604 4.9641337 1.4757112
-4.9881091 4.948122 1.4892749
-4.9976234 4.9502549 1.4795634
-5.0076451 4.9370999 1.4747094
-5.0144849 4.933877 1.4760396
-5.0291014 4.9273911 1.4909769
-5.0284376 4.9236245 1.4855648
-5.0346403 4.9106612 1.4849473
-5.0397944 4.8966131 1.4899395
-5.053267 4.897294 1.4803874
-5.0528493 4.8991637 1.4930565
-5.0578485 4.8902841 1.4766988
-5.0692739 4.8787789 1.4894686
-5.0704012 4.8641315 1.4760878
-5.0763726 4.869514 1.4864979
-5.1010036 4.8471398 1.477446
-5.0906878 4.8522792 1.4916605
-5.1057734 4.8380566 1.4799544
-5.1214671 4.8255105 1.4812524
-4.969687 4.692503 1.5326849
-4.9897337 4.6807323 1.5306671
-4.9971018 4.670764 1.5268501
-5.0008178 4.6761608 1.5186185
-5.011754 4.667212 1.5228391
-5.0160613 4.6590633 1.5195518
-5.0099492 4.6530447 1.5210087
-5.0128789 4.644094 1.5347337
-5.021584 4.6467991 1.5213736
-5.0419855 4.6205425 1.5226144
-5.0410795 4.6303163 1.5318131
-5.0511227 4.6065679 1.5362082
-5.0631738 4.6019673 1.5176104
-5.0590315 4.6001563 1.5313947
-5.0631118 4.5939045 1.5232244
-5.0829611 4.5898314 1.5339084
-5.0860877 4.5783472 1.5255862
-5.0877476 4.5704002 1.5353349
-5.0956726 4.560204 1.5348191
-5.0969477 4.5560536 1.5350859
-5.096972 4.5592465 1.5321747
-5.1077876 4.5388236 1.5325727
-4.9676847 4.4033976 1.577828
-4.9725022 4.4080949 1.5659559
-4.9835262 4.3951111 1.5749162
-4.9827108 4.3886657 1.566897
-4.9912019 4.3854713 1.5744957
-5.0080047 4.3669858 1.5612581
-5.0150495 4.3669333 1.5649447
-5.0226002 4.3519545 1.5716097
-5.0298743 4.3432899 1.5686052
-5.02005 4.3501377 1.5723245
-5.0298176 4.3368936 1.5771427
-5.0367117 4.3249598 1.5736181
-5.0354686 4.3281202 1.5640775
-5.0452547 4.3182049 1.5750681
-5.0630503 4.3058977 1.5698497
-5.0532374 4.3028765 1.5731394
-5.0766525 4.2988901 1.563379
-5.0763707 4.2934227 1.5656505
-5.0894141 4.2867408 1.5662761
-5.0854521 4.2759337 1.5607774
-5.0977607 4.2613993 1.5690708
-5.1052413 4.2660007 1.5724747
-5.0962367 4.2578664 1.5660921
-5.1167626 4.2459564 1.5768557
-5.106288 4.2422523 1.5623816
-4.9700818 4.1101737 1.6143564
-4.9813428 4.1050501 1.6070395
-4.9823542 4.0861802 1.6013501
-4.9810843 4.0802283 1.6160821
-4.9991794 4.0841904 1.6071185
-5.0027628 4.0817852 1.6107401
-4.9980435 4.0578318 1.6060915
-5.0099106 4.0688047 1.620445
-5.0081501 4.0451641 1.6100336
-5.0156164 4.0379 1.6030706
-5.0375471 4.0417943 1.6153682
-5.0298848 4.0401368 1.6095011
-5.02953 4.0231671 1.6117306
-5.0348544 4.0131564 1.6149827
-5.0454369 4.0107307 1.6091793
-5.0649729 4.0103912 1.6079614
-5.0608778 4.0004311 1.6097882
-5.0614214 3.9842546 1.6095942
-5.0676012 3.9754789 1.6127735
-5.0841827 3.9648676 1.6157109
-5.0877175 3.957947 1.6095724
-5.0989447 3.9642997 1.6088142
-5.0960288 3.956609 1.6181318
-5.0908737 3.9491856 1.6044922
-5.1024566 3.9367614 1.6154879
-5.1198325 3.930373 1.6132131
-5.1184168 3.9336417 1.608055
-5.1151643 3.9219191 1.6138049
-4.976418 3.7913752 1.6602631
-4.969995 3.7881832 1.6608185
-4.9806247 3.7869794 1.661561
-4.9973836 3.7800615 1.6557716
-4.9948907 3.7615621 1.6494149
-5.0030708 3.7537107 1.6627656
-5.0048804 3.7597597 1.6508306
-5.0156846 3.7339056 1.6596533
-5.0087538 3.7349303 1.6588987
-5.0269718 3.7246606 1.6535829
-5.0194297 3.722903 1.6630762
-5.0278111 3.7128365 1.6563367
-5.0356274 3.7173986 1.65536
-5.0426912 3.7104509 1.6544391
-5.0355349 3.6912348 1.6620002
-5.0547252 3.6890683 1.6486984
-5.060555 3.6703117 1.6484416
-5.05831 3.6659608 1.6493337
-5.0672321 3.6737406 1.6582611
-5.0768991 3.6484931 1.6439366
-5.0718722 3.6559682 1.6548795
-5.077342 3.6402326 1.6627879
-5.0895414 3.6418414 1.662298
-5.0827074 3.6215374 1.6619067
-5.0967846 3.6135314 1.6493535
-5.1032906 3.6114662 1.6616948
-5.1030884 3.6086926 1.6623476
-5.1031327 3.593276 1.6457247
-5.1222754 3.594039 1.6439641
-5.1124806 3.5902269 1.6440455
-5.1170001 3.5765238 1.6586988
-4.9699216 3.4710863 1.6871119
-4.9754143 3.450073 1.7018532
-4.9813876 3.4409461 1.7034084
-4.9877424 3.4427848 1.7040825
-4.9866409 3.4431503 1.6898235
-4.9931879 3.4287405 1.6999301
-4.9990726 3.4192991 1.7017663
-5.0015707 3.4157178 1.6915185
-5.0058193 3.4069242 1.7046187
-5.0099764 3.3985939 1.6911829
-5.0194712 3.3816695 1.6908206
-5.022934 3.3840597 1.6964015
-5.0316463 3.3852742 1.6998188
-5.0387931 3.3649223 1.6920449
-5.0452561 3.3704505 1.6916131
-5.0459685 3.3542001 1.7037549
-5.0365644 3.3568239 1.6934453
-5.0453138 3.3416991 1.6865511
-5.0643015 3.327065 1.6978667
-5.050179 3.3330033 1.6878617
-5.0694828 3.3141668 1.6879488
-5.0691385 3.3165774 1.6974491
-5.0832038 3.3149762 1.6951939
-5.0738416 3.2909186 1.6996229
-5.0922437 3.2850785 1.6966228
-5.0910673 3.2831972 1.7044218
-5.0977392 3.2753808 1.7019004
-5.0947108 3.2634661 1.6913165
-5.098567 3.257205 1.6931674
-5.1110973 3.2496977 1.6880318
-5.1136227 3.2475085 1.6911417
-5.1160507 3.2502751 1.7037505
-5.1289687 3.2435784 1.7018529
-5.1241322 3.2308357 1.7029986
-5.1348562 3.2242732 1.705412
-5.1285706 3.223459 1.6930578
-4.9684391 3.09741 1.7423993
-4.9767118 3.1022985 1.7445611
-4.9755588 3.0878737 1.747595
-4.9925451 3.0854509 1.7302608
-4.994657 3.0850255 1.7378833
-4.99365 3.0666845 1.7354245
-5.0000238 3.0599282 1.7334272
-5.0082855 3.0625012 1.7458519
-4.9953918 3.0388327 1.7388849
-5.0000753 3.0459225 1.738281
-5.0171027 3.03157 1.7419366
-5.0271707 3.0332534 1.7374383
-5.0150671 3.0203891 1.7454791
-5.0199199 3.014828 1.7380669
-5.1901174 3.1112943 1.6948135
-5.2048011 3.0929432 1.7025923
-5.2019339 3.0924783 1.6906024
-5.2210536 3.0880015 1.6881793
-5.2077384 3.0806592 1.6890872
-5.2213802 3.0728643 1.7040905
-5.2156157 3.052263 1.6917527
-5.2261853 3.0458047 1.6881156
-5.2412429 3.0556517 1.6986374
-5.2282495 3.0448372 1.6906269
-5.2426581 3.0360279 1.6862575
-5.2379184 3.0168457 1.6908126
-5.2453895 3.024832 1.7021841
-5.2448401 3.0179896 1.6963664
-5.4366441 3.1052999 1.6481081
-5.4377241 3.0864449 1.6617463
-5.44379 3.0776148 1.6620882
-5.4421835 3.0824654 1.6632832
-5.4442034 3.076498 1.6616426
-5.4556904 3.0677536 1.6565106
-5.4551778 3.04882 1.6498984
-5.459024 3.0388358 1.6514391
-5.4583039 3.0455792 1.6483068
-5.4662023 3.0370607 1.645679
-5.479907 3.0308571 1.6611571
-5.4794679 3.0078762 1.6453761
-5.6569142 3.096818 1.6059752
-5.6626043 3.097712 1.601424
-5.6670885 3.0808575 1.6185193
-5.6732025 3.0767758 1.61449
-5.6644368 3.0774565 1.619153
-5.6622725 3.0585301 1.6014631
-5.6785569 3.0445521 1.6181542
-5.6779618 3.0468938 1.6139702
-5.6799836 3.0397375 1.6112319
-5.6865163 3.0372164 1.6131682
-5.6888189 3.012969 1.6180109
-5.6881199 3.0073373 1.6116543
-5.8650403 3.0923252 1.5739639
-5.871901 3.0844321 1.5625019
-5.8827801 3.089577 1.5596452
-5.8889842 3.0811472 1.5657926
-5.8928671 3.0606837 1.5658984
-5.9000473 3.0650544 1.5762882
-5.8913999 3.0516315 1.5674698
-5.905479 3.035893 1.5640849
-5.9176106 3.0220578 1.5644125
-5.9048877 3.0331166 1.5670742
-5.91851 3.0245185 1.5718865
-6.1018739 3.1014991 1.5346335
-6.1023564 3.0835047 1.5331421
-6.1056843 3.0835822 1.5314525
-6.1028528 3.0640416 1.5175368
-6.1199031 3.0615742 1.5362351
-6.1265521 3.0519958 1.5297598
-6.1220074 3.0525682 1.5358008
-6.1208358 3.0252278 1.5362678
-6.1393242 3.0348172 1.5360606
-6.1351395 3.0149798 1.5355281
-6.3217978 3.0961132 1.4897228
-6.3277574 3.0951176 1.4768431
-6.315196 3.0750778 1.4925752
-6.3243117 3.0621409 1.4773067
-6.3273311 3.0564132 1.4881169
-6.3316393 3.0482841 1.4779007
-6.342411 3.0489357 1.476815
-6.3471293 3.0349824 1.4769528
-6.351368 3.0267525 1.4752499
-6.3558016 3.0069075 1.4822854
-6.5376019 3.0834947 1.450948
-6.546073 3.0749357 1.4498395
-6.547411 3.063221 1.4375297
-6.5530038 3.0666611 1.441128
-6.5538526 3.0513401 1.4478492
-6.5638781 3.0359566 1.435298
-6.5641074 3.034035 1.4322608
-6.5654092 3.0316167 1.4441389
-6.5665607 3.0091684 1.4366616
-6.7472811 3.0874891 1.3958278
-6.7631869 3.0837858 1.3996238
-6.7480259 3.0758991 1.4039998
-6.7539597 3.0509496 1.4058059
-6.7721901 3.0446692 1.4002031
-6.7668095 3.0417891 1.4084363
-6.774694 3.0331199 1.3904486
-6.7751164 3.0284455 1.3997082
-6.7785635 3.0066803 1.3957238
-6.9690013 3.0867264 1.3560801
-7.1471229 3.1476169 1.3229373
-7.1447902 3.1381216 1.3179233
-7.1586471 3.1280599 1.3144693
-7.1681142 3.1163228 1.3155184
-7.1757612 3.1106009 1.3197453
-7.1689968 3.0944927 1.3105568
-7.1739855 3.0947189 1.3221694
-7.1769476 3.0787287 1.318584
-7.1906366 3.0634844 1.3227152
-7.1882954 3.0608649 1.3176157
-7.1831927 3.0433924 1.3046355
-7.188827 3.032625 1.3121597
-7.199461 3.0323584 1.3196276
-7.2135348 3.0269692 1.3053706
-7.2065458 3.0182631 1.3154094
-7.3959131 3.0753868 1.2769722
-7.3939619 3.0568225 1.2711828
-7.4003835 3.0595841 1.279439
-7.4103761 3.0529313 1.2624929
-7.4162226 3.0328794 1.2729752
-7.4071546 3.0221765 1.2760388
-7.4110522 3.0100715 1.2783947
-7.6087303 3.0845311 1.2281581
-7.6177087 3.0558867 1.2249953
-7.6209288 3.0584211 1.2232039
-7.6140957 3.0363617 1.2338701
-7.6232929 3.0405195 1.2363136
-7.6182647 3.0225074 1.2318659
-7.6249657 3.0187397 1.2311184
-7.8106213 3.0645528 1.1782867
-7.8238554 3.0521832 1.1875086
-7.8340106 3.0401094 1.1949962
-7.8217945 3.035856 1.1943396
-7.8374081 3.026891 1.1956744
-7.8361692 3.0189569 1.1901857
-9.4770117 1.3738892 0.92445999
-9.4735241 1.3504671 0.9352079
-9.4738741 1.3338342 0.93937325
-9.4852648 1.334504 0.93672216
-9.469965 1.3182747 0.92880726
-9.481884 1.2977062 0.93895859
-9.4824762 1.2964443 0.92794567
-9.4760656 1.2834911 0.92310143
-9.4816628 1.2737424 0.92575145
-9.4847088 1.2480984 0.92809445
-9.4848928 1.2380722 0.94175875
-9.4849463 1.2334212 0.92523879
-9.3003216 1.1857753 0.96771806
-9.3053904 1.1733744 0.98171866
-9.2930927 1.1581045 0.97273558
-9.308691 1.15273 0.97643214
-9.3141203 1.1285584 0.97211754
-9.310545 1.1125746 0.96810299
-9.3117952 1.112752 0.9675954
-9.3103771 1.0916231 0.97470188
-9.3065977 1.0920309 0.98504275
-9.3091364 1.074088 0.98399562
-9.308176 1.0485424 0.97308218
-9.3071108 1.0395596 0.98276472
-9.312026 1.0244883 0.97017664
-9.3259068 1.0154138 0.96521538
-9.3160725 1.0024873 0.96908611
-9.3105345 0.99469614 0.96997887
-9.3289928 0.98719585 0.98405701
-9.3279409 0.96263659 0.9700163
-9.3197641 0.9433614 0.96939564
-9.321228 0.94303447 0.98384643
-9.3237219 0.92513609 0.96576804
-9.3371096 0.90975374 0.97172523
-9.3207979 0.89088804 0.97563165
-9.3370552 0.879556 0.983486
-9.3382559 0.87945426 0.97143829
-9.3355675 0.8662681 0.9846257
-9.3319674 0.85598314 0.9833411
-9.3342714 0.82809168 0.97052735
-9.3305988 0.82970041 0.97147042
-9.3475275 0.81115007 0.98512042
-9.3299875 0.79139358 0.97390771
-9.3305082 0.77951759 0.98035002
-9.3450537 0.76520461 0.98096591
-9.3356733 0.75586659 0.98329067
-9.3384209 0.74654227 0.97855633
-9.3531981 0.72110248 0.9736802
-9.3547697 0.72043991 0.97156501
-9.3376074 0.69863278 0.9746061
-9.353241 0.68164045 0.97230506
-9.3479128 0.6688422 0.98450452
-9.348917 0.67468888 0.96999985
-9.341115 0.66110212 0.97667307
-9.3468533 0.63403916 0.98208874
-9.3519564 0.61740649 0.97122329
-9.3547173 0.61905831 0.98409188
-9.3621941 0.60694706 0.98458052
-9.3545284 0.59426016 0.97746772
-9.3489599 0.57971299 0.98161036
-9.3603325 0.57049191 0.98182458
-9.3539867 0.54754001 0.98230582
-9.3554249 0.54450727 0.98170024
-9.3513479 0.53018099 0.9805758
-9.1654005 0.50062013 1.0078491
-9.1691847 0.47747996 1.0091684
-9.1638155 0.47242934 1.025211
-9.1655607 0.46073392 1.022215
-9.1667995 0.43751764 1.0196059
-9.1751328 0.44066533 1.0155246
-9.1593056 0.41321808 1.0152984
-9.1632462 0.41287485 1.0251973
-9.166688 0.39183515 1.0251417
-9.1707172 0.37559435 1.023839
-9.1758528 0.37082568 1.0164391
-9.1760893 0.36294487 1.0187075
-9.1749887 0.34108651 1.0087349
-9.1778269 0.33811915 1.0198774
-9.1636438 0.31453151 1.0206151
-9.1720514 0.30321074 1.0173125
-9.1645231 0.28829956 1.0193758
-9.1772032 0.29001221 1.0139096
-9.179966 0.26882997 1.0202184
-9.182766 0.26414728 1.0231017
-9.166851 0.23483966 1.0140324
-9.178319 0.22578885 1.0098991
-9.1674995 0.21831407 1.0167248
-9.1666355 0.20845795 1.0134014
-9.1746111 0.19322453 1.019309
-9.1818304 0.17000483 1.0267153
-9.1723347 0.17471758 1.0120301
-9.1807585 0.14713654 1.0118783
-9.1746292 0.13716067 1.023365
-9.1821747 0.12473438 1.0229907
-9.1668177 0.10855497 1.0261307
-9.1805124 0.10122251 1.0130422
-9.1783228 0.085005537 1.0253018
-9.1692896 0.069931515 1.0205287
-9.1835623 0.067142993 1.0133457
-9.1719084 0.057377584 1.015767
-9.1728315 0.037332777 1.0157253
-9.1684208 0.02907183 1.0209272
-9.184145 0.0071286089 1.0089781
-9.1683636 -0.0021881084 1.0174279
-9.1729393 -0.015995 1.0225236
-9.1743574 -0.023361316 1.0131125
-9.1688452 -0.048420332 1.0203102
-9.1710558 -0.044346247 1.0252596
-9.1780214 -0.074462488 1.0202466
-9.1721525 -0.072861411 1.0182943
-9.1838446 -0.092136808 1.0091233
-9.17556 -0.10697371 1.0245178
-9.1820555 -0.11752402 1.0107952
-9.1804829 -0.1323009 1.0205822
-9.1704416 -0.15167873 1.0093886
-9.1752872 -0.15251748 1.0236549
-9.1695261 -0.16790555 1.0256883
-9.1765499 -0.18558328 1.0246218
-9.1786051 -0.19032383 1.026265
-9.1656561 -0.20931017 1.0223351
-9.1746416 -0.220121 1.0119553
-9.17278 -0.24279794 1.0195639
-9.1755066 -0.25213906 1.0094476
-9.171937 -0.26009339 1.0173792
-9.1785631 -0.27821115 1.0187576
-9.1763649 -0.28139657 1.0121217
-9.179882 -0.29906076 1.0229217
-9.1613483 -0.30400613 1.0088676
-9.1638632 -0.33128315 1.0228963
-9.1647167 -0.32590479 1.0107615
-9.1694822 -0.34982336 1.0206385
-9.1646099 -0.35220972 1.0206605
-9.1721106 -0.37766945 1.0241629
-9.1697102 -0.37992507 1.0125321
-9.1593599 -0.40918955 1.015604
-9.167614 -0.41665649 1.0083106
-9.1624851 -0.42805955 1.0161723
-9.1665392 -0.44136536 1.0119076
-9.164629 -0.45764032 1.013184
-9.1686726 -0.45524126 1.0126562
-9.1648331 -0.47809812 1.0210268
-9.1710978 -0.49659067 1.0198272
-9.1573238 -0.50311011 1.0259833
-9.1600294 -0.50777292 1.0226986
-9.1543474 -0.52264738 1.0229633
-9.165576 -0.54635507 1.0085741
-8.9689913 -0.53354996 1.0579859
-8.9596329 -0.5571236 1.0645117
-9.1495752 -0.5719471 1.0251814
-9.1631517 -0.59921074 1.0234516
-9.3522568 -0.61637479 0.96928191
-9.3579369 -0.62769204 0.97181928
-9.5397787 -0.65955532 0.93825233
-9.5404463 -0.6615026 0.93522006
-9.7393227 -0.69266862 0.88772655
-9.7429533 -0.70193297 0.89172071
-9.9358559 -0.7451818 0.8469491
-10.121677 -0.7603929 0.81113315
-10.126052 -0.77658224 0.80794013
-10.322185 -0.80269879 0.76789111
-10.519982 -0.84429342 0.71654755
-10.5147 -0.85693061 0.72934765
-10.701632 -0.89366752 0.67457664
-10.899672 -0.91255504 0.63119727
-11.080676 -0.95687789 0.58414978
-11.092011 -0.96921873 0.58383805
-11.27401 -0.99799973 0.54619735
-11.478316 -1.03932 0.50220001
-11.675977 -1.0666536 0.47616157
-11.856756 -1.0969391 0.43367419
-11.860541 -1.1133949 0.42219386
-12.047808 -1.1445496 0.39037225
-12.242197 -1.1896263 0.33283636
-12.428889 -1.2198001 0.28797776
-12.63649 -1.2581031 0.2509031
-12.828668 -1.309637 0.21698382
-4.9696903 4.9804444 1.5299996
-4.98173 4.9737678 1.5403914
-4.9809198 4.9736228 1.5298889
-5.0026884 4.9738035 1.5268558
-5.0091786 4.964808 1.5277578
-5.0137186 4.9650402 1.5366117
-5.0196171 4.9411044 1.5254726
-5.0309935 4.934937 1.5258286
-5.0308228 4.9253693 1.5438825
-5.0294619 4.9355249 1.5263733
-5.0372882 4.9251571 1.5267071
-5.059504 4.909688 1.5273308
-5.0513182 4.9019589 1.5347863
-5.0736251 4.8993807 1.5294087
-5.0789552 4.8972216 1.5420318
-5.0833735 4.8774223 1.5418928
-5.078928 4.8786149 1.5448331
-5.0856113 4.8753114 1.5286309
-5.091929 4.8590493 1.5298953
-5.1001825 4.8510094 1.5283597
-4.9636164 4.7075782 1.5844718
-4.9688382 4.7033863 1.5712163
-4.9934263 4.694212 1.5773046
-4.9905491 4.6895518 1.5678968
-4.9930401 4.6863742 1.5834219
-5.0028982 4.6855798 1.5862491
-5.0128851 4.676023 1.5773801
-5.0199223 4.6665649 1.5723279
-5.0231519 4.6575613 1.5781434
-5.0251069 4.6470656 1.583058
-5.0285883 4.6375699 1.5861055
-5.0369091 4.6294069 1.5719205
-5.058476 4.6232009 1.5755297
-5.0539446 4.6264071 1.5814568
-5.0588112 4.6136479 1.5711929
-5.0681429 4.6175466 1.5671304
-5.0746374 4.5979638 1.5805163
-5.0899906 4.5978408 1.5714581
-5.0903869 4.5809746 1.5804194
-5.0849571 4.5886292 1.5859178
-5.0946031 4.5792704 1.5689615
-5.1011915 4.568047 1.5708927
-5.1219549 4.5617037 1.5736769
-4.972538 4.4165535 1.607698
-4.9835639 4.422945 1.6150751
-4.9848442 4.4064226 1.6134373
-4.9901772 4.4098139 1.6193124
-5.0021148 4.4042497 1.6121683
-5.0031004 4.3846774 1.6152712
-5.0151153 4.3769131 1.6131512
-5.0216217 4.3658714 1.6088032
-5.0250745 4.3745995 1.6203716
-5.0265865 4.3689122 1.6127459
-5.0253048 4.3524194 1.6169038
-5.0309539 4.3510475 1.6144148
-5.0492163 4.3345332 1.6223742
-5.0491061 4.3388143 1.6207037
-5.0631118 4.3172755 1.6204565
-5.0642509 4.3208594 1.6076332
-5.0622773 4.3185277 1.6140501
-5.0824142 4.2957783 1.6164384
-5.0868893 4.2956548 1.6145762
-5.0797858 4.2800889 1.6140571
-5.1002979 4.2718639 1.6240835
-5.0966425 4.28404 1.6197855
-5.1154656 4.2639937 1.6260288
-5.1063199 4.2700868 1.6236166
-5.1188345 4.2481952 1.6267382
-4.9805851 4.1265922 1.6614867
-4.9859767 4.1177559 1.6600305
-4.984941 4.1147742 1.6629223
-4.9815078 4.0932984 1.6527966
-4.9999266 4.084897 1.6542192
-4.9988551 4.0819445 1.6545397
-5.0077477 4.0885983 1.6541672
-5.0209279 4.0623703 1.6608874
-5.0278554 4.071219 1.6608486
-5.0171852 4.0534744 1.6660739
-5.0233836 4.0488896 1.6614426
-5.0357857 4.0446405 1.6549369
-5.049634 4.0471449 1.6524186
-5.0405807 4.0387902 1.6554018
-5.0616436 4.017715 1.6569691
-5.0612736 4.0233998 1.662577
-5.0605736 4.0058713 1.6618404
-5.060236 4.0008316 1.6618849
-5.0731683 3.9945235 1.6577953
-5.0861297 3.984535 1.6629864
-5.0938554 3.9739878 1.6506252
-5.0862026 3.9766684 1.661056
-5.1050458 3.9711204 1.6610397
-5.1063972 3.9602356 1.6597255
-5.1047554 3.9538887 1.6644006
-5.1215367 3.9535019 1.6618327
-5.1126995 3.9393959 1.6488162
-5.1245894 3.9311984 1.6578475
-4.9806695 3.7970438 1.7086285
-4.976419 3.794282 1.6955624
-4.9869676 3.7893355 1.6990601
-4.9898677 3.7775733 1.6923572
-5.002327 3.7724891 1.7072328
-4.9947929 3.771565 1.6983582
-5.008563 3.7577844 1.6902784
-5.0176487 3.7527142 1.7089616
-5.0092926 3.7419624 1.7006962
-5.0139427 3.7447927 1.6913983
-5.029552 3.7412491 1.6937038
-5.0353327 3.7272427 1.7002103
-5.0341697 3.7279639 1.7087405
-5.049499 3.7110519 1.6924857
-5.0515213 3.7069378 1.6981317
-5.0586581 3.6956048 1.6898457
-5.0546598 3.695739 1.6947783
-5.0587311 3.6920154 1.7016476
-5.0641098 3.6818659 1.7047793
-5.0777435 3.6722744 1.6977625
-5.0806656 3.672272 1.694231
-5.0812721 3.6516776 1.7037288
-5.0953622 3.6574252 1.700991
-5.1009121 3.6330125 1.7083919
-5.1027069 3.6317363 1.6987361
-5.0988455 3.6284728 1.704812
-5.1032605 3.614347 1.6980941
-5.1227326 3.621279 1.694732
-5.1153259 3.6079526 1.7083066
-5.1247768 3.606102 1.6993833
-5.1212349 3.5864291 1.6975582
-4.9804745 3.4795048 1.7432085
-4.9707904 3.4755301 1.7407594
-4.9838343 3.451076 1.7410194
-4.9894676 3.4498873 1.7471323
-4.9847469 3.4376104 1.7371176
-4.9939408 3.4459591 1.7401204
-5.0098424 3.4398661 1.7372056
-5.0090971 3.4262006 1.7481215
-5.0147667 3.4080944 1.744351
-5.0093503 3.4185307 1.7480789
-5.0257487 3.3939781 1.743796
-5.0174494 3.4039345 1.742499
-5.031589 3.3856618 1.7437152
-5.0254593 3.3865614 1.7307168
-5.0332065 3.376977 1.7324225
-5.0509586 3.3629847 1.7494642
-5.0456982 3.3578665 1.7474072
-5.0633426 3.3582606 1.7386856
-5.0500612 3.3377416 1.7388654
-5.0605407 3.3473859 1.7364957
-5.0672822 3.3253684 1.7365943
-5.0782967 3.3163779 1.7336766
-5.0705981 3.3179648 1.7395204
-5.0816736 3.310389 1.7333044
-5.0857377 3.2997639 1.7445511
-5.0880861 3.2960744 1.7488592
-5.0933828 3.2823238 1.7351098
-5.1007266 3.2755969 1.7488213
-5.0967822 3.2668099 1.749087
-5.1126475 3.272192 1.7460768
-5.1108732 3.2554712 1.7481357
-5.1089897 3.2523649 1.7482967
-5.1300144 3.2415755 1.737144
-5.125185 3.2443199 1.7455213
-5.1265616 3.2275994 1.7303857
-4.9706755 3.1293697 1.7796413
-4.9763322 3.1144044 1.7813092
-4.975729 3.1166646 1.7833818
-4.9814048 3.1074293 1.7838051
-4.986805 3.0868776 1.7767546
-4.9952054 3.0926402 1.780134
-5.0015373 3.0848157 1.7875638
-5.0076985 3.0804865 1.7713677
-5.0050025 3.0654964 1.7850852
-5.0139198 3.0536292 1.789258
-5.0179625 3.0561316 1.7861332
-5.0137019 3.037312 1.7749995
-5.0277638 3.0434208 1.7730887
-5.019743 3.0281694 1.7889109
-5.0312896 3.0318239 1.7711561
-5.0298762 3.0113738 1.7861446
-5.045074 3.008878 1.7802953
-5.2012539 3.1042783 1.7361472
-5.2253375 3.0866256 1.7449696
-5.2156935 3.0843127 1.7489293
-5.2218661 3.0822041 1.742402
-5.2311535 3.0685933 1.7440715
-5.2315645 3.0651484 1.7388721
-5.2338762 3.0539417 1.7454495
-5.240355 3.0553968 1.7427155
-5.2445788 3.0424631 1.7465713
-5.2538037 3.0385199 1.7349774
-5.2488675 3.0309973 1.7460548
-5.267107 3.0236988 1.7467723
-5.2565141 3.0103421 1.7324758
-5.4321566 3.1118076 1.7024133
-5.4442453 3.0913177 1.7070129
-5.4546542 3.0946839 1.6954843
-5.4502516 3.0799954 1.7000717
-5.4592609 3.0830741 1.6934429
-5.450994 3.0661657 1.701215
-5.4588604 3.0642583 1.6923846
-5.4583101 3.0515027 1.7033777
-5.4666715 3.044713 1.6944247
-5.4743047 3.0327115 1.6994734
-5.4762239 3.0194583 1.6966441
-5.4872327 3.0184255 1.7009326
-5.4936314 3.0112829 1.696201
-5.6634803 3.1064334 1.6634383
-5.676929 3.0830097 1.6623422
-5.6769958 3.0921202 1.6519691
-5.6692791 3.0776207 1.6673263
-5.6903815 3.0679171 1.6575716
-5.68048 3.0540869 1.6486764
-5.6795206 3.0568478 1.6554352
-5.693501 3.041903 1.6566019
-5.6903 3.0401523 1.664403
-5.7027988 3.0361955 1.6527345
-5.7000189 3.0185034 1.6502931
-5.7090278 3.0116639 1.6523529
-5.8925982 3.099757 1.610492
-5.8931808 3.0888948 1.6230304
-5.8983946 3.0811982 1.613808
-5.8933516 3.0676599 1.6187043
-5.897192 3.0593269 1.6143162
-5.9142623 3.0612483 1.622944
-5.9101543 3.0505943 1.6177877
-5.9182339 3.0316539 1.6166469
-5.9179702 3.019695 1.6257925
-5.9201365 3.0229173 1.6160828
-5.9402308 3.0202248 1.6117475
-6.1160622 3.0892777 1.5838263
-6.1046166 3.0891223 1.5774146
-6.1223822 3.0782809 1.5857148
-6.1152391 3.0678589 1.5739383
-6.132472 3.064615 1.5723451
-6.1410656 3.0497158 1.5683661
-6.1348033 3.0309622 1.5737203
-6.1296697 3.0366862 1.5753957
-6.1353788 3.0244462 1.5685792
-6.1507854 3.0163021 1.5673615
-6.3265762 3.0969388 1.5344987
-6.3333726 3.0874813 1.5309898
-6.3465686 3.0645363 1.5451932
-6.3314514 3.0730009 1.5375339
-6.3480988 3.0484865 1.5351961
-6.3463268 3.0396211 1.5265304
-6.3485217 3.0412483 1.5276885
-6.3653493 3.0322275 1.5431538
-6.3604898 3.021704 1.5349681
-6.3624339 3.0199683 1.5272332
-6.5428224 3.0858026 1.5021898
-6.5579762 3.0857651 1.4975034
-6.5566263 3.0768094 1.4987308
-6.56106 3.0672355 1.4972873
-6.5731397 3.0452669 1.5001997
-6.5675449 3.0493104 1.5031232
-6.5706029 3.035387 1.4965562
-6.5724902 3.028851 1.4898565
-6.5788989 3.0113778 1.5015274
-6.77175 3.0770347 1.4594005
-6.7741666 3.0825875 1.4498583
-6.7806511 3.0572679 1.4494379
-6.7718091 3.0575674 1.4492269
-6.7817264 3.037689 1.448613
-6.7930737 3.0299735 1.4552077
