# .PCD v0.7 - Point Cloud Data file format
VERSION 0.7
FIELDS x y z
SIZE 4 4 4
TYPE F F F
COUNT 1 1 1
WIDTH 1531
HEIGHT 1
VIEWPOINT 0 0 0 1 0 0 0
POINTS 1531
DATA ascii
-3.7657895 3.0572042 1.1019884
-3.7577944 3.0371175 1.1170561
-3.7753985 3.0305882 1.1059805
-3.7708638 3.0303037 1.1137786
-3.7799542 3.0228009 1.1094596
-3.7835896 3.0148463 1.0991479
-3.7858093 3.0155051 1.1016952
-3.7959971 3.007041 1.0989949
-3.9407575 3.1259084 1.0356022
-3.9358456 3.1067216 1.034232
-3.9374554 3.1028345 1.0332283
-3.9582615 3.1111748 1.037401
-3.9639921 3.1061363 1.0403134
-3.9607906 3.0898497 1.0282162
-3.9697833 3.0886831 1.033897
-3.9630873 3.088084 1.0369101
-3.9666953 3.0694609 1.0258743
-3.9677479 3.0648377 1.031673
-3.9714935 3.0658321 1.0264148
-3.9854879 3.0560725 1.0274842
-3.9808447 3.0490294 1.0301869
-3.9971976 3.0454988 1.0267566
-3.9893701 3.0405486 1.0438201
-3.9986222 3.0431032 1.0301358
-3.9999638 3.0409606 1.0408292
-4.0156164 3.0298018 1.0364741
-4.0082483 3.0193152 1.0390522
-4.0119085 3.0120482 1.04257
-4.1791191 3.1164017 0.95951468
-4.1823778 3.1197073 0.96540993
-4.1845589 3.1119049 0.96984237
-4.1840291 3.1119905 0.9563306
-4.1869216 3.1041369 0.96346086
-4.1927423 3.0912569 0.95874393
-4.1922393 3.0812526 0.95748842
-4.2010341 3.0798054 0.97068411
-4.2141762 3.0699279 0.95900899
-4.2047319 3.060585 0.96568847
-4.211762 3.0575747 0.97124749
-4.2287025 3.055639 0.96595418
-4.2197404 3.0558476 0.9587065
-4.226337 3.0409031 0.95739859
-4.2264376 3.0473752 0.95409745
-4.239399 3.0323272 0.96378219
-4.2370696 3.0220752 0.9693349
-4.2359872 3.0273123 0.95931852
-4.2417011 3.0236835 0.96530902
-4.4113331 3.1208677 0.8947109
-4.4021754 3.1079686 0.88013434
-4.4074497 3.1023796 0.88952434
-4.4180088 3.0899963 0.88503081
-4.4158072 3.0952511 0.89150661
-4.4349046 3.0846319 0.8903743
-4.4372945 3.0852695 0.88011992
-4.4299912 3.0724466 0.88554502
-4.4371266 3.064908 0.88214475
-4.4342694 3.0558491 0.88105905
-4.4454131 3.0535948 0.89600611
-4.4540105 3.0448248 0.88422173
-4.4571757 3.0350981 0.89302224
-4.4709425 3.0391212 0.89561927
-4.4691935 3.0296466 0.8896569
-4.4609604 3.0253665 0.87926733
-4.4738507 3.0229795 0.89571321
-4.4769869 3.0121706 0.88554007
-4.6295843 3.1017332 0.82090229
-4.6508217 3.0949531 0.80655706
-4.6531363 3.1012774 0.81617934
-4.6404943 3.0832441 0.82325929
-4.6596279 3.0862765 0.80684602
-4.6499519 3.0797648 0.82069546
-4.6576695 3.0592153 0.81131572
-4.6713405 3.071104 0.82390708
-4.6753922 3.0542984 0.82036859
-4.6829886 3.0585444 0.81228417
-4.6807489 3.0492666 0.81679034
-4.6900024 3.0430653 0.82100731
-4.6935916 3.0388546 0.81804568
-4.6875496 3.0315814 0.82355392
-4.6944184 3.0094616 0.81860375
-4.8547149 3.1012702 0.74052119
-4.8642683 3.1094356 0.74154592
-4.8631926 3.0881894 0.74098635
-4.8695154 3.087142 0.7501542
-4.8793678 3.0827394 0.75010681
-4.8772945 3.0848081 0.74732655
-4.8907061 3.0618465 0.7448957
-4.8798909 3.059509 0.7448107
-4.8920279 3.0474181 0.7440151
-4.8986468 3.052654 0.74766803
-4.9102063 3.0388029 0.74972928
-4.9067035 3.0397148 0.74675542
-4.9021659 3.0260096 0.74934083
-4.9181786 3.0302787 0.73769039
-4.9250135 3.0089839 0.74845463
-5.0709691 3.1107049 0.67497545
-5.0807471 3.0863969 0.67849976
-5.0929465 3.0971637 0.66652203
-5.0852208 3.0800433 0.66929489
-5.0982809 3.080544 0.66415071
-5.1076779 3.0737157 0.67200881
-5.1150041 3.0546117 0.66763783
-5.1052938 3.0442567 0.67642671
-5.112988 3.0420909 0.67635566
-5.1123233 3.0372825 0.66186655
-5.1208835 3.029784 0.6793167
-5.1297774 3.0168152 0.67956978
-5.1351376 3.015945 0.67770618
-5.1324649 3.0070887 0.66584492
-5.3079505 3.1029871 0.58847731
-5.3077598 3.0799954 0.60455179
-5.2997003 3.0739357 0.58866286
-5.3160014 3.0818348 0.58956534
-5.3235035 3.0662775 0.59545469
-5.3310661 3.0556138 0.60369402
-5.3331075 3.0606077 0.59159911
-5.3376884 3.040916 0.59370553
-5.3420057 3.0400627 0.60211796
-5.348176 3.0260704 0.58885604
-5.3461971 3.0217116 0.60514385
-5.3484402 3.0218427 0.60585833
-5.5170836 3.1051483 0.51480204
-5.5192466 3.0853767 0.53221095
-5.5204959 3.0823708 0.52149898
-5.5358458 3.0760591 0.5275656
-5.5229449 3.0719528 0.52607447
-5.5421286 3.067502 0.53234571
-5.5391946 3.0429597 0.52522385
-5.5478377 3.0364625 0.53157574
-5.5497317 3.036149 0.52104098
-5.5553274 3.0377877 0.51811492
-5.5601974 3.0174525 0.51515132
-5.5629773 3.0192552 0.52013266
-5.7323222 3.0921893 0.45669469
-5.7285061 3.0857322 0.44780931
-5.7386122 3.0764437 0.44255206
-5.7501984 3.0722287 0.44058436
-5.7555017 3.0551939 0.4418208
-5.7479162 3.0537517 0.4443123
-5.7539673 3.0546401 0.45424858
-5.7505422 3.0341468 0.45358741
-5.7700315 3.0329866 0.4403612
-5.7724733 3.0132389 0.45671332
-5.7699223 3.0123127 0.44568962
-5.9429808 3.0850587 0.3830896
-5.9397144 3.0861869 0.37235931
-5.9416938 3.0799999 0.38544261
-5.9456286 3.0727689 0.36952564
-5.9683161 3.0573723 0.38020685
-5.9685001 3.0401616 0.37982285
-5.9587364 3.0306025 0.38699797
-5.9696221 3.0257685 0.38107112
-5.973722 3.0226963 0.38346064
-5.9814587 3.0063672 0.37299377
-6.1467037 3.0897255 0.30465004
-6.1550207 3.0771604 0.29888287
-6.1540561 3.0668933 0.29524726
-6.159996 3.056957 0.31270525
-6.1618414 3.0485873 0.30309698
-6.1729927 3.0442762 0.30461454
-6.1845164 3.0339596 0.30491519
-6.1888528 3.0369768 0.30873016
-6.1791043 3.0201015 0.29782706
-6.186954 3.0196855 0.29895493
-6.352901 3.0856192 0.23542476
-6.3665142 3.0663767 0.2210695
-6.3658824 3.0723751 0.2250575
-6.3688731 3.0566983 0.22772519
-6.3743939 3.0434289 0.23064546
-6.3895102 3.0432482 0.23788269
-6.3830967 3.0357723 0.2234375
-6.3963699 3.0281765 0.2406494
-6.3858156 3.0145338 0.22963169
-6.5747986 3.0760345 0.15371397
-6.5741048 3.0643747 0.16460949
-6.5837922 3.0633824 0.16515991
-6.587822 3.0472908 0.16061239
-6.587851 3.052464 0.1492974
-6.5851998 3.0363603 0.15362844
-6.5996151 3.0293713 0.1667002
-6.6067805 3.0130146 0.16122341
-3.4580986 4.8840933 0.71858817
-3.4521201 4.8744287 0.71667874
-3.4681447 4.86619 0.72001773
-3.473825 4.8601179 0.70586181
-3.4848568 4.8643365 0.71332902
-3.4874859 4.8545718 0.71400839
-3.4926946 4.8416944 0.720038
-3.5008841 4.8492808 0.71374667
-3.4987133 4.8297262 0.71117884
-3.5109918 4.8415055 0.71728992
-3.5233471 4.82201 0.71425766
-3.5347342 4.8152766 0.70640141
-3.528024 4.8192945 0.71515661
-3.5379677 4.8044014 0.72269922
-3.5420604 4.8052387 0.7193293
-3.5586791 4.8102031 0.71107316
-3.5546114 4.7967072 0.71482748
-3.4526925 4.6522779 0.78283894
-3.4686639 4.6463976 0.78442949
-3.4671965 4.6349669 0.78271508
-3.4796112 4.6379027 0.78643119
-3.4750512 4.6161661 0.78834844
-3.4983408 4.6278486 0.77922791
-3.4928682 4.6162882 0.780168
-3.4998465 4.6073289 0.78690875
-3.5101876 4.608439 0.78358608
-3.5087781 4.6002965 0.79174942
-3.5236073 4.588932 0.7899608
-3.5221915 4.5880542 0.78713572
-3.5391786 4.5950947 0.77773321
-3.5378728 4.5761652 0.77612871
-3.5528443 4.568233 0.77765912
-3.5458913 4.5634418 0.77575183
-3.5680521 4.5705471 0.78717333
-3.5692658 4.5570917 0.79453409
-3.4481959 4.4130759 0.85968512
-3.4657731 4.4036641 0.84983671
-3.4751799 4.4058194 0.853549
-3.4663689 4.3957806 0.86131722
-3.4803758 4.3951378 0.86106902
-3.4837787 4.3821769 0.84684289
-3.4887791 4.3806143 0.84964526
-3.4922423 4.3723664 0.8526262
-3.497606 4.3683133 0.847691
-3.5115414 4.3693953 0.85428762
-3.5181091 4.3623528 0.84849399
-3.5312922 4.363863 0.85813195
-3.5343168 4.3420897 0.85477763
-3.5336225 4.3352437 0.86624521
-3.5451529 4.3405004 0.86193955
-3.5569246 4.3284569 0.84955096
-3.5629153 4.3375092 0.86048597
-3.566097 4.3291874 0.84806824
-3.5662906 4.3215842 0.85650104
-3.5714123 4.3061213 0.85092765
-3.450346 4.1668134 0.93500549
-3.4544508 4.1638975 0.93374908
-3.4689109 4.164012 0.93565649
-3.4667187 4.1508689 0.93566394
-3.473052 4.1522374 0.92588228
-3.4836841 4.1478682 0.92902011
-3.4866979 4.1435361 0.92618132
-3.49877 4.1420431 0.92000037
-3.503253 4.12637 0.93120432
-3.5192964 4.1315818 0.93194187
-3.5209062 4.1242747 0.92172241
-3.5302048 4.1186562 0.93343288
-3.5207529 4.104363 0.93011194
-3.5293868 4.0980415 0.93851048
-3.5380061 4.0911593 0.93314755
-3.5364003 4.0994105 0.92829412
-3.5516498 4.0904064 0.92399484
-3.549731 4.0750823 0.92309701
-3.5539863 4.0810204 0.93142855
-3.5670307 4.0766535 0.92988247
-3.5793304 4.0764084 0.9259482
-3.458107 3.9328108 0.9930951
-3.4687066 3.924334 0.99911022
-3.4626207 3.9129348 1.0037465
-3.4681294 3.9186203 1.0064509
-3.4789941 3.9116089 1.0023651
-3.4747055 3.8950386 0.99424177
-3.4947095 3.8860707 0.9957689
-3.4956043 3.8985238 1.0082166
-3.4881608 3.8836024 1.0012877
-3.5022566 3.8820436 0.99911195
-3.5002799 3.8836281 0.99812311
-3.5229228 3.8800666 0.9934988
-3.5195434 3.8680379 1.002324
-3.5315213 3.8559408 1.0016911
-3.5207875 3.8584123 0.99891102
-3.534133 3.8505986 1.0044321
-3.5355947 3.848201 1.0058644
-3.5555224 3.8503213 1.0046365
-3.5429955 3.8452911 0.99338144
-3.5573905 3.8315647 1.0054696
-3.5539541 3.8252072 1.0040517
-3.5714998 3.8215928 1.0039892
-3.5736628 3.806736 0.9968226
-3.5869935 3.8052735 1.0024908
-3.452601 3.664355 1.0673432
-3.4691415 3.6711833 1.0775557
-3.4601543 3.6619012 1.0703249
-3.469728 3.658036 1.0701765
-3.4805229 3.6520352 1.0699673
-3.4825659 3.6369703 1.0810084
-3.4925141 3.6506653 1.0706766
-3.4838734 3.6321313 1.0817219
-3.4952884 3.6367445 1.0629097
-3.4938631 3.6333294 1.0676417
-3.5067627 3.6212535 1.0720237
-3.5065763 3.6177368 1.0680761
-3.5161707 3.6083002 1.0796956
-3.512989 3.6143763 1.072306
-3.5299489 3.5947366 1.0637794
-3.5271111 3.5981266 1.0650581
-3.5332253 3.5966344 1.0649096
-3.5496645 3.5888419 1.0711118
-3.5550513 3.5746865 1.0668187
-3.5592432 3.5670021 1.0640094
-3.5586965 3.5714564 1.0740303
-3.5537605 3.5611289 1.0654473
-3.5727654 3.5662317 1.0723476
-3.5801437 3.5595343 1.0702509
-3.5749047 3.5608881 1.0734485
-3.5781853 3.5500839 1.0649772
-3.5801802 3.5381627 1.0799615
-3.4489496 3.4041722 1.1438816
-3.4646945 3.4005857 1.146835
-3.4647257 3.3977838 1.1470728
-3.4675593 3.4004989 1.1367408
-3.4803655 3.3931127 1.141064
-3.4817476 3.3916776 1.1354797
-3.4762228 3.3678133 1.1481946
-3.4927878 3.3741302 1.1472667
-3.4861484 3.3621016 1.1405451
-3.5079734 3.3530061 1.1469198
-3.4948075 3.3666954 1.1349492
-3.5094879 3.3493717 1.1442367
-3.5212078 3.3567419 1.1355737
-3.5126834 3.3459966 1.1344837
-3.5144839 3.347157 1.1508721
-3.5319545 3.3316398 1.1506966
-3.5350025 3.3263454 1.1515346
-3.5453284 3.3291774 1.1435736
-3.5365756 3.323333 1.1484749
-3.5545373 3.3203409 1.1491783
-3.5461173 3.3151858 1.1484748
-3.5496609 3.300014 1.1353581
-3.5639102 3.2977793 1.1345285
-3.5668156 3.2887189 1.1478771
-3.5708041 3.2825015 1.1473161
-3.578397 3.2834499 1.1361744
-3.5861588 3.28598 1.1446813
-3.5930753 3.2828066 1.1409694
-3.5879457 3.2730017 1.136369
-3.4593625 3.1447289 1.2255123
-3.4484398 3.1347864 1.2226958
-3.4582138 3.1258955 1.2096827
-3.4610977 3.1273437 1.2194165
-3.4648046 3.1104677 1.225078
-3.4751558 3.1141775 1.2095165
-3.4860613 3.1148617 1.2199042
-3.4881017 3.112345 1.2178291
-3.4816287 3.1074648 1.2175941
-3.4988604 3.0922608 1.2125742
-3.5006859 3.0916338 1.2094228
-3.5051346 3.0862877 1.2211682
-3.5123928 3.0755186 1.2088678
-3.5126572 3.0662098 1.2228665
-3.5231812 3.0775318 1.2248466
-3.5280366 3.0628333 1.2154
-3.5284469 3.0615535 1.2115071
-3.5184624 3.0625501 1.2099726
-3.5305462 3.0543306 1.2084396
-3.5428579 3.0531826 1.2165898
-3.5401828 3.0345063 1.2090068
-3.540652 3.035671 1.2209771
-3.5493689 3.0338607 1.2070837
-3.5503795 3.016062 1.208793
-3.5573843 3.0120089 1.2067418
-3.562402 3.0073628 1.2149156
-3.5568593 3.0065625 1.2067388
-3.718365 3.1197999 1.1527207
-3.7184029 3.1251907 1.1471976
-3.7199667 3.1225047 1.1454738
-3.7333729 3.1067216 1.1500267
-3.7343547 3.0946903 1.1407033
-3.7433593 3.0981562 1.1345345
-3.7462497 3.0848186 1.1355379
-3.7474236 3.0886765 1.1374648
-3.7506413 3.0917101 1.1397281
-3.7456779 3.0844724 1.1461793
-3.748884 3.0630708 1.1510576
-3.7543275 3.0659707 1.1465268
-3.7652869 3.0716391 1.1445162
-3.7779624 3.0482261 1.1519347
-3.766078 3.0481491 1.1525402
-3.7835093 3.0433781 1.1418358
-3.7871022 3.0400198 1.1430241
-3.7896843 3.0397832 1.1533066
-3.7903321 3.0206177 1.1518648
-3.7887092 3.0306969 1.1484337
-3.8006275 3.0218439 1.1488552
-3.8076603 3.0118139 1.1374367
-3.9459903 3.1304355 1.0651796
-3.9597106 3.1250765 1.066555
-3.9660044 3.1158469 1.0731317
-3.9716852 3.1134226 1.0802212
-3.9680624 3.111635 1.0692424
-3.9832437 3.0914876 1.0633229
-3.9881349 3.0949073 1.0635397
-3.9744599 3.0841575 1.0791433
-3.9842081 3.0856891 1.0712074
-3.9935274 3.0843806 1.0785608
-3.994257 3.0757015 1.0745096
-3.9954627 3.0576408 1.0706358
-3.995285 3.0576172 1.0630744
-4.008523 3.056236 1.0786369
-4.0146637 3.0427933 1.0779663
-4.011775 3.0384769 1.0627085
-4.0147982 3.0335693 1.0764368
-4.0175967 3.026629 1.0649873
-4.0247836 3.0142248 1.0806479
-4.0398989 3.0167782 1.0805844
-4.0476527 3.0028708 1.0774319
-4.1895423 3.1230175 1.0100416
-4.2053604 3.1163869 1.0000033
-4.2087312 3.1007633 0.99419212
-4.1965318 3.1032367 1.0005522
-4.2049942 3.092828 1.0082158
-4.2087064 3.0836179 0.99659777
-4.2186823 3.0758233 1.0036713
-4.220099 3.0850477 1.0039783
-4.2258472 3.0633552 0.99248207
-4.2316508 3.0580993 0.99272788
-4.2405982 3.0652285 1.007777
-4.2451544 3.0608695 1.002066
-4.2397408 3.0374606 1.0066084
-4.2401299 3.0505643 0.99950707
-4.2541509 3.0395103 1.0078859
-4.2605 3.0290403 0.99294972
-4.2584581 3.0328832 0.99611974
-4.2693353 3.0195892 0.99442101
-4.2598963 3.0048187 0.99694264
-4.4349298 3.1154871 0.92835373
-4.4368744 3.1142712 0.92459238
-4.4437609 3.0927458 0.92240268
-4.4363499 3.1008725 0.92274076
-4.4443874 3.0928407 0.92212522
-4.439518 3.0750101 0.93640405
-4.4462609 3.0750444 0.92616749
-4.4479313 3.0613253 0.92573404
-4.466423 3.0609269 0.93797261
-4.4666047 3.0541558 0.92141289
-4.4642558 3.0495157 0.9345209
-4.478714 3.0472529 0.93261015
-4.4769249 3.0424161 0.93537754
-4.4773164 3.0292943 0.93248129
-4.4773612 3.0324304 0.92776865
-4.498013 3.0247226 0.93144691
-4.5043769 3.01455 0.92138684
-4.6564488 3.1102941 0.85206795
-4.6536093 3.1082723 0.8603633
-4.6585221 3.0903206 0.84813285
-4.6599855 3.0989606 0.85751379
-4.6683321 3.0773768 0.85088897
-4.6785798 3.0818081 0.86569047
-4.6860514 3.0700645 0.85363936
-4.6764102 3.062484 0.85099924
-4.6914721 3.0584517 0.84693211
-4.7028465 3.0522456 0.85897923
-4.7042723 3.0536299 0.84974521
-4.7032342 3.0421705 0.86500502
-4.7138915 3.0301065 0.84883475
-4.7167702 3.0208778 0.84783214
-4.7102585 3.0275929 0.85177934
-4.7103624 3.0083406 0.86669737
-4.873405 3.1057072 0.78464389
-4.8908792 3.0969386 0.79333502
-4.8909845 3.0973611 0.78455114
-4.8951468 3.0906532 0.77612472
-4.9072528 3.0867543 0.77565187
-4.9085832 3.0681195 0.790295
-4.9146442 3.0630441 0.7794553
-4.9168658 3.0592973 0.78597409
-4.9200807 3.0462601 0.7858007
-4.9193382 3.037308 0.79297382
-4.9236689 3.0272422 0.78429949
-4.9182696 3.0240119 0.79368746
-4.9241695 3.024977 0.79033488
-4.9388437 3.0060699 0.78711712
-5.1016045 3.0960546 0.71507621
-5.1052938 3.092041 0.72302872
-5.1143298 3.0862284 0.71276641
-5.1141953 3.0824466 0.7056241
-5.1075325 3.0796926 0.71231747
-5.1210327 3.061914 0.71693724
-5.1273499 3.0640285 0.71837586
-5.1223311 3.0557563 0.70347464
-5.1279149 3.0457883 0.7164346
-5.1368408 3.045341 0.71738982
-5.1489744 3.0259879 0.71852136
-5.141366 3.0272558 0.72277635
-5.1457944 3.0237882 0.70836169
-5.1604757 3.0047455 0.71731406
-5.3238187 3.0902231 0.63889396
-5.3190589 3.0926681 0.64162958
-5.329669 3.0930564 0.63364667
-5.33883 3.0827134 0.64456433
-5.3428817 3.0710273 0.63269299
-5.3339634 3.0546453 0.64755899
-5.344079 3.05035 0.65026236
-5.3530531 3.0378733 0.6414302
-5.3577614 3.0451684 0.63633287
-5.356874 3.0219724 0.6394009
-5.3670239 3.0211437 0.64158368
-5.3638096 3.0093749 0.63365716
-5.5409245 3.1021438 0.56179708
-5.5430636 3.0989461 0.57882494
-5.5342741 3.0759659 0.57163024
-5.5573454 3.0661626 0.57552302
-5.5455394 3.070492 0.56259578
-5.5510197 3.0700855 0.56467342
-5.565321 3.0491982 0.56153333
-5.5647087 3.0534151 0.56269056
-5.5610175 3.0316887 0.57051796
-5.5751328 3.0373728 0.57408166
-5.5771637 3.0132024 0.5670675
-5.5792704 3.0111949 0.56460011
-5.7489123 3.0903807 0.49512938
-5.7612872 3.0824332 0.49538535
-5.7497578 3.0705607 0.50773317
-5.7711439 3.0774667 0.50744277
-5.7704415 3.0543189 0.49403924
-5.7728682 3.05602 0.49263293
-5.7741261 3.0456383 0.49728656
-5.7875452 3.0453565 0.49541616
-5.7773895 3.0272479 0.49717343
-5.7942367 3.0312262 0.50472707
-5.79354 3.0143187 0.49116343
-5.9564376 3.0949061 0.4259243
-5.973279 3.0854995 0.42863742
-5.9777608 3.0789783 0.42631388
-5.9825211 3.05742 0.42890587
-5.9806738 3.0576844 0.42126837
-5.9802208 3.0409291 0.43132436
-5.9951024 3.0349813 0.42917958
-5.9918427 3.0234046 0.41701332
-5.9868145 3.0191848 0.4169181
-5.9942207 3.019855 0.42801431
-6.1622653 3.0909677 0.3504543
-6.1767936 3.086045 0.36360338
-6.1885962 3.0809186 0.3585794
-6.1827106 3.0552979 0.36035126
-6.194221 3.0557792 0.35074782
-6.193357 3.0409563 0.35275501
-6.2024245 3.0354831 0.35718635
-6.193625 3.0374889 0.35841891
-6.1969795 3.0287311 0.36381564
-6.220417 3.0167634 0.35827217
-6.3809795 3.0889313 0.27721334
-6.3791957 3.0697157 0.29164016
-6.3842506 3.0629737 0.28958121
-6.3943172 3.0663822 0.29054815
-6.4025993 3.0425327 0.2806491
-6.4004726 3.043788 0.2845858
-6.416326 3.0402038 0.29171374
-6.4077358 3.0296357 0.28951791
-6.4179001 3.0199175 0.28724059
-6.5918918 3.0897422 0.20990431
-6.6022878 3.0723927 0.20428817
-6.6019559 3.0611072 0.2083853
-6.6071849 3.0490348 0.21467543
-6.61446 3.0511515 0.21331465
-6.6207547 3.0292292 0.21705112
-6.6169362 3.0336645 0.21099544
-6.6291676 3.0264645 0.21031421
-6.7843642 3.0889544 0.13625593
-6.7917452 3.0683417 0.13322297
-6.8013897 3.0671544 0.13020225
-6.8165846 3.0598488 0.13905038
-6.8173819 3.0571399 0.14583732
-6.8140688 3.0334542 0.12978211
-6.8244519 3.0267329 0.14507981
-6.8161831 3.0179427 0.14769734
-3.4498448 4.8878512 0.74933565
-3.4585776 4.8896427 0.76044124
-3.4652278 4.8921485 0.75684565
-3.4763651 4.877893 0.75057381
-3.4799318 4.8805718 0.75527447
-3.491492 4.8619475 0.75730252
-3.4926252 4.8707752 0.76475084
-3.4985154 4.8575721 0.76043481
-3.509618 4.8511291 0.75593108
-3.5216568 4.8544812 0.76621038
-3.5262816 4.8460574 0.74854571
-3.5306656 4.8357096 0.75751698
-3.5439372 4.8455129 0.75384808
-3.5407975 4.8309736 0.76078719
-3.5439224 4.8196559 0.75527841
-3.56234 4.8235593 0.75602782
-3.5587225 4.8131042 0.75049669
-3.4557333 4.6534681 0.82707113
-3.46876 4.6597052 0.83170617
-3.4662838 4.6606574 0.82461405
-3.4735217 4.6437325 0.83402795
-3.4784172 4.6491642 0.81803304
-3.4943347 4.628058 0.8367902
-3.4939144 4.6368184 0.82596642
-3.5065479 4.6291733 0.82879245
-3.5046835 4.6298237 0.82049876
-3.5220628 4.6207976 0.82673627
-3.5249662 4.6095433 0.82839185
-3.5216956 4.6117449 0.82113284
-3.533783 4.6028981 0.81968397
-3.5529556 4.5932832 0.82617694
-3.5427074 4.5852346 0.82297724
-3.5484471 4.5877237 0.82355613
-3.555423 4.5770826 0.81778914
-3.4577692 4.432889 0.89968711
-3.452523 4.4245167 0.89674014
-3.4755638 4.4251933 0.88968784
-3.4723601 4.4093881 0.89631093
-3.4874942 4.4032679 0.89007425
-3.4898808 4.411468 0.89993876
-3.4937091 4.4068966 0.90514469
-3.4910376 4.3989673 0.90726781
-3.511559 4.3916855 0.89685488
-3.5114949 4.3838077 0.90078396
-3.5171907 4.3845105 0.89287215
-3.5113888 4.3766203 0.90142787
-3.528527 4.3718429 0.89550877
-3.5327108 4.3764157 0.89864147
-3.5302646 4.371995 0.90051991
-3.5540481 4.3513212 0.89547294
-3.54796 4.3529458 0.89073747
-3.5566592 4.3433619 0.90296412
-3.5632284 4.3393688 0.89280868
-3.5602033 4.341547 0.89968413
-3.4537265 4.1800489 0.96258682
-3.4544694 4.1746912 0.9721176
-3.4666495 4.1782813 0.96180511
-3.4647422 4.1637664 0.96100837
-3.4796953 4.1777701 0.96074194
-3.4927633 4.1540556 0.9647615
-3.4908712 4.162487 0.97537369
-3.4937079 4.1482711 0.96137822
-3.5043108 4.1535301 0.96837509
-3.5050628 4.147851 0.96254319
-3.5189321 4.1351638 0.96429443
-3.5202992 4.1275563 0.96553147
-3.5321286 4.133584 0.97520995
-3.5342636 4.1273284 0.97523332
-3.5371885 4.1119213 0.97412801
-3.5403728 4.109242 0.97418392
-3.5395308 4.114243 0.96755528
-3.5480695 4.1021891 0.97160232
-3.5505967 4.1053066 0.96580845
-3.5661201 4.0934405 0.95924395
-3.5674686 4.0934663 0.96490848
-3.5670588 4.0778794 0.96788967
-3.4615204 3.9358697 1.0322381
-3.4699852 3.9379795 1.0448637
-3.47842 3.9228981 1.0470308
-3.4679532 3.9303596 1.0314747
-3.4774237 3.9243832 1.045884
-3.493516 3.9155812 1.0332117
-3.4855545 3.9099584 1.0286375
-3.5033801 3.9145112 1.0371857
-3.5077631 3.9034081 1.0307559
-3.506475 3.8984001 1.0337433
-3.5221987 3.9007244 1.0400738
-3.5239744 3.8800595 1.033361
-3.5331175 3.8764288 1.0364214
-3.5200865 3.868727 1.0318056
-3.5426049 3.8770096 1.0460833
-3.5307071 3.8746486 1.0364367
-3.5514746 3.8656907 1.0460522
-3.5568092 3.8643422 1.0451134
-3.5535889 3.8440385 1.0379719
-3.5567915 3.8504441 1.0307304
-3.5769997 3.8465402 1.0307286
-3.5708704 3.8262682 1.0349851
-3.5714469 3.8222535 1.0405414
-3.4606297 3.680373 1.1137412
-3.4625573 3.6778307 1.1097622
-3.4702005 3.6725664 1.1083754
-3.4674835 3.6719081 1.1029916
-3.4751444 3.6712813 1.1012273
-3.483737 3.6592345 1.104135
-3.4794645 3.6693373 1.1184317
-3.4824269 3.6645775 1.1138152
-3.505384 3.6512856 1.1139247
-3.5040779 3.6427486 1.1150255
-3.4972086 3.6420274 1.1155493
-3.5075397 3.6445057 1.1183722
-3.5218432 3.6244614 1.1007794
-3.5175264 3.6322482 1.1073837
-3.5185866 3.6174812 1.118224
-3.5214043 3.6192219 1.1018872
-3.5413072 3.6103284 1.1005303
-3.5469067 3.6035597 1.0992976
-3.5371156 3.5989134 1.1096642
-3.5472081 3.6006467 1.1163921
-3.5561929 3.5943155 1.1073041
-3.5646467 3.5827124 1.1056068
-3.570271 3.5818586 1.1087848
-3.5734808 3.5703671 1.1046761
-3.5700796 3.5628543 1.1107341
-3.5758309 3.5575559 1.1034734
-3.5779121 3.5573797 1.112267
-3.4479713 3.4252648 1.1696538
-3.4524448 3.4194958 1.1769489
-3.4665449 3.408639 1.1709459
-3.4739103 3.413795 1.1835874
-3.4703572 3.4154878 1.1696086
-3.4884944 3.3965402 1.1797656
-3.4834466 3.3993595 1.1834278
-3.482501 3.3905499 1.1845809
-3.4954903 3.3809516 1.1854461
-3.4957337 3.374228 1.1711525
-3.5071764 3.3690224 1.1811256
-3.5116329 3.3641016 1.1701748
-3.5087874 3.3698325 1.1732188
-3.5119381 3.3529432 1.1862772
-3.5224402 3.3643453 1.1858931
-3.5269141 3.3423419 1.171433
-3.5412245 3.3501105 1.1846702
-3.5318654 3.3435428 1.1739825
-3.5413465 3.3286967 1.1785879
-3.5499554 3.3383117 1.1813676
-3.552851 3.3211811 1.1838461
-3.5657666 3.3242846 1.1863149
-3.5696259 3.3149173 1.1794323
-3.5704343 3.3070762 1.1805843
-3.5781775 3.3134031 1.1780692
-3.5662978 3.2999189 1.1784878
-3.588871 3.2967808 1.1716187
-3.5782003 3.2876511 1.1831322
-3.5982101 3.2936823 1.1847562
-3.4550276 3.1498895 1.2513654
-3.4674628 3.1538742 1.2554066
-3.4574125 3.149565 1.2475274
-3.4648867 3.1460114 1.2552634
-3.4792368 3.1462574 1.2401476
-3.4724281 3.1233613 1.256354
-3.4881277 3.136939 1.2440782
-3.483402 3.1125305 1.2536726
-3.4855385 3.1233728 1.2591517
-3.4961545 3.1187782 1.2556835
-3.5051401 3.1033523 1.2593008
-3.4979165 3.099875 1.251743
-3.5066447 3.0908246 1.2447222
-3.5032456 3.0986698 1.2590007
-3.5121033 3.0965281 1.2583838
-3.5160704 3.0855515 1.2597353
-3.5238237 3.083225 1.2595356
-3.5238464 3.0699673 1.2598039
-3.5342674 3.0589089 1.2557975
-3.5392027 3.0615637 1.2520857
-3.5475991 3.0595555 1.257843
-3.5523713 3.0490863 1.2450241
-3.5446944 3.0541975 1.2480618
-3.5440314 3.0470099 1.2438577
-3.549083 3.0352595 1.2424313
-3.5547445 3.0238302 1.2549534
-3.5590472 3.0289288 1.2500801
-3.5635431 3.0182793 1.2568861
-3.5677636 3.021476 1.2575769
-3.5759833 3.0039985 1.2458717
-3.7316363 3.1223156 1.1867058
-3.7379639 3.1199691 1.172439
-3.7371032 3.1095388 1.1882503
-3.7331977 3.1040046 1.1818467
-3.7534885 3.0976446 1.1886714
-3.7551987 3.1098421 1.1890515
-3.7443795 3.1019483 1.1795207
-3.7584262 3.0937638 1.1843368
-3.7656596 3.0855567 1.1773521
-3.7721946 3.0733209 1.1778977
-3.7704277 3.0733445 1.181837
-3.7774122 3.0713847 1.1886503
-3.778656 3.0746226 1.1702601
-3.7840812 3.0660958 1.1715685
-3.7959025 3.0616007 1.1717557
-3.8008916 3.0397103 1.1893849
-3.8054934 3.052947 1.1843715
-3.7996185 3.0364375 1.1764303
-3.8089199 3.036988 1.1855451
-3.8051989 3.035289 1.187693
-3.8209248 3.0196357 1.1751392
-3.8127038 3.0212688 1.1859065
-3.817662 3.0059221 1.1851987
-3.968508 3.1246674 1.1108496
-3.9706941 3.1203732 1.1077113
-3.9726851 3.1153314 1.1079873
-3.9770389 3.1099219 1.1068106
-3.9863985 3.0946138 1.1144409
-4.0036917 3.0942235 1.1079441
-3.9918618 3.0817659 1.1050767
-3.9978766 3.0777867 1.11189
-4.0164371 3.0862253 1.1056764
-4.0042224 3.073895 1.109462
-4.0127082 3.0624058 1.1020838
-4.0251274 3.0530658 1.1159753
-4.0206776 3.0460625 1.1103947
-4.0359435 3.0590248 1.1049802
-4.0323787 3.0469396 1.1098396
-4.0411754 3.0418653 1.0998962
-4.0364609 3.0329175 1.1030891
-4.0546064 3.0222433 1.1079028
-4.0459304 3.0172892 1.106761
-4.0634599 3.0088227 1.1189007
-4.2078614 3.1272335 1.0347617
-4.2091231 3.106174 1.0373138
-4.2164845 3.1138136 1.0384921
-4.2294188 3.1104286 1.0382683
-4.2277589 3.094842 1.031601
-4.2212315 3.0946844 1.045507
-4.2246389 3.0834587 1.0361183
-4.2448454 3.0782979 1.0417145
-4.2402301 3.066015 1.0480222
-4.2567482 3.0603964 1.0315342
-4.2611184 3.0652282 1.0480363
-4.259212 3.0531316 1.029372
-4.254745 3.0579987 1.0442467
-4.2690916 3.0342481 1.0416415
-4.2636538 3.0364661 1.0293611
-4.2648745 3.0295117 1.0428404
-4.2721815 3.0234418 1.0310175
-4.2888684 3.0214491 1.039963
-4.2799506 3.008347 1.0425611
-4.4382768 3.1100564 0.97507459
-4.439672 3.104378 0.96877426
-4.4445562 3.1048563 0.97633064
-4.4480963 3.0940435 0.97471309
-4.4567533 3.0931182 0.97531021
-4.4680061 3.0818563 0.96409625
-4.4715309 3.0735903 0.97190475
-4.4815679 3.0622268 0.95962608
-4.4834189 3.0583763 0.97134322
-4.4763155 3.067636 0.97595304
-4.4866056 3.0563128 0.96121043
-4.4939661 3.0479193 0.96701008
-4.487618 3.0389574 0.95951492
-4.4937048 3.0307627 0.96743977
-4.5014005 3.0182099 0.96067798
-4.5084901 3.0186939 0.96889907
-4.5067849 3.0199342 0.97510511
-4.6733193 3.1187978 0.90579706
-4.6762109 3.0964689 0.88930869
-4.6873765 3.1054981 0.88834864
-4.6939225 3.0884833 0.90234011
-4.6952024 3.0883458 0.89421862
-4.6906734 3.0787847 0.90342158
-4.6936302 3.0673568 0.89072227
-4.708653 3.0724442 0.89176846
-4.7104287 3.0546443 0.89960283
-4.7039738 3.0427432 0.8949877
-4.7113037 3.044549 0.89216465
-4.7175255 3.0477836 0.8935523
-4.7202263 3.0241637 0.89051503
-4.7238779 3.0182993 0.89701492
-4.7335291 3.0154479 0.8899349
-4.7312922 3.021409 0.8998577
-4.8981709 3.1085632 0.83451509
-4.8995509 3.1048632 0.83124298
-4.8998756 3.0836432 0.83675259
-4.9123564 3.0931246 0.83694863
-4.9094424 3.0795135 0.82554424
-4.9293418 3.0639093 0.82397377
-4.927844 3.0698233 0.82538885
-4.9293742 3.0562954 0.82755089
-4.9243946 3.0573173 0.83347869
-4.9464855 3.0447674 0.83199072
-4.9386439 3.0278487 0.82441026
-4.9457278 3.0338621 0.81998551
-4.9560747 3.0238535 0.8212027
-4.9609017 3.0256574 0.81876934
-5.125773 3.1114206 0.75919175
-5.1219244 3.1045723 0.76129687
-5.1196361 3.0834861 0.7562018
-5.1359229 3.0851243 0.76447076
-5.1300373 3.0759869 0.7606594
-5.1382141 3.068994 0.75120187
-5.1478686 3.0540683 0.75173533
-5.1450939 3.0562747 0.76519758
-5.1467338 3.0523407 0.75557262
-5.1471462 3.0477765 0.75467879
-5.169982 3.0427773 0.7497195
-5.1619782 3.0259392 0.76507479
-5.1718588 3.015692 0.76651257
-5.1668248 3.0134504 0.75676346
-5.3356218 3.0949876 0.69465065
-5.3462405 3.0987828 0.68313909
-5.3463063 3.0771856 0.68389469
-5.3458281 3.0826154 0.69405538
-5.3518772 3.0706472 0.68748683
-5.3675408 3.0624988 0.68356442
-5.3640881 3.0557365 0.68185949
-5.3655839 3.0411899 0.69053906
-5.3717136 3.0409641 0.69619954
-5.3763957 3.0299642 0.68685251
-5.3908157 3.016459 0.69267166
-5.3769312 3.0166373 0.6897583
-5.5582037 3.0919237 0.6223188
-5.555181 3.1008587 0.61820054
-5.5619864 3.0880153 0.60960454
-5.5753493 3.0837684 0.62035632
-5.5726242 3.0672243 0.61184788
-5.5715933 3.0534236 0.61630094
-5.5818715 3.0577216 0.6080423
-5.5864787 3.0415561 0.61630362
-5.5804214 3.0351782 0.61858571
-5.5885348 3.0268822 0.60857791
-5.5995502 3.0251565 0.6105119
-5.6075869 3.0107567 0.60915303
-5.7648869 3.1019709 0.55232161
-5.765739 3.0957451 0.54943442
-5.7758279 3.0765147 0.53779316
-5.7744141 3.0625753 0.54014707
-5.7885361 3.0626059 0.55460095
-5.7909055 3.0622671 0.54069728
-5.8050017 3.052212 0.5482294
-5.7968049 3.03826 0.55528516
-5.7986045 3.0374973 0.54844069
-5.818459 3.0128918 0.55502778
-5.8196607 3.0203252 0.55253893
-5.9737649 3.0967824 0.48149094
-5.984375 3.0816212 0.46969965
-5.9866142 3.0721459 0.4720546
-5.9864883 3.0728102 0.48253188
-5.9918966 3.0553551 0.48076811
-6.0111966 3.0480418 0.47705293
-6.0029531 3.0331526 0.46749511
-6.0076418 3.0406799 0.48529002
-6.0191636 3.0325572 0.46660081
-6.024086 3.0074263 0.48347229
-6.1991544 3.0821102 0.40894616
-6.2072992 3.0869923 0.39803737
-6.2072234 3.0739131 0.40603095
-6.2047806 3.0652263 0.40307209
-6.2118483 3.0553861 0.4110474
-6.2206674 3.0504887 0.40010479
-6.2131896 3.0380661 0.40267429
-6.2152576 3.0251744 0.40117806
-6.2195187 3.0249691 0.39997235
-6.2224569 3.0040371 0.40205446
-6.3973255 3.0807884 0.33359033
-6.4075994 3.0725489 0.32908022
-6.4087696 3.0686617 0.34016162
-6.4219337 3.051482 0.33123302
-6.4180441 3.0514867 0.34114689
-6.4261665 3.0469124 0.33485198
-6.4252195 3.0340438 0.32482916
-6.44169 3.0233228 0.33061507
-6.4396443 3.0125449 0.32490194
-6.6086087 3.0817916 0.25656182
-6.6257715 3.0701551 0.26319951
-6.6209779 3.0725248 0.2705574
-6.6206818 3.0579915 0.26299384
-6.6292911 3.0545492 0.26722208
-6.6268163 3.0392389 0.26043266
-6.6344147 3.0200362 0.25805229
-6.6482944 3.0259981 0.27179265
-6.8228712 3.0765636 0.19340026
-6.8210697 3.0762594 0.2036382
-6.8249679 3.0609875 0.19335875
-6.8267856 3.05283 0.20069286
-6.8419523 3.0537298 0.19965254
-6.8297477 3.0391769 0.193341
-6.8450933 3.0202529 0.19285505
-6.8561974 3.008029 0.18633263
-7.0256124 3.0873771 0.11947981
-7.0259638 3.081847 0.11828161
-7.0325613 3.0566127 0.12007101
-7.0271301 3.057461 0.13109191
-7.0314479 3.0386782 0.1163825
-7.0460305 3.0423315 0.1230631
-7.053266 3.0150585 0.12019707
-7.0615277 3.0242174 0.13233764
-3.4688334 4.9036713 0.79542369
-3.4742036 4.9112859 0.79194075
-3.4678903 4.9013462 0.79539907
-3.470166 4.9034476 0.79624933
-3.4927981 4.8940516 0.79149318
-3.4992447 4.8968086 0.79501581
-3.5036347 4.8759303 0.80047637
-3.5163937 4.8764019 0.79363656
-3.5118289 4.8696527 0.80235451
-3.5252023 4.8668008 0.79469717
-3.5230794 4.8619766 0.79470569
-3.5252397 4.8586159 0.80717707
-3.5308762 4.8483958 0.79456621
-3.5530472 4.84272 0.80892444
-3.5543611 4.8412261 0.79876339
-3.5604243 4.8400917 0.79624569
-3.4511573 4.690587 0.86678255
-3.468013 4.6860528 0.87365931
-3.4717016 4.6728697 0.87870145
-3.4666655 4.6730928 0.86581594
-3.48928 4.6622114 0.8730402
-3.4918792 4.6559353 0.86184716
-3.5020001 4.6507816 0.86538666
-3.504725 4.6502094 0.86821276
-3.5130849 4.6550679 0.87451607
-3.5115991 4.6406012 0.8646661
-3.5126238 4.630332 0.8610819
-3.5321422 4.6297216 0.8778069
-3.5247769 4.6319289 0.86620158
-3.5323627 4.6256733 0.87968099
-3.5528269 4.6232963 0.86714983
-3.5460598 4.6048069 0.87322271
-3.5504792 4.6026764 0.87903118
-3.5713518 4.6042938 0.86916506
-3.4538372 4.4560952 0.93810177
-3.4653602 4.4439259 0.9484508
-3.4667263 4.4371843 0.93345612
-3.4716699 4.4373703 0.94278491
-3.4798815 4.4313612 0.93926454
-3.4796917 4.4241977 0.93444037
-3.4860158 4.4229956 0.93220049
-3.5048642 4.414979 0.93644136
-3.4976327 4.4089541 0.94353086
-3.5045862 4.4084611 0.93722606
-3.5213988 4.3963261 0.93564224
-3.5183048 4.3988519 0.94673353
-3.5248551 4.386189 0.93593663
-3.5463932 4.374753 0.93018752
-3.5385954 4.381269 0.94329935
-3.5543113 4.3741322 0.93412703
-3.5548444 4.3668208 0.94864017
-3.5576103 4.3668046 0.9400326
-3.5761285 4.3601565 0.93030512
-3.448113 4.2078791 1.0140352
-3.4656303 4.2098842 1.0015148
-3.4647248 4.2010989 1.0164509
-3.4727211 4.1918731 1.0036632
-3.4715075 4.1872115 1.004387
-3.4760363 4.1764436 1.0165831
-3.4874465 4.1760478 1.0066066
-3.4880223 4.181201 1.0142921
-3.4940779 4.169663 1.006943
-3.5087342 4.1656747 0.99793577
-3.5131114 4.1563253 1.0064551
-3.5227888 4.1553106 1.0018197
-3.5249796 4.141046 1.0132477
-3.5322273 4.1446238 1.0003064
-3.5322561 4.1352463 1.0075682
-3.531554 4.1271648 1.0089346
-3.5386488 4.1334906 1.0147864
-3.5557134 4.1250525 1.0106804
-3.5650854 4.1163626 0.99993354
-3.5617998 4.1188135 1.0101036
-3.5675142 4.1026783 1.0158377
-3.5847023 4.1026492 1.0054785
-3.4626908 3.9651372 1.0748217
-3.4528754 3.9473894 1.083643
-3.4759948 3.9553764 1.0680324
-3.4718454 3.9498217 1.0692941
-3.4863229 3.9429216 1.0818437
-3.4749417 3.9446998 1.0709248
-3.4876597 3.9228415 1.0762937
-3.4911177 3.9299977 1.0690997
-3.5043991 3.9171615 1.0707642
-3.5119393 3.9128516 1.0774015
-3.5098319 3.9124331 1.0726058
-3.5274117 3.9073341 1.0749072
-3.5161633 3.904613 1.070048
-3.5205185 3.8915317 1.0844942
-3.5436053 3.8894565 1.0769083
-3.5341353 3.8842394 1.075976
-3.5355775 3.8717744 1.0780687
-3.5516441 3.8813148 1.0722084
-3.5548973 3.86303 1.0784103
-3.5564795 3.8626547 1.0852084
-3.5714171 3.8698297 1.0765018
-3.5711434 3.8648605 1.0676173
-3.5685613 3.8565688 1.0809406
-3.462538 3.7123237 1.1551563
-3.4501638 3.707607 1.1432036
-3.465369 3.6977687 1.1509856
-3.4614995 3.69189 1.1512618
-3.4755304 3.6953397 1.1460449
-3.475415 3.6809239 1.1475176
-3.4890907 3.6903069 1.1535966
-3.4959617 3.6701264 1.15184
-3.4915323 3.6755867 1.150111
-3.4959807 3.6689889 1.1450946
-3.5070989 3.6654739 1.1378655
-3.513032 3.6594882 1.1507596
-3.5109105 3.6434455 1.1386626
-3.5210004 3.6364136 1.1455413
-3.530807 3.6404853 1.1407313
-3.5258238 3.6298006 1.1463742
-3.5393612 3.6305609 1.1462764
-3.5468123 3.6295645 1.1508809
-3.5360134 3.6181049 1.1458361
-3.5469363 3.6072974 1.1390908
-3.5628688 3.6104658 1.153735
-3.5660233 3.6127877 1.1473051
-3.5562768 3.6023114 1.1497511
-3.5786204 3.5868182 1.1500911
-3.5740783 3.5865848 1.1394358
-3.5743392 3.5963941 1.1430357
-3.5889502 3.5777185 1.1523429
-3.4502854 3.4445496 1.214645
-3.4601912 3.4394925 1.2214116
-3.4751353 3.4285445 1.2223389
-3.4768178 3.4266894 1.2114097
-3.4838493 3.4266977 1.2077849
-3.477304 3.421464 1.2186729
-3.4883058 3.4188907 1.219064
-3.4989607 3.4058571 1.224225
-3.5002642 3.397553 1.2242054
-3.497961 3.399621 1.2105274
-3.5063438 3.3919637 1.2207925
-3.5014548 3.3991854 1.2108456
-3.5097923 3.3762417 1.214802
-3.5171955 3.3763866 1.2217613
-3.515521 3.3742652 1.2135941
-3.5374646 3.3634467 1.2050643
-3.5285134 3.3663778 1.2188396
-3.5391641 3.3633981 1.224466
-3.5446467 3.3638525 1.2066795
-3.5501423 3.3513405 1.2158592
-3.5493088 3.35517 1.2222862
-3.558203 3.3486054 1.2208463
-3.5570376 3.3384135 1.2213802
-3.5719087 3.3255217 1.2069836
-3.5798132 3.3190007 1.2153964
-3.5758784 3.3152256 1.2179283
-3.580466 3.3250847 1.2083353
-3.5912716 3.3089688 1.2207133
-3.5964437 3.3120389 1.2185026
-3.4607911 3.1676946 1.2777812
-3.4543793 3.1756136 1.2768221
-3.4615338 3.1592865 1.2742752
-3.4701214 3.1687663 1.2865195
-3.4781685 3.1480095 1.2908617
-3.4806051 3.1439757 1.293679
-3.4746222 3.1484971 1.2777238
-3.4861007 3.1330445 1.2766366
-3.4871655 3.131393 1.2844491
-3.4958453 3.1291687 1.2803537
-3.5067289 3.1285856 1.2835234
-3.5073643 3.1188231 1.2794532
-3.5089521 3.1063082 1.2839032
-3.5130799 3.1096013 1.2826866
-3.5249565 3.1092358 1.2855726
-3.5124838 3.1108155 1.2892905
-3.5171871 3.1027532 1.2824019
-3.5378389 3.0875807 1.2849385
-3.5395708 3.0957048 1.2907075
-3.5334833 3.0795038 1.2791424
-3.5514843 3.076767 1.2918905
-3.5463085 3.0777359 1.2797784
-3.5451963 3.0614512 1.2800597
-3.5596271 3.065366 1.2885485
-3.5552673 3.0617247 1.2815924
-3.5680146 3.0548694 1.2811425
-3.5770371 3.0476177 1.2775627
-3.5729413 3.0440142 1.283749
-3.5663018 3.0429716 1.283004
-3.5738864 3.0323026 1.2910087
-3.5930293 3.0279119 1.2812331
-3.5794168 3.0129688 1.2773887
-3.5979095 3.0234036 1.2822281
-3.5961137 3.0036659 1.2759569
-3.750277 3.1324005 1.2219875
-3.7471018 3.1125691 1.2151866
-3.764369 3.1079528 1.2061261
-3.7652087 3.1116626 1.2184603
-3.759855 3.1062353 1.214756
-3.7752388 3.0974395 1.2053928
-3.7626104 3.0937107 1.2166545
-3.7797506 3.0877964 1.2179952
-3.7807276 3.087585 1.2147981
-3.7768576 3.0733576 1.2168969
-3.7792516 3.0736032 1.2129084
-3.7865703 3.0613654 1.2143357
-3.8006825 3.0561945 1.2163998
-3.803848 3.0545108 1.2074327
-3.8146718 3.0425005 1.2183033
-3.8091922 3.0394187 1.2056496
-3.8130686 3.0332699 1.2145441
-3.8256757 3.0342786 1.2228076
-3.8169346 3.0386004 1.216149
-3.8313832 3.0310748 1.2205582
-3.8237257 3.0254307 1.2105142
-3.840049 3.0167356 1.2135395
-3.9830053 3.1335571 1.14767
-3.9959834 3.1158912 1.1544731
-3.9979205 3.1116474 1.154591
-4.0089793 3.117121 1.1369579
-4.0126839 3.1029489 1.1385128
-4.0074863 3.1003928 1.1464193
-4.0140171 3.0907936 1.1439964
-4.0271993 3.0909538 1.1394024
-4.0159636 3.0829728 1.1545247
-4.0347648 3.0828614 1.1463184
-4.0305324 3.0720475 1.1449376
-4.0431247 3.0725949 1.151476
-4.0489054 3.0555365 1.1393614
-4.0345612 3.051743 1.1383173
-4.0578413 3.0485609 1.1487043
-4.0595593 3.0348845 1.1421443
-4.0533624 3.0389774 1.1516001
-4.0695806 3.0341806 1.1468374
-4.070385 3.024904 1.1397204
-4.0760589 3.0211031 1.1381254
-4.0699315 3.0058033 1.1513555
-4.2365632 3.1131504 1.0817407
-4.2254167 3.1077802 1.0697558
-4.2463765 3.1009996 1.0796343
-4.2483726 3.0951755 1.0719936
-4.2399731 3.0918632 1.0763452
-4.2581253 3.0789688 1.0704641
-4.2468133 3.0740695 1.0854672
-4.2602558 3.0725715 1.07688
-4.260807 3.069597 1.0701842
-4.2629452 3.0569396 1.073887
-4.2718444 3.0532186 1.079663
-4.2813129 3.0449724 1.0859902
-4.2827582 3.0400867 1.0714641
-4.2943168 3.0375171 1.0770475
-4.2935076 3.0276506 1.0852579
-4.2883382 3.0239272 1.0865195
-4.2890415 3.0158029 1.0688332
-4.2947335 3.0185149 1.0756065
-4.4631314 3.1120844 1.0163313
-4.4642391 3.1204247 0.99940544
-4.4616351 3.1041193 1.004734
-4.4732461 3.1025906 1.0077977
-4.4785218 3.0838535 1.0119629
-4.4783144 3.0777864 0.99955148
-4.4925151 3.0767493 1.0032727
-4.4984961 3.0650933 1.0092754
-4.5032072 3.0569372 1.0131648
-4.5055957 3.0672846 1.0057827
-4.5012021 3.0475481 1.0108545
-4.5070376 3.0510318 1.0105103
-4.5097904 3.0414386 1.0001104
-4.507206 3.0445442 1.0144376
-4.5215483 3.0266764 1.0162892
-4.5317173 3.0133085 0.99834198
-4.5342884 3.0100245 1.0056313
-4.5331302 3.0050344 1.0075443
-4.7027307 3.1028314 0.93854994
-4.6918063 3.0990472 0.93523186
-4.7082543 3.0839057 0.93847489
-4.6996222 3.0871687 0.93150526
-4.7113242 3.0719101 0.94125187
-4.7134175 3.0834589 0.94041979
-4.7211742 3.0648787 0.94804102
-4.7270699 3.0603347 0.94862175
-4.7309036 3.0574152 0.93225145
-4.7274389 3.0398419 0.93722999
-4.7420521 3.033617 0.94311887
-4.7366133 3.0426302 0.93179333
-4.7344828 3.0194995 0.93190181
-4.7491002 3.0292964 0.94185489
-4.7506781 3.011677 0.94313723
-4.9213982 3.1161671 0.87352479
-4.9141827 3.0970201 0.86096901
-4.9193358 3.096236 0.8704747
-4.9238987 3.0958667 0.86367255
-4.9248223 3.0832021 0.86591434
-4.9407573 3.0801549 0.86855477
-4.9507942 3.0667682 0.86683768
-4.952147 3.0597236 0.86862504
-4.9533815 3.0622644 0.86685038
-4.9446535 3.0474212 0.87410331
-4.9546332 3.0449402 0.87257332
-4.965179 3.0339897 0.87877715
-4.9682703 3.0221906 0.87108326
-4.9618464 3.0101237 0.86991286
-4.9822149 3.0014188 0.86297643
-5.1412883 3.0976307 0.79086024
-5.1368895 3.0912712 0.80130506
-5.1541982 3.0878153 0.79162198
-5.1497092 3.0873716 0.79140234
-5.166985 3.0798931 0.80326778
-5.1569977 3.0666623 0.79958665
-5.1685305 3.0671039 0.79189509
-5.1738491 3.0486624 0.79935056
-5.166852 3.040843 0.80169123
-5.1810145 3.036844 0.80228502
-5.1821036 3.0189071 0.80947828
-5.1862617 3.0296726 0.79750627
-5.1999645 3.0074236 0.80927867
-5.3660231 3.1075864 0.7387765
-5.3697391 3.1008811 0.73704553
-5.3615794 3.0884266 0.72930211
-5.37709 3.0686932 0.72922468
-5.3802819 3.0678844 0.7379359
-5.3760076 3.0583067 0.72606397
-5.3893824 3.0587895 0.73743516
-5.3821526 3.0423963 0.7381174
-5.3877192 3.0460484 0.73681903
-5.4052477 3.0401905 0.74053133
-5.4109926 3.0151396 0.73803294
-5.3981919 3.0106759 0.73632795
-5.5713406 3.1095653 0.66063601
-5.56812 3.0860965 0.66175848
-5.5849662 3.0837078 0.66958886
-5.5930905 3.0698545 0.6553641
-5.5930753 3.0668774 0.66915065
-5.6016784 3.0553701 0.65407866
-5.5895882 3.0625257 0.67019916
-5.5987849 3.0363729 0.66800803
-5.604259 3.0286834 0.66831821
-5.6122203 3.0379927 0.67172283
-5.6218758 3.0225697 0.67068052
-5.618175 3.0146708 0.65396881
-5.7990689 3.1023548 0.59363627
-5.7865162 3.0778296 0.59629887
-5.808177 3.0775902 0.58380145
-5.7960396 3.0730083 0.58761984
-5.7989631 3.0647657 0.58642316
-5.8057551 3.0515642 0.58690846
-5.8147264 3.0371163 0.58754534
-5.8233762 3.0389233 0.58533829
-5.8286099 3.0352805 0.59556091
-5.8348746 3.0195332 0.58574331
-5.8378401 3.0128036 0.60333824
-5.9991517 3.0885026 0.51547247
-6.0108457 3.0810115 0.52451247
-6.0150261 3.0699303 0.51708418
-6.0153761 3.0601871 0.52953309
-6.016911 3.0479023 0.5169062
-6.0179486 3.0508847 0.51796293
-6.0383377 3.0494449 0.52896428
-6.0409222 3.0269871 0.52446622
-6.0332723 3.0224693 0.53237009
-6.0354285 3.0191796 0.52169961
-6.2082186 3.0890625 0.46027163
-6.2117004 3.0880663 0.44879001
-6.22613 3.067168 0.45463341
-6.2279763 3.0701861 0.45914575
-6.237361 3.0559237 0.45979139
-6.2393608 3.0448666 0.45184368
-6.2402911 3.0376511 0.45088604
-6.2502084 3.0320706 0.45590657
-6.2446113 3.0183477 0.46485111
-6.2510986 3.0066645 0.45895365
-6.4176307 3.0754988 0.37911579
-6.4272671 3.0840201 0.39601329
-6.4283724 3.0623879 0.38071287
-6.4436221 3.0631735 0.37713686
-6.4343472 3.038826 0.38801086
-6.4444132 3.0367184 0.3965458
-6.4424152 3.0379074 0.38658956
-6.4613619 3.0133946 0.37978283
-6.4552751 3.0186818 0.38798901
-6.6306214 3.0804205 0.32421663
-6.6415725 3.0702071 0.32618085
-6.643311 3.0546362 0.32565662
-6.648139 3.0622265 0.31249613
-6.6482549 3.038821 0.30912319
-6.6519337 3.0289321 0.31041059
-6.6647253 3.0332057 0.31860423
-6.6689692 3.023694 0.31700674
-6.8344145 3.0762789 0.25088483
-6.8355021 3.082063 0.24811883
-6.8483706 3.0670688 0.25738132
-6.8559608 3.0453992 0.24571155
-6.8615732 3.0462537 0.24775808
-6.8676963 3.0265296 0.24668778
-6.8669667 3.0309267 0.25151101
-6.8695965 3.0158687 0.25575042
-7.0430322 3.0871518 0.18453705
-7.0562587 3.0632267 0.18216594
-7.0510688 3.0692995 0.18486278
-7.0629497 3.058563 0.18291105
-7.0575833 3.0392239 0.17553878
-7.0629401 3.0365467 0.17607652
-7.0799532 3.0324957 0.18705416
-7.0749059 3.006547 0.1878991
-7.2438478 3.0785346 0.11370113
-7.2551217 3.0588546 0.10308566
-7.2621417 3.0620306 0.11844042
-7.2713242 3.0362561 0.11972535
-7.2628632 3.0399337 0.11694411
-7.2716913 3.0159788 0.11329364
-7.2824574 3.0216253 0.12017707
-3.4517097 4.9458857 0.83806252
-3.4670548 4.9323711 0.85383427
-3.4681962 4.9293871 0.84633034
-3.4702168 4.9259782 0.84280181
-3.4774294 4.9107881 0.847682
-3.4930701 4.9089627 0.85074043
-3.4885616 4.9014144 0.84015751
-3.4994011 4.9116735 0.85000408
-3.5191853 4.9011898 0.84584397
-3.5129902 4.8978448 0.83783495
-3.5290079 4.8856387 0.83731467
-3.5325184 4.8849525 0.84812182
-3.5402501 4.8699846 0.84079653
-3.5354788 4.8798475 0.83492345
-3.5542293 4.8693433 0.83873081
-3.5480926 4.8700361 0.84559292
-3.5588903 4.8620696 0.84979671
-3.4683776 4.6987505 0.91682243
-3.4596865 4.6939592 0.91060984
-3.4751489 4.6821742 0.90597034
-3.4786136 4.6811757 0.91405255
-3.4825919 4.683465 0.90638644
-3.4957561 4.6848125 0.90869892
-3.4962387 4.6777158 0.90583092
-3.5025876 4.6586447 0.9174245
-3.5051222 4.6524811 0.9146865
-3.520788 4.662282 0.90896654
-3.532243 4.6574655 0.91625947
-3.5243289 4.6478777 0.90360832
-3.5426207 4.6493583 0.90402853
-3.5455451 4.6338987 0.90831614
-3.54038 4.6409788 0.91976744
-3.5628743 4.6214051 0.91745043
-3.5630493 4.6278529 0.91292924
-3.4506381 4.4658093 0.98190296
-3.4618661 4.4565225 0.98196018
-3.4758253 4.4580531 0.97673875
-3.4754977 4.4546061 0.97162992
-3.4878702 4.4455423 0.98187143
-3.4928873 4.4446507 0.97854114
-3.4974773 4.4472904 0.98470765
-3.4977727 4.4415445 0.98291951
-3.5066102 4.4397464 0.98653215
-3.5177577 4.4242086 0.98157597
-3.5134196 4.4120636 0.98820812
-3.5277646 4.4149046 0.97039312
-3.5220451 4.4099941 0.97895777
-3.5415404 4.4116111 0.98893243
-3.5461376 4.4070497 0.97470975
-3.5404863 4.4036579 0.98446977
-3.5581586 4.3818564 0.98175299
-3.5496573 4.3859329 0.97818214
-3.562937 4.3873382 0.97771388
-3.5725973 4.3837557 0.98661739
-3.4476547 4.2253065 1.0559572
-3.4554222 4.2241831 1.045401
-3.4609978 4.2149181 1.0548691
-3.4780021 4.2122903 1.050898
-3.4850249 4.2111912 1.0473175
-3.4862635 4.2018619 1.0453061
-3.4977355 4.2009721 1.0464625
-3.4919174 4.1946883 1.0566732
-3.5096631 4.1812229 1.0532755
-3.5078702 4.1841879 1.0512903
-3.5171671 4.178627 1.0412169
-3.5247808 4.1711731 1.0548648
-3.522944 4.164011 1.044101
-3.5316319 4.1657047 1.0555708
-3.5442843 4.1662297 1.0508108
-3.5405102 4.1513629 1.041599
-3.5587406 4.1508646 1.0563831
-3.5558076 4.1420178 1.0497775
-3.5626569 4.1412516 1.0546083
-3.572897 4.128098 1.0473144
-3.5651152 4.1314607 1.0393782
-3.4636378 3.9712245 1.116578
-3.4520698 3.9805882 1.1238867
-3.4712586 3.9670563 1.1178319
-3.4789712 3.9666576 1.1172531
-3.4714367 3.9558117 1.1067663
-3.4731073 3.9525073 1.1207482
-3.4799869 3.9579008 1.1108582
-3.4934654 3.9422028 1.1251851
-3.5021062 3.9420156 1.1113497
-3.4980342 3.9353542 1.1058756
-3.5018914 3.9321449 1.1069634
-3.5162055 3.9260361 1.1222571
-3.5232041 3.9262636 1.1088688
-3.5362506 3.9242973 1.1199396
-3.5298688 3.9153774 1.1250298
-3.533967 3.9102917 1.1116887
-3.5440767 3.9038248 1.108622
-3.5440691 3.8893709 1.1147456
-3.5497277 3.8917611 1.1055784
-3.5692148 3.8837008 1.1146536
-3.5741692 3.8772545 1.1054311
-3.5780287 3.8819582 1.1150186
-3.5665874 3.8651204 1.1097605
-3.5885277 3.8606868 1.1074705
-3.450947 3.7305136 1.1888661
-3.4565203 3.7194228 1.1824622
-3.4754276 3.7236526 1.1745486
-3.4773953 3.7133126 1.177146
-3.4732323 3.7027304 1.1871058
-3.4782295 3.6980703 1.1739854
-3.4941452 3.6938579 1.179406
-3.4992762 3.6911814 1.1745254
-3.494813 3.6853342 1.1778097
-3.4956009 3.6829283 1.1816703
-3.5186722 3.6750343 1.1779399
-3.5080047 3.6667426 1.1879644
-3.5237339 3.664712 1.1870716
-3.52737 3.6658754 1.180699
-3.5284016 3.6563573 1.1886116
-3.5394669 3.6469898 1.1767384
-3.5436454 3.6468484 1.1855346
-3.5423963 3.6467104 1.1765432
-3.546021 3.6361637 1.1866008
-3.5463545 3.6299498 1.1791558
-3.5628204 3.6257789 1.1887273
-3.5630097 3.617383 1.1749244
-3.5731676 3.6183584 1.1840155
-3.5842113 3.6207912 1.1792021
-3.5816207 3.6072788 1.1898092
-3.5911105 3.6077814 1.175995
-3.459115 3.4563658 1.2546561
-3.4714825 3.4642639 1.250476
-3.4728343 3.4535968 1.2607163
-3.4641218 3.4476485 1.2497172
-3.4828477 3.45028 1.2595286
-3.4719954 3.4377604 1.2459326
-3.4949391 3.4401145 1.2583075
-3.4887848 3.4364493 1.2581176
-3.487437 3.4203928 1.2494252
-3.4954755 3.4198568 1.2462517
-3.4973211 3.4229689 1.2494986
-3.5081625 3.4185247 1.2454878
-3.5231769 3.3975332 1.2556609
-3.5279443 3.3900518 1.2447433
-3.5237041 3.3886359 1.2413216
-3.5296452 3.3828564 1.2502512
-3.5291758 3.3789108 1.2464128
-3.5363243 3.3858898 1.2437937
-3.5436559 3.3789804 1.2500092
-3.5396731 3.3687897 1.2605864
-3.5588567 3.3615034 1.2591801
-3.5547864 3.368119 1.2582407
-3.5547202 3.3644564 1.2412275
-3.5644739 3.3407562 1.2416573
-3.5651379 3.346019 1.2456019
-3.569217 3.3300564 1.2487046
-3.5843592 3.3392725 1.2528056
-3.583333 3.3260417 1.2488365
-3.5849187 3.3301747 1.2429152
-3.461664 3.195673 1.3194304
-3.4662654 3.1941683 1.325966
-3.4722664 3.1814084 1.3240942
-3.4592001 3.1733825 1.3235433
-3.4831402 3.1802638 1.3242822
-3.4866438 3.1711345 1.3152803
-3.4861958 3.1625731 1.3153188
-3.4826384 3.1635091 1.3095826
-3.4949729 3.1501043 1.3156317
