# .PCD v0.7 - Point Cloud Data file format
VERSION 0.7
FIELDS x y z
SIZE 4 4 4
TYPE F F F
COUNT 1 1 1
WIDTH 1535
HEIGHT 1
VIEWPOINT 0 0 0 1 0 0 0
POINTS 1535
DATA ascii
1.6106085 -3.0237246 1.9067736
1.6174924 -3.0175145 1.9246639
1.6126208 -3.0282776 1.9123328
1.6165454 -3.0120091 1.9090457
1.6195197 -3.0175581 1.9224397
1.628839 -3.021328 1.9229445
1.6381651 -3.0130048 1.9105253
1.6279579 -3.0174365 1.9257801
1.6416428 -3.0018964 1.9193615
1.6395962 -3.0027223 1.921522
1.6581626 -3.0069265 1.9132261
1.6625066 -3.0084777 1.9089077
1.6647376 -2.9991279 1.9115872
1.6546344 -2.990078 1.9082905
1.6612408 -3.0022752 1.9171942
1.661238 -2.9893713 1.9200715
1.7742093 -3.1579671 1.8482672
1.7625182 -3.1542418 1.8505055
1.7660785 -3.1410401 1.8460096
1.7832167 -3.1540902 1.8584079
1.7825119 -3.1527758 1.8643159
1.7935079 -3.1513164 1.8463809
1.8001819 -3.1318216 1.8554981
1.7895319 -3.1466224 1.8513616
1.7955819 -3.1390061 1.8527187
1.810532 -3.1355784 1.8646644
1.8083559 -3.1358349 1.8523041
1.8151145 -3.1321945 1.8612127
1.8241079 -3.1294024 1.8608608
1.8286018 -3.1138773 1.8649904
1.8254906 -3.1234586 1.8479594
1.8282837 -3.1264422 1.849907
1.8331383 -3.1071465 1.8488625
1.8471066 -3.1228924 1.8505241
1.8369348 -3.116976 1.8573027
1.8481164 -3.1004941 1.8650033
1.8512403 -3.110569 1.849936
1.8620001 -3.0982628 1.8559916
1.861665 -3.101337 1.8623154
1.8609744 -3.1042876 1.8616345
1.8644097 -3.0947163 1.8488363
1.8708105 -3.0867152 1.8505124
1.8791553 -3.0982192 1.8489358
1.8864518 -3.080111 1.8490592
1.8954064 -3.0765274 1.8525385
1.8911357 -3.0861111 1.8499333
1.894562 -3.0769162 1.8546805
1.9029175 -3.0813034 1.8491555
1.8973248 -3.070364 1.8579715
1.9180522 -3.0644498 1.8612461
1.9180951 -3.0594313 1.8514953
1.925336 -3.0723395 1.8471427
1.9142493 -3.0612268 1.8486772
1.9215822 -3.0671375 1.8657048
1.9290348 -3.0484102 1.8636953
1.939963 -3.0582664 1.849475
1.9482821 -3.0490053 1.8618165
1.9413449 -3.0556943 1.8471317
1.9488788 -3.0522778 1.8607413
1.9452248 -3.0524321 1.8576139
1.9648417 -3.0368378 1.8568479
1.954704 -3.0382934 1.8605106
1.9602098 -3.0351226 1.852617
1.9672463 -3.0289021 1.8561376
1.9713067 -3.0395083 1.8557044
1.9733536 -3.0234623 1.8627279
1.9811765 -3.0233693 1.8563194
1.9813371 -3.0144818 1.860523
1.9868089 -3.0223248 1.865438
2.0058866 -3.0180826 1.8474878
2.0018327 -3.0184803 1.8624152
1.9970093 -3.0132689 1.8531641
2.0158446 -3.0068009 1.864355
2.0067823 -2.9975421 1.8590317
2.0212369 -3.0084646 1.8603615
2.0152543 -3.0015781 1.8549906
2.0162911 -2.9911029 1.8469603
2.0309157 -2.9846971 1.8650593
2.0297399 -2.997046 1.8525507
2.1402266 -3.1523831 1.8007716
2.1462278 -3.138 1.7865613
2.1471524 -3.1326549 1.7947803
2.1588216 -3.1326852 1.7866791
2.1616776 -3.1259842 1.8050431
2.1592062 -3.1290314 1.7896849
2.1780603 -3.1222603 1.7984076
2.1715393 -3.1186473 1.7947941
2.1769838 -3.1246006 1.794769
2.1805229 -3.115917 1.799572
2.1915493 -3.1076815 1.8040521
2.191535 -3.1178439 1.7999312
2.1973059 -3.1114771 1.7981652
2.2112916 -3.0978324 1.7933726
2.1971719 -3.1057189 1.7922786
3.081681 -4.3450432 1.3191884
3.0922952 -4.3440781 1.3157947
3.1116261 -4.3340058 1.3129933
3.1073377 -4.3428569 1.3012116
3.1230183 -4.3325319 1.3150804
3.1234956 -4.3155403 1.3141457
3.1284468 -4.3229179 1.3000032
3.1292713 -4.3088756 1.3091758
3.1483235 -4.3051944 1.3089359
3.1425772 -4.2999744 1.3177462
3.1557307 -4.2948527 1.3087463
3.1617279 -4.3051872 1.3164057
3.1643255 -4.3022556 1.3098229
3.1641154 -4.2896709 1.3100662
3.1721177 -4.2874579 1.3163028
3.1739824 -4.2708144 1.3151911
3.1949062 -4.27526 1.3023536
3.2016814 -4.2649155 1.3192018
3.197623 -4.2615471 1.3153664
3.2133183 -4.2699471 1.3123771
0.20273349 -4.9478464 1.4665775
0.22060919 -4.9476919 1.469752
0.21416607 -4.7531738 1.5163245
0.21771914 -4.5755005 1.5910395
0.22148998 -4.3860641 1.6363596
0.21752599 -4.3853974 1.6418917
0.22108355 -4.182385 1.7007174
0.21500103 -3.9948838 1.7660927
0.22342147 -3.9969225 1.7554646
0.206094 -3.8113117 1.8207976
0.20744601 -3.8086145 1.81469
0.2117697 -3.6042666 1.8878007
0.20963576 -3.6157539 1.884973
0.20355856 -3.4311728 1.9480727
0.22374858 -3.4311173 1.9501811
0.22991 -3.4211459 1.9326701
0.20963754 -3.2338169 2.0064604
0.22054158 -3.2394872 1.9973623
0.21747211 -3.2223234 2.0059407
0.22377406 -3.2379711 2.0091136
0.23606037 -3.237586 1.9946976
0.24223863 -3.2275617 1.9936411
0.24217886 -3.2247236 2.0008116
0.23929098 -3.2218473 2.0016057
0.24015406 -3.2235665 2.0021715
0.26312506 -3.2239091 1.9924178
0.26858458 -3.2173431 1.9990795
0.26848578 -3.2243907 1.9997836
0.25928825 -3.2190256 1.9973582
0.2786687 -3.2318757 1.9989852
0.28122133 -3.2169559 2.0006912
0.28935754 -3.2203741 1.9921089
0.27643678 -3.228368 2.0060463
0.29068595 -3.2237651 2.0025344
0.28572875 -3.2228141 1.9969722
0.30133665 -3.2234063 2.0107296
0.30719033 -3.2230532 2.0107093
0.29970509 -3.2273121 2.0032907
0.31292346 -3.2252817 2.0008807
0.32371575 -3.2283833 2.0052578
0.31613451 -3.2134442 2.0041854
0.33025861 -3.2148805 1.9993192
0.3357999 -3.2137485 2.0060773
0.33527783 -3.2228775 1.9970502
0.33124334 -3.2214735 2.0085797
0.34164599 -3.228971 1.9991159
0.34580544 -3.2151237 2.0095985
0.34994373 -3.2132695 1.9954085
0.3666628 -3.2227046 2.0028293
0.36097121 -3.2258546 2.0067225
0.35965613 -3.221092 2.0051227
0.37726796 -3.2067111 2.0016477
0.37001288 -3.2112942 1.9988602
0.38951519 -3.2209036 2.0064924
0.37998962 -3.2190518 1.9950711
0.38199279 -3.2113004 1.9956883
0.39453158 -3.2238922 2.0096831
0.39755207 -3.2168477 2.0050554
0.40638191 -3.2175851 2.01051
0.40263176 -3.2085149 1.9923258
0.40277404 -3.2052598 1.9984088
0.42131555 -3.2088921 1.9983712
0.41638148 -3.204278 1.9932429
0.42865905 -3.2046592 1.9979906
0.42856804 -3.2190633 2.00407
0.43705478 -3.2159603 1.9973742
0.44615802 -3.2048144 1.9975536
0.44925514 -3.2151427 2.0042384
0.44772375 -3.2011354 2.0096397
0.45164606 -3.2153716 2.0035596
0.4573833 -3.213958 2.0001764
0.46920276 -3.1984947 1.9925967
0.46098372 -3.2124565 2.0090604
0.46763539 -3.198631 2.004566
0.47903401 -3.2093859 2.0050843
0.47651115 -3.1961424 2.0081158
0.48729151 -3.1982837 2.0016975
0.49825031 -3.2018147 2.004349
0.49589285 -3.1913631 2.0003994
0.49893594 -3.2014744 2.0015991
0.49589792 -3.1903329 2.0035913
0.50947583 -3.1918554 2.0004199
0.51547301 -3.2060795 2.0026531
0.51793295 -3.1981337 1.9980721
0.51589733 -3.2032702 2.0020905
0.51437902 -3.1954093 1.9987
0.53589129 -3.2012472 1.9925098
0.53098434 -3.2006042 2.0021241
0.52872771 -3.1867959 2.0015187
0.54252046 -3.1944208 2.0101249
0.53751183 -3.189559 2.0091889
0.5544945 -3.1955936 2.0060408
0.54830456 -3.2001042 2.0079725
0.56434685 -3.1866274 1.9971477
0.55580717 -3.1796575 2.000478
0.57128477 -3.1786764 2.0109544
0.56337082 -3.1806521 1.9948719
0.5692656 -3.1920035 1.9987049
0.58477342 -3.1900787 1.9956127
0.57967484 -3.1788278 2.0041561
0.5831812 -3.1770504 1.9968151
0.58575058 -3.1827548 2.0026875
0.60517067 -3.1791124 2.0032904
0.60652131 -3.1838896 1.9966056
0.617046 -3.1816678 1.9961199
0.61089987 -3.1884284 1.9958379
0.61522889 -3.1875618 1.9927967
0.62347418 -3.1852582 1.9976143
0.63555139 -3.1719034 2.0035608
0.62453526 -3.1681027 1.9999564
0.64206111 -3.1852503 1.9973208
0.63224477 -3.1842818 2.0081661
0.64829952 -3.1683455 2.0018332
0.64495617 -3.1755095 2.0098958
0.65492672 -3.1765985 1.999347
0.66441023 -3.1682827 2.0011983
0.65361053 -3.1800852 2.0030704
0.65976822 -3.1680889 2.0063944
0.67074239 -3.1684604 2.0022149
0.66766179 -3.1642923 2.0009716
0.68097538 -3.1670408 2.0017102
0.69165206 -3.1640475 2.0025403
0.69317287 -3.1694396 1.9984242
0.68835932 -3.1626141 2.0062547
0.69160712 -3.1702559 1.9921007
0.70430475 -3.1528506 2.0053608
0.69885224 -3.1706805 2.0059109
0.71527058 -3.1667869 1.997543
0.71501148 -3.1563518 2.0078835
0.71057147 -3.1534288 2.0014658
0.72488678 -3.1616223 1.9913667
0.71993929 -3.163568 2.0033224
0.73582077 -3.1484206 2.0089409
0.74758458 -3.162513 2.0004339
0.74717748 -3.1577826 2.0033276
0.75261492 -3.1447778 2.0026631
0.75131112 -3.1416481 2.0031986
0.75055581 -3.1465206 2.0066521
0.76143128 -3.1560721 1.9995587
0.76264566 -3.1544816 1.9943999
0.77744085 -3.1429925 2.0000532
0.78213555 -3.1408663 2.0027599
0.77878445 -3.1472726 1.9996076
0.78105044 -3.1463275 2.0013497
0.79480791 -3.1502008 2.0068033
0.79145759 -3.1330464 2.0042362
0.78744113 -3.1416039 2.0037675
0.80395877 -3.1353238 1.9973884
0.80392832 -3.1425734 2.0004141
0.81680286 -3.1330128 2.0039804
0.80451709 -3.1330593 1.9979799
0.81788301 -3.132812 1.9930432
0.81395423 -3.1403155 2.0006318
0.82687134 -3.1299508 2.0080907
0.82152909 -3.1302254 2.0105958
0.84163886 -3.1382451 2.0091686
0.83917981 -3.1346748 1.9980906
0.83625042 -3.118979 1.9921937
0.84694028 -3.1277039 1.9979419
0.86065429 -3.127943 1.9921395
0.8579331 -3.1248553 2.0051727
0.86920953 -3.1327875 1.9973297
0.85554761 -3.1290326 2.0008535
0.86947268 -3.1167431 1.9936057
0.87085515 -3.114177 2.0049415
0.87474096 -3.1158805 2.0071094
0.87719774 -3.1244209 1.991693
0.8885749 -3.1202667 2.0108123
0.89405346 -3.1097975 2.0000401
0.90527844 -3.109987 2.0078561
0.89069927 -3.117269 1.9975808
0.90915179 -3.1176443 1.9981886
0.89975941 -3.1160495 2.0013602
0.91388899 -3.1048961 1.9956243
0.92076916 -3.1167247 1.9912512
0.91898328 -3.1090307 2.0039654
0.91936344 -3.103241 2.0069237
0.92432559 -3.1104338 1.9928147
0.92840517 -3.0965059 2.0079474
0.94171071 -3.0957093 2.0016568
0.94283038 -3.0938461 2.0068443
0.95367306 -3.0978832 2.0104105
0.94512171 -3.0956638 1.9943198
0.9597401 -3.1036639 2.0081244
0.96862072 -3.0891314 2.0088363
0.97312641 -3.1007302 1.995972
0.97034436 -3.096293 2.0076213
0.97051889 -3.0912356 2.0107954
0.97658241 -3.0864394 2.0066087
0.97777671 -3.0926757 2.0019245
0.99267852 -3.0821292 1.9978026
0.99276596 -3.0850751 2.008337
0.99641782 -3.0809054 1.9997785
1.0039769 -3.0864484 2.0019009
1.0053387 -3.0874405 1.9972314
1.0074104 -3.0882542 1.9996319
1.0166161 -3.0761757 2.0051327
1.0174689 -3.0682466 1.9943479
1.0214938 -3.0785758 2.0070107
1.0213301 -3.072031 1.9920819
1.0364802 -3.0749023 2.0063386
1.0275065 -3.0620027 1.9962822
1.0290653 -3.0697656 2.0090227
1.0420634 -3.0742817 1.9948407
1.0571821 -3.0617466 1.9982817
1.047629 -3.0714483 1.9995178
1.0604744 -3.056251 1.9914351
1.0588187 -3.0645056 2.0098782
1.0663761 -3.0530381 1.9965827
1.0665941 -3.066035 2.0084169
1.0718814 -3.0481806 1.9959584
1.0714233 -3.0635967 1.9949723
1.0809067 -3.061749 2.0047903
1.0831286 -3.0511959 2.0086524
1.0911664 -3.0498147 2.0036047
1.102643 -3.0422754 2.0074036
1.0953536 -3.0461776 2.0049427
1.0999794 -3.0560203 1.9927639
1.1030462 -3.042588 2.0105832
1.1128153 -3.0532184 1.9939302
1.1144166 -3.04284 1.9936504
1.1235572 -3.0371964 1.9964674
1.1317096 -3.0463436 1.9996389
1.1296775 -3.0375412 1.9918644
1.1315057 -3.0449715 2.0039659
1.1282837 -3.025193 2.0020955
1.1488587 -3.0369699 1.9948057
1.1469705 -3.0283852 1.9961503
1.1529011 -3.0209951 2.009398
1.1566488 -3.0280957 2.0104804
1.1637414 -3.0178525 2.0004003
1.170552 -3.0227242 1.9944171
1.1601772 -3.0236964 1.9977337
1.1729718 -3.0309517 2.0082939
1.1779896 -3.0206277 2.0098593
1.1751066 -3.0177724 2.0096323
1.1903508 -3.0185864 1.9960519
1.178303 -3.0255311 2.0094738
1.1875974 -3.0107851 2.008697
1.1901374 -3.0165291 1.9992254
1.1937574 -3.0194161 1.9983965
1.2072951 -2.9997261 1.9910901
1.2148471 -3.0146418 2.001199
1.2057134 -3.0009918 2.0024347
1.2271377 -3.0065506 1.9923704
1.2301248 -2.9992166 2.0035315
1.2328829 -3.0008605 1.9922428
1.2220579 -2.9987721 1.9923679
1.2246526 -2.9916067 2.0055914
1.2464681 -2.9861164 1.9914172
1.2388095 -3.001219 1.9926966
1.2503196 -2.9869945 1.9920011
1.2545209 -2.9894264 1.9947186
1.3220762 -3.1615851 1.9500608
1.3378634 -3.1600332 1.9375097
1.3435837 -3.1596951 1.9506036
1.3404626 -3.1607974 1.940359
1.3460501 -3.1569207 1.9505023
1.3517603 -3.1546431 1.9461045
1.3506911 -3.1547413 1.9454849
1.3554453 -3.1466873 1.9480444
1.3614763 -3.1513095 1.9431045
1.3668091 -3.1559148 1.9340031
1.3748567 -3.1503937 1.9473947
1.3775922 -3.1535113 1.9404943
1.3877739 -3.1353314 1.9320819
1.3910468 -3.1446931 1.940711
1.3840724 -3.1328847 1.9513544
1.3872386 -3.1397817 1.9424065
1.4060044 -3.1321604 1.9514856
1.4041479 -3.1241949 1.9467379
1.4048481 -3.1346054 1.9354806
1.4206057 -3.124088 1.9377248
1.4072592 -3.129925 1.9435904
1.4273015 -3.1174259 1.9444329
1.4204408 -3.1191421 1.9415433
1.4251648 -3.1219792 1.9473743
1.4385153 -3.1161821 1.9430895
1.4425062 -3.1116076 1.9499774
1.4375465 -3.112653 1.9425504
1.4416631 -3.1199386 1.9411465
1.4610292 -3.1109045 1.9473834
1.4491352 -3.1104906 1.9421829
1.4594826 -3.1077981 1.9491844
1.4556928 -3.109436 1.9467182
1.4727424 -3.1023042 1.9405628
1.4669 -3.0948153 1.9495912
1.4868855 -3.09834 1.9424312
1.4825834 -3.1022351 1.9378545
1.4851663 -3.0954485 1.9502349
1.5003194 -3.088901 1.933326
1.4940656 -3.0873406 1.9434416
1.4940459 -3.0820243 1.9319555
1.5088227 -3.090708 1.9411397
1.5105981 -3.0875261 1.9466584
1.5099044 -3.0916362 1.9372747
1.5230523 -3.0859277 1.9333401
1.5252256 -3.0845695 1.9438345
1.5202361 -3.0718467 1.9483817
1.5306671 -3.0808713 1.9376571
1.5334753 -3.0790703 1.9514158
1.5393717 -3.0678475 1.9446645
1.5353807 -3.0609663 1.9411532
1.5399007 -3.063627 1.9468758
1.5536019 -3.0688281 1.9336919
1.5528187 -3.0590358 1.9343034
1.5626488 -3.0604055 1.9385229
1.5685413 -3.0639091 1.9419941
1.5649251 -3.0567062 1.9360753
1.5658531 -3.0433738 1.9390136
1.5760535 -3.0515313 1.9416282
1.5800095 -3.0380876 1.9333349
1.5772111 -3.052927 1.9497865
1.5908984 -3.0475361 1.9414347
1.5903052 -3.0327301 1.9457333
1.596525 -3.0429907 1.9376695
1.6033531 -3.0277016 1.9460753
1.6143978 -3.0307972 1.9488111
1.6089103 -3.0417831 1.9365771
1.6175013 -3.0361125 1.9354972
1.6290271 -3.0245094 1.9440753
1.6231645 -3.0332158 1.9439067
1.6290057 -3.0289824 1.9467021
1.6312951 -3.015321 1.9326862
1.6452296 -3.0265086 1.951268
1.6434596 -3.0157292 1.9373749
1.6536224 -3.0223715 1.9365509
1.6521881 -3.0022156 1.950405
1.6534861 -3.011791 1.9510411
1.6625471 -3.0170157 1.9351099
1.670525 -3.0149519 1.9485376
1.6670777 -3.002985 1.9510093
1.6634586 -3.0094078 1.9354584
1.6826316 -2.9977694 1.9513074
1.6877856 -2.9964209 1.9337013
1.6915181 -3.0010641 1.9446011
1.6813542 -2.999763 1.9465791
1.783747 -3.1507163 1.8870792
1.7868391 -3.1578479 1.8750613
1.7905639 -3.1601274 1.8755214
1.7983539 -3.138634 1.8757424
1.7995683 -3.1447902 1.8856215
1.8032508 -3.1387641 1.8867631
1.8113788 -3.1377609 1.8772228
1.8153526 -3.1357958 1.8867043
1.8217165 -3.1342876 1.8892102
1.8189768 -3.1271293 1.8906792
1.8382115 -3.1351447 1.8854558
1.8372911 -3.12448 1.8906204
1.8443493 -3.1344988 1.8910189
1.8318639 -3.1211326 1.8904181
1.839596 -3.1109533 1.8811622
1.8572037 -3.1214898 1.8754271
1.8559494 -3.1082926 1.8881844
1.865151 -3.1155126 1.8803892
1.8638307 -3.1007559 1.8915788
1.8650128 -3.1131232 1.8873973
1.8676602 -3.110636 1.8726645
1.8850806 -3.0934463 1.8860546
1.8876617 -3.0935717 1.886878
1.8906379 -3.0905521 1.8785137
1.8930094 -3.1041665 1.8777682
1.8861214 -3.0845361 1.88392
1.8934947 -3.0905187 1.8806968
1.8936217 -3.0916553 1.8876749
1.9059497 -3.078464 1.8868252
1.9094638 -3.0884392 1.8910176
1.9087924 -3.0801113 1.8751004
1.9133846 -3.0787044 1.8737702
1.9313632 -3.0790532 1.8897059
1.9301616 -3.06076 1.8860463
1.9405917 -3.0644252 1.8861511
1.9302726 -3.0593047 1.8832594
1.9461017 -3.0711336 1.8917519
1.9387037 -3.0671549 1.8764687
1.9582801 -3.0551631 1.8917315
1.9570029 -3.0639694 1.8743682
1.9599144 -3.057755 1.8826754
1.9669049 -3.0512526 1.8897266
1.9725615 -3.0510721 1.8737595
1.9741498 -3.0363901 1.8734105
1.9720749 -3.0355711 1.8867149
1.9701008 -3.0293608 1.8824527
1.9852312 -3.0316067 1.8836682
1.9888502 -3.0255327 1.8861632
1.9971821 -3.0241604 1.8779447
2.0007732 -3.0283394 1.8782089
2.0069969 -3.0338774 1.8819702
2.001524 -3.0166919 1.8895109
2.0030985 -3.0181127 1.8745028
2.0087018 -3.0222042 1.8914416
2.0139523 -3.0126259 1.8864583
2.0125034 -3.0092733 1.8849387
2.0267882 -3.015038 1.87842
2.0222845 -3.0014274 1.8752166
2.040272 -3.0037248 1.8906208
2.0300372 -3.0066674 1.8790753
2.0400624 -2.9876184 1.879215
2.0538449 -2.9982708 1.8737577
2.0551643 -2.9915731 1.8840914
2.1691306 -3.1412497 1.8281908
2.1725926 -3.1519849 1.8184165
2.1710675 -3.1483817 1.8291886
2.1680183 -3.1347022 1.8313841
2.1784463 -3.1297309 1.8243721
2.1856668 -3.1309729 1.8322389
2.188287 -3.1266463 1.8143336
2.1993577 -3.1164875 1.8326417
2.1905637 -3.1167347 1.8174561
2.1963081 -3.1198478 1.8261211
2.2123818 -3.1208344 1.8200134
3.202522 -4.5075216 1.2860264
3.214221 -4.5139766 1.2867616
0.21871011 -4.9619322 1.5047934
0.22078671 -4.960444 1.4958354
0.21966487 -4.7715774 1.5646889
0.22073337 -4.5852008 1.6169453
0.2060664 -4.3914905 1.6789328
0.21709666 -4.3822217 1.6870214
0.21661577 -4.1905766 1.7329671
0.21502635 -4.0048809 1.7991118
0.22380435 -4.006331 1.7875351
0.2157366 -3.8095658 1.8462059
0.21557219 -3.8113408 1.8571478
0.2217672 -3.6268518 1.9072435
0.20939544 -3.613302 1.9167181
0.21673383 -3.425736 1.9589972
0.20930257 -3.4215562 1.9655273
0.22590756 -3.4324799 1.9610394
0.23060076 -3.4206939 1.9767085
0.22328839 -3.4267721 1.9666029
0.24416947 -3.429671 1.9747623
0.23347329 -3.4361112 1.9682417
0.24349669 -3.4280467 1.9596595
0.2444614 -3.4284592 1.9641491
0.25757056 -3.4263067 1.9619023
0.2601538 -3.4306865 1.9758354
0.26706475 -3.4272933 1.9736636
0.26050529 -3.4320903 1.9602768
0.26945749 -3.4169888 1.9583782
0.27407822 -3.4339943 1.9700965
0.28859285 -3.4149125 1.9586043
0.29126638 -3.4313207 1.960354
0.28741872 -3.4224985 1.9698433
0.29498824 -3.4175041 1.9585885
0.30704692 -3.4241927 1.9691479
0.3168582 -3.4130898 1.9749825
0.32060197 -3.4198673 1.9638588
0.32217339 -3.4179947 1.9675797
0.33035743 -3.4119604 1.9660369
0.31664222 -3.426095 1.9671171
0.33464465 -3.4305041 1.9669003
0.34115437 -3.4170282 1.9698905
0.34941304 -3.4121883 1.961311
0.34716037 -3.4245663 1.9573274
0.35365224 -3.4096725 1.9662498
0.35070288 -3.409754 1.9658632
0.35358751 -3.4108775 1.9582806
0.36534771 -3.415215 1.9721451
0.36082813 -3.416153 1.971612
0.3747651 -3.41559 1.9765058
0.3697814 -3.4218082 1.976545
0.38458031 -3.4062996 1.9696078
0.38236862 -3.4073145 1.9670521
0.39157677 -3.4153636 1.971653
0.39680049 -3.4217017 1.9706753
0.41094595 -3.4157691 1.9691374
0.404704 -3.4117317 1.9659905
0.41087866 -3.4207129 1.9580141
0.41091704 -3.4189918 1.968601
0.43042153 -3.4081113 1.959245
0.43481892 -3.4069912 1.9631586
0.4392547 -3.4158483 1.962062
0.43675259 -3.4116921 1.959425
0.43169391 -3.4031026 1.9682068
0.4512352 -3.4140632 1.9701116
0.44979802 -3.4156513 1.9574032
0.44682214 -3.4082537 1.9681801
0.46069849 -3.3994529 1.9694167
0.46659756 -3.3953846 1.9718089
0.46308252 -3.3965816 1.9645095
0.47021064 -3.3981507 1.9577512
0.48125145 -3.4000521 1.9615502
0.49119475 -3.4092231 1.968913
0.49850017 -3.4082196 1.9642664
0.49458638 -3.3924406 1.9680537
0.49257648 -3.4028637 1.9696405
0.49785724 -3.401027 1.958006
0.51391387 -3.3900771 1.9745467
0.51120621 -3.3979907 1.9745233
0.51088983 -3.3941808 1.972664
0.52327293 -3.3880031 1.9685903
0.52889675 -3.3955445 1.9619629
0.53831857 -3.3979015 1.9655056
0.53510225 -3.3977108 1.9693862
0.54723823 -3.3861909 1.9683738
0.54316044 -3.401437 1.9762592
0.56066847 -3.3961573 1.965296
0.54654092 -3.3995752 1.9645905
0.56895292 -3.3904536 1.9752728
0.57134056 -3.3864007 1.9690597
0.57186788 -3.3947158 1.9683119
0.56832033 -3.3821573 1.9593041
0.57814425 -3.3849261 1.967214
0.59150976 -3.3956594 1.9745826
0.58875483 -3.3790038 1.9727324
0.58498627 -3.3911719 1.9748911
0.58910209 -3.3905773 1.9615774
0.6022535 -3.388854 1.9640875
0.61469829 -3.3894618 1.9749538
0.61782426 -3.3924236 1.9691013
0.61473584 -3.3795991 1.9741553
0.63089848 -3.3750615 1.9709828
0.61805212 -3.3854389 1.9642498
0.63311452 -3.387188 1.9659853
0.63554424 -3.3764284 1.9635714
0.63612252 -3.3741727 1.9681778
0.6388582 -3.3725352 1.9725608
0.64827901 -3.3824792 1.9578421
0.66020864 -3.3647103 1.9616845
0.66300339 -3.368546 1.9617268
0.65994436 -3.3801997 1.9737492
0.66193807 -3.3804188 1.9694577
0.68075794 -3.3782113 1.9739313
0.67284352 -3.3656673 1.9757913
0.68666333 -3.3754184 1.9675397
0.69806796 -3.3693147 1.9606663
0.69407761 -3.3651974 1.974546
0.69446892 -3.3563805 1.9575908
0.7001403 -3.3603535 1.9575071
0.70965254 -3.3662503 1.9726837
0.71920586 -3.3599231 1.975296
0.72078019 -3.3563185 1.976772
0.71806175 -3.3586085 1.9595313
0.71981543 -3.3535264 1.9739041
0.72342765 -3.3593364 1.9575889
0.73878694 -3.3584526 1.9664339
0.7472713 -3.3662686 1.9584459
0.74963397 -3.3584013 1.9583182
0.75504005 -3.3495696 1.9732541
0.76036102 -3.3559308 1.9613233
0.76085711 -3.3574429 1.974743
0.76396406 -3.3620834 1.9707843
0.76854539 -3.3541436 1.9635458
0.77588469 -3.3491502 1.9603933
0.7775954 -3.345243 1.970428
0.78298932 -3.3506734 1.9603369
0.77722675 -3.3523154 1.961414
0.78347462 -3.3362892 1.9693358
0.78959328 -3.3395495 1.9650604
0.8106463 -3.3421805 1.973388
0.79976702 -3.3490052 1.9591613
0.80230582 -3.3374116 1.9592454
0.82088435 -3.3459237 1.9662139
0.8122229 -3.3317821 1.9571142
0.82040739 -3.3406138 1.9708533
0.83862484 -3.3287344 1.9580867
0.82674974 -3.3272984 1.9625967
0.83595008 -3.3442943 1.962045
0.83307064 -3.3398497 1.9571382
0.84591413 -3.3390284 1.9684993
0.84708357 -3.3337615 1.9719281
0.85402471 -3.3306293 1.9658363
0.86104834 -3.3335903 1.9701117
0.8750388 -3.3298833 1.9674015
0.87992787 -3.3226604 1.9747256
0.87855434 -3.3218873 1.972789
0.88441253 -3.3176548 1.9711413
0.89477891 -3.328886 1.9713445
0.88459188 -3.3276589 1.9748324
0.88949639 -3.3182492 1.957975
0.90576035 -3.3123291 1.9652117
0.90545142 -3.3241251 1.9744014
0.89904886 -3.3135536 1.9594438
0.91692001 -3.3136456 1.967001
0.9120791 -3.3135011 1.9605819
0.91456062 -3.319381 1.9737307
0.93510371 -3.3040516 1.9698998
0.93399733 -3.3030035 1.9736193
0.9330923 -3.3167882 1.9573411
0.93567336 -3.3103123 1.969241
0.94139534 -3.3122146 1.9658233
0.9543522 -3.2990665 1.9693648
0.95649672 -3.2969599 1.9622271
0.96368194 -3.3016191 1.9737399
0.95842242 -3.2957547 1.9641334
0.96674204 -3.292042 1.9673766
0.96820849 -3.2924182 1.9646722
0.98584223 -3.2985308 1.9617326
0.98719364 -3.2901766 1.9637187
0.99226481 -3.3038678 1.9708843
0.98923415 -3.2964616 1.9748449
1.0027837 -3.3007214 1.9706442
0.99987292 -3.2874575 1.9672347
1.0098225 -3.2916274 1.9578438
1.0112829 -3.2856741 1.9729888
1.0231348 -3.2760165 1.9705113
1.0182281 -3.2895062 1.966316
1.030615 -3.2899737 1.9746603
1.0200602 -3.2736995 1.9700044
1.0314896 -3.276962 1.9702965
1.0300827 -3.2878613 1.9766276
1.0326343 -3.269815 1.9573253
1.0509833 -3.2792816 1.9699068
1.0459207 -3.2833989 1.9569318
1.051465 -3.270654 1.9685171
1.0521525 -3.2706535 1.9683603
1.0703603 -3.260154 1.9733081
1.0643709 -3.2618604 1.9763762
1.0667236 -3.2587118 1.9742997
1.0844184 -3.2687221 1.9675356
1.0824032 -3.2647259 1.9684407
1.086717 -3.2627625 1.9659542
1.0917264 -3.2670329 1.9725567
1.0893152 -3.260946 1.9735912
1.0939268 -3.2538931 1.9659134
1.1101216 -3.2507293 1.9767727
1.1061574 -3.253932 1.9766612
1.107139 -3.2476964 1.9733672
1.1111865 -3.2436781 1.9717392
1.1331553 -3.2465334 1.9586115
1.1283579 -3.2559698 1.9679844
1.1244633 -3.2456565 1.9578189
1.1380801 -3.2548954 1.961875
1.1382972 -3.2511055 1.9705031
1.1395465 -3.2472618 1.9646631
1.153116 -3.2317786 1.9604596
1.1575423 -3.244813 1.9715196
1.161855 -3.2414169 1.9672751
1.1628715 -3.2385225 1.9655023
1.1622577 -3.2382064 1.9593215
1.1685138 -3.2272322 1.962145
1.1841408 -3.2246954 1.9737163
1.1895999 -3.2330821 1.9744766
1.1791127 -3.22579 1.9574486
1.1972513 -3.2217846 1.9626799
1.1895478 -3.2287433 1.9618034
1.1976383 -3.2158074 1.9662954
1.1967865 -3.2230883 1.9725797
1.2116879 -3.2138796 1.9601485
1.2248143 -3.2098095 1.9664171
1.2117573 -3.2240059 1.9620372
1.2215216 -3.2070956 1.9585652
1.2228547 -3.2092445 1.9650713
1.2249459 -3.2063961 1.9572279
1.2300066 -3.2099226 1.9717423
1.2402962 -3.2056637 1.9576434
1.249707 -3.1978233 1.9748201
1.2436074 -3.1953411 1.9630493
1.2637897 -3.2024617 1.958814
1.2515382 -3.2009578 1.9569695
1.2655529 -3.1970105 1.9592428
1.2751853 -3.1877961 1.9767344
1.2813435 -3.2017431 1.970379
1.2740051 -3.1980917 1.9651674
1.2788209 -3.1938696 1.9747186
1.2781484 -3.1838453 1.9668114
1.2833748 -3.1888957 1.9650214
1.3057752 -3.1845284 1.9639839
1.2964023 -3.1844594 1.97409
1.3027917 -3.1811199 1.9639577
1.3073341 -3.1882412 1.9760245
1.3141471 -3.1702032 1.975551
1.3184493 -3.1704776 1.9593695
1.3163935 -3.182559 1.9650723
1.3291235 -3.1742902 1.9732238
1.3314021 -3.1711569 1.9696199
1.345771 -3.1672583 1.9591798
1.3383472 -3.1654174 1.9713148
1.3498834 -3.1574054 1.9617203
1.3515232 -3.1674571 1.9736608
1.3630279 -3.1574173 1.9766693
1.3665969 -3.1650126 1.9758987
1.3696898 -3.1527517 1.9730303
1.3765985 -3.1669896 1.9762512
1.3692074 -3.1529381 1.9659053
1.3699651 -3.161046 1.9768507
1.3871163 -3.1592205 1.9698466
1.3938247 -3.1492517 1.9628291
1.3926654 -3.1521769 1.9619632
1.4019089 -3.1378901 1.9691789
1.4030904 -3.1365235 1.9645615
1.4072775 -3.1360104 1.9704696
1.4106913 -3.1368244 1.9667536
1.411234 -3.1351471 1.9669082
1.4149948 -3.1452751 1.9592168
1.4284071 -3.1390576 1.9615136
1.432762 -3.1400981 1.963726
1.43011 -3.1388366 1.9739913
1.4404378 -3.1231387 1.9594091
1.4298968 -3.1225984 1.9571853
1.4465688 -3.1252751 1.9743934
1.4386206 -3.1281605 1.9701738
1.4565777 -3.1120253 1.9631935
1.4508159 -3.1197379 1.9759376
1.465206 -3.108077 1.9765944
1.4719019 -3.1073892 1.9615036
1.4608917 -3.1067286 1.963401
1.4720912 -3.1130993 1.9645821
1.4735531 -3.113519 1.9594777
1.4804298 -3.1088536 1.9729239
1.4850799 -3.1118875 1.9616973
1.4869351 -3.1072378 1.9655834
1.4845681 -3.1089966 1.9635967
1.4952178 -3.1008799 1.9718833
1.4986086 -3.1027331 1.9698102
1.5026535 -3.1022475 1.9663988
1.5116045 -3.0971265 1.9616157
1.52245 -3.0851574 1.9684231
1.5144737 -3.0960751 1.9727663
1.52139 -3.0844617 1.9597242
1.5217494 -3.0925412 1.9615915
1.5308795 -3.0831056 1.9660456
1.5438927 -3.080374 1.9666719
1.5349162 -3.071327 1.97334
1.5542232 -3.0832205 1.9760737
1.5514541 -3.0753975 1.957206
1.5452707 -3.0629492 1.9613662
1.5543011 -3.063978 1.9753962
1.570136 -3.0573027 1.9764034
1.5703111 -3.068028 1.9669126
1.5774409 -3.0627077 1.967225
1.5664351 -3.052568 1.9748498
1.5798802 -3.0537231 1.9630769
1.5939487 -3.0481594 1.9582157
1.5946821 -3.047591 1.9593195
1.5981462 -3.0540903 1.9660987
1.6027395 -3.0510688 1.9631729
1.6114899 -3.0433102 1.9570589
1.6142671 -3.0440063 1.9754547
1.6180484 -3.0488145 1.9609538
1.6123359 -3.0307765 1.969596
1.6269326 -3.0280252 1.9661944
1.6291511 -3.0361066 1.9594485
1.6195935 -3.0343943 1.9760706
1.6251714 -3.0362201 1.9710602
1.63185 -3.0188503 1.9573431
1.6453047 -3.0211527 1.964434
1.6358304 -3.0189674 1.9570645
1.6402389 -3.0182641 1.9667735
1.6430401 -3.0180354 1.9694433
1.6513371 -3.0077724 1.9679141
1.6682731 -3.0071628 1.966893
1.6618043 -3.0085816 1.9755415
1.6685863 -3.0038016 1.9636476
1.6719873 -2.9976842 1.9676671
1.6703745 -3.0091255 1.9667895
1.6750414 -3.0113466 1.9613367
1.6867959 -3.0072727 1.9757907
1.6911777 -3.0030184 1.9686637
1.6852652 -3.0001876 1.9594747
1.7020193 -2.9932811 1.9582523
1.6972408 -2.9936571 1.9753374
1.8057302 -3.1513021 1.9107447
1.808805 -3.1596599 1.9065689
1.8199824 -3.1488249 1.9061905
1.8151758 -3.1438079 1.912045
1.8094881 -3.1383257 1.9133469
1.818344 -3.1452875 1.9163851
1.8216505 -3.1320627 1.901334
1.8378264 -3.1289425 1.9067647
1.8448098 -3.1332572 1.9167466
1.8505672 -3.1265354 1.9039917
1.8534061 -3.1297989 1.9178102
1.8495996 -3.1343989 1.9007665
1.8616136 -3.1322293 1.9120469
1.8532457 -3.1192706 1.9058278
1.8707287 -3.1164005 1.9025677
1.8695101 -3.109072 1.9098169
1.8713259 -3.1228304 1.9077553
1.8780872 -3.1048036 1.9062725
1.8902754 -3.1041799 1.9179277
1.8924419 -3.1021817 1.913751
1.8818498 -3.1017244 1.9037509
1.8850726 -3.1094496 1.9065849
1.891248 -3.0895331 1.9090165
1.9087001 -3.1023533 1.9018285
1.8999294 -3.1020558 1.9149264
1.907895 -3.0873384 1.9127626
1.923106 -3.0951633 1.9142438
1.9162517 -3.0805814 1.9111494
1.9279109 -3.078162 1.9060701
1.9312216 -3.0779233 1.9003742
1.9303519 -3.0726199 1.9125147
1.9394782 -3.0684335 1.9143032
1.9314348 -3.062408 1.9133754
1.9458191 -3.0632629 1.9169883
1.9530119 -3.0572171 1.9182537
1.9532987 -3.0675309 1.9115853
1.9514179 -3.0669549 1.914435
1.9710145 -3.0575511 1.9092034
1.9675128 -3.060802 1.9037219
1.9789282 -3.0450523 1.9158041
1.9846437 -3.0544789 1.9105084
1.9824959 -3.0390818 1.9067117
1.9821328 -3.0360272 1.9062471
1.9808379 -3.0428836 1.9022286
1.9831522 -3.0468385 1.9015505
2.0067279 -3.0347946 1.9078474
2.0036316 -3.0289152 1.9120028
2.0033808 -3.0277193 1.9028388
2.0178947 -3.0343013 1.9076948
2.0069232 -3.0337405 1.9055654
2.0080299 -3.031733 1.911268
2.0238371 -3.0161381 1.9096204
2.0358436 -3.0251675 1.9082743
2.0273817 -3.0197487 1.9173127
2.0348973 -3.0162692 1.8996313
2.0417306 -3.0134633 1.9112228
2.0348573 -2.9979992 1.9059169
2.052135 -3.0070279 1.8990239
2.060245 -3.0057805 1.9027601
2.0532072 -2.9997382 1.9042624
2.0640357 -2.9968195 1.9049715
2.0605626 -2.9823198 1.918469
2.18378 -3.137845 1.8421739
2.1775258 -3.1480899 1.8464301
2.1803055 -3.1350331 1.8513417
2.1853998 -3.139353 1.8562291
2.2020812 -3.1347528 1.8537443
2.1934524 -3.1370769 1.8593891
2.1979265 -3.1354892 1.8434336
2.2061324 -3.1251338 1.8506666
3.2067156 -4.5374432 1.3364009
3.2190912 -4.5267239 1.3353275
0.21628615 -4.969965 1.5378481
0.21452083 -4.7760339 1.5981784
0.21509139 -4.7877784 1.5871701
0.22126637 -4.5863748 1.6601547
0.20985302 -4.4030099 1.7086196
0.22690362 -4.3904028 1.7042825
0.21929264 -4.2127409 1.7701776
0.220966 -4.0228262 1.819523
0.21071617 -4.0184431 1.8287102
0.20467435 -3.8142071 1.8700476
0.21916638 -3.8188446 1.8838264
0.22199145 -3.6326504 1.9361296
0.2190104 -3.6241248 1.9398537
0.2138041 -3.4360545 1.9895899
0.21598075 -3.4285293 1.9942137
0.23007151 -3.4301007 1.9911575
0.21982481 -3.4360855 1.9938563
0.23892237 -3.4366636 1.994581
0.23081449 -3.4331026 1.999403
0.23189335 -3.431047 1.9965974
0.23775883 -3.4398417 1.9888674
0.25740257 -3.4404719 1.9954959
0.25279871 -3.4291575 1.9903632
0.25191852 -3.4369066 2.0014966
0.26422372 -3.4272854 1.9998695
0.26115218 -3.4283788 1.9963791
0.27502391 -3.4245245 1.9866054
0.27159387 -3.4263775 1.995948
0.28888804 -3.4411428 1.9885395
0.2910037 -3.4396334 1.9828678
0.29031324 -3.4370618 1.9880757
0.30189219 -3.4396498 1.9923213
0.3000991 -3.4316442 1.9875422
0.31317282 -3.4293211 1.9946682
0.31737909 -3.4394941 1.9910632
0.31995782 -3.4375403 1.9860055
0.31904557 -3.4265151 1.9844363
0.32835898 -3.4237204 2.0006416
0.32701436 -3.428431 2.0017023
0.33826062 -3.4358251 1.9838865
0.34383464 -3.4287083 1.9882495
0.35461593 -3.4348104 1.9896251
0.34964207 -3.4275031 1.9986002
0.35988846 -3.4319191 1.9894859
0.35726023 -3.416925 1.9897785
0.37102634 -3.4241478 1.9915991
0.37973401 -3.417078 1.9840117
0.36687174 -3.4254894 1.9987794
0.37021402 -3.4200394 1.9883903
0.39461628 -3.4281363 1.990154
0.38120204 -3.4154518 1.9985749
0.39215004 -3.4167778 2.000427
0.40447298 -3.4278693 1.9891133
0.40577027 -3.4135048 1.9929039
0.41795236 -3.4265587 1.9912021
0.41042638 -3.4106357 2.0017841
0.42472011 -3.4107938 1.9989359
0.43142566 -3.408602 1.9871696
0.43289819 -3.407855 2.0003402
0.42398074 -3.4074924 1.9848939
0.4368262 -3.4253297 2.0016055
0.43809164 -3.4170039 1.9964573
0.44120845 -3.4211395 1.9996778
0.45301077 -3.4087615 1.9967159
0.4486028 -3.4089839 2.0001466
0.46249211 -3.4215143 1.9989402
0.46696252 -3.4045322 1.997009
0.46858382 -3.4056249 1.996696
0.47843802 -3.4100246 1.9965498
0.48146188 -3.4081206 1.9961793
0.48903853 -3.4181492 1.9973781
0.49332571 -3.4116893 1.9863023
0.49246392 -3.406889 1.9904839
0.49482164 -3.4150615 1.98643
0.51421648 -3.4124167 2.0015335
0.51704115 -3.4006565 1.9834794
0.51865834 -3.4091983 2.0017738
0.51834339 -3.4008908 1.9983354
0.51771444 -3.4075003 1.98985
0.53693831 -3.3958561 1.9826152
0.53579068 -3.4014044 1.9846915
0.53584075 -3.4074337 1.9925607
0.54481399 -3.3990922 1.9845568
0.53796774 -3.3931594 1.9876999
0.54706663 -3.392597 1.9928007
0.55126786 -3.3939745 1.9889683
0.55741405 -3.3984985 1.9958936
0.56185365 -3.3880999 1.9904194
0.56285357 -3.4030917 1.9976221
0.57536715 -3.4036202 1.9957489
0.58064473 -3.3900559 1.9876006
0.58799756 -3.4012001 1.9926893
0.58321846 -3.3881285 1.9853792
0.59043431 -3.3866596 1.9832551
0.60079199 -3.4008472 2.0009398
0.5962494 -3.3955877 1.9964868
0.60787332 -3.3889356 1.986743
0.60642135 -3.382596 1.9866244
0.61949402 -3.3800075 1.9907337
0.61976826 -3.3896556 1.9935279
0.61816806 -3.3787751 1.9890928
0.62841821 -3.3852894 1.9927137
0.64375585 -3.3813298 1.9885995
0.65178227 -3.3748996 1.9851409
0.63768345 -3.3828564 1.9866748
0.66126806 -3.3800988 1.9926414
0.6603983 -3.3904598 1.9844271
0.66978347 -3.3870134 2.0017126
0.6590488 -3.3752344 2.0007398
0.67242223 -3.3879194 1.9892659
0.66858846 -3.3869424 1.987813
0.68031842 -3.3804512 1.9989792
0.67566794 -3.3833573 1.9932323
0.68690193 -3.382971 1.9930358
0.69467598 -3.3814158 1.9839964
0.70398265 -3.3810074 1.9968216
0.69925457 -3.366199 1.9983867
0.70631081 -3.366734 1.9824921
0.7106511 -3.3627315 1.9974638
0.71401733 -3.3700814 1.9988312
0.72590828 -3.3659904 2.0002499
0.73634487 -3.374893 1.9872271
0.73794621 -3.3731682 1.9903591
0.73379928 -3.3649306 1.9929318
0.74945444 -3.3736389 1.9961073
0.75606877 -3.3577588 1.9987324
0.75550699 -3.3713236 1.9952005
0.75650883 -3.3625481 1.9901614
0.7616145 -3.3541465 1.9881464
0.76169056 -3.3670919 1.9977959
0.76313239 -3.3528576 1.9905449
0.76599145 -3.3528972 1.9933929
0.77582622 -3.3560441 1.9969604
0.78879154 -3.3480453 1.987754
0.7843281 -3.3490975 1.9888211
0.80303872 -3.3482399 1.9847438
0.80437279 -3.3526473 1.9860702
0.80217338 -3.3607543 1.9951341
0.81493336 -3.3484559 1.9915551
0.80567682 -3.3407805 1.9939798
0.82606828 -3.3563602 1.9895811
0.81920713 -3.3537769 1.9840786
0.83519232 -3.3460531 1.9943585
0.8347435 -3.3500569 1.9915599
0.84508657 -3.3432155 1.9866251
0.83649528 -3.3423533 2.0014577
0.84382492 -3.3448453 1.9907858
0.85247934 -3.3342235 1.9909034
0.85019606 -3.3355267 1.9822092
0.86433214 -3.3307705 2.0000739
0.86089134 -3.3303046 2.0012357
0.87305015 -3.3413806 1.983851
0.87970483 -3.3411503 1.9930537
0.8766377 -3.3260462 1.9971099
0.89077014 -3.3252747 1.9868581
0.8799662 -3.3377688 1.9963127
0.88399297 -3.3276057 1.9821129
0.89734632 -3.3334591 1.9973661
0.91081548 -3.3262653 1.9901403
0.89558876 -3.3296027 1.9864889
0.91822499 -3.3210471 1.9821148
0.92202121 -3.3249969 1.9854696
0.92843091 -3.3269548 1.9878532
0.92404163 -3.3166409 1.9841328
0.92370665 -3.3168538 1.9999691
0.93311822 -3.3125281 2.0020902
0.93198258 -3.3088315 1.9931469
0.93664533 -3.3164358 1.997116
0.9565593 -3.3152235 1.9870383
0.94924575 -3.3138883 1.992376
0.95827901 -3.3145661 1.9850155
0.96293622 -3.3160949 1.9924451
0.97094649 -3.3158593 1.9966502
0.9613384 -3.3046567 1.9898962
0.96800804 -3.2984312 2.0016496
0.97051221 -3.3074341 1.9964427
0.97513562 -3.3022108 1.9936396
0.99081373 -3.2969615 2.0019331
0.99045902 -3.2964327 1.9901334
1.0000247 -3.3078506 1.9983566
0.9949261 -3.2948661 1.9845836
1.0024651 -3.3018537 1.9879569
1.0174319 -3.2854581 1.9902341
1.0166017 -3.2832963 1.982376
1.0290155 -3.2990885 1.9993991
1.0331808 -3.296998 1.9860684
1.0321373 -3.2949042 1.9966035
1.0282885 -3.2817502 1.9910243
1.0327312 -3.2935669 1.9846035
1.0453724 -3.280432 1.9853883
1.0462346 -3.2770081 1.9977744
1.0533218 -3.2906551 2.0017834
1.0637803 -3.2739439 2.0007915
1.056514 -3.2826693 2.0005593
1.0613875 -3.2835851 1.983126
1.063282 -3.2849381 1.9863676
1.0718439 -3.2719352 1.9902813
1.0909387 -3.2673798 1.9859209
1.0844523 -3.2629778 1.988309
1.091543 -3.2705293 1.982391
1.0994163 -3.261811 1.9984494
1.0996735 -3.2705958 1.9994068
1.1039375 -3.2735107 1.9956151
1.1072078 -3.2682781 2.0016313
1.1102437 -3.2627566 1.9852585
1.115844 -3.2599227 1.986053
1.1246839 -3.2531071 1.9983644
1.1174352 -3.251775 1.9937391
1.125824 -3.2615051 1.9920169
1.1365987 -3.2487187 2.0012379
1.1414531 -3.2526307 1.9976659
1.1423638 -3.2608554 1.9837909
1.1442297 -3.2493834 1.9854767
1.1623015 -3.2392068 1.9908643
1.1663876 -3.2505574 2.0002365
1.1540984 -3.240869 1.990899
1.1626015 -3.2468998 1.9868271
1.1634139 -3.2447362 1.9825312
1.1795986 -3.2387385 1.9869425
1.1740588 -3.2465186 1.9825712
1.1777378 -3.2339945 1.9927126
1.1978425 -3.2251079 1.9930476
1.2040697 -3.2389014 1.9832666
1.1919806 -3.2391665 2.0020678
1.2052767 -3.2398872 1.9879174
1.2079426 -3.2374365 2.0018485
1.2212688 -3.2310195 1.9881352
1.2105206 -3.2283249 1.9949658
1.2154744 -3.2139781 1.986168
1.2248369 -3.229701 1.9879576
1.2298259 -3.2262731 2.0006325
1.2449538 -3.2272661 2.0005488
1.2404144 -3.2065551 1.9850203
1.2460915 -3.2224543 1.9875686
1.2505674 -3.2095761 1.9877322
1.2608907 -3.2185483 1.9886762
1.2651424 -3.2187085 1.9943603
1.2556785 -3.2141285 2.0010562
1.2730427 -3.2091043 2.0004096
1.2816067 -3.1992242 1.9823442
1.2719579 -3.2088602 1.9860048
1.2749814 -3.2078702 1.9869642
1.2779188 -3.1959195 1.9869201
1.2853252 -3.2027893 1.9892559
1.2952775 -3.189678 1.9827428
1.3053907 -3.1907363 1.9855241
1.2964454 -3.1920331 1.9864054
1.3131819 -3.1872814 1.9901208
1.3166116 -3.189651 1.9971082
1.3193921 -3.1879396 1.9922171
1.3241047 -3.1803575 1.9959254
1.3324754 -3.1742296 1.9988526
1.321803 -3.18964 1.9919533
1.3310839 -3.1821172 1.9964005
1.342698 -3.1691127 1.9921693
1.3477964 -3.1704628 1.9850836
1.3556734 -3.1652236 1.994899
1.3444293 -3.1677113 1.9876574
1.3568977 -3.1712296 1.9962314
1.3563511 -3.1764255 1.9846959
1.3709108 -3.1613638 1.9989154
1.369176 -3.1623847 1.997429
1.370366 -3.1585281 1.9986926
1.3846537 -3.1698387 1.9856333
1.3833861 -3.15398 1.9837264
1.3778845 -3.1574655 1.9986109
1.3852947 -3.1575141 1.9968699
1.4025176 -3.153244 1.9907707
1.3924961 -3.1409404 1.9992762
1.411046 -3.1536155 2.0007026
1.4180577 -3.1561604 1.9953012
1.419286 -3.1448669 1.9869835
1.4190253 -3.1368079 2.0006206
1.4200255 -3.1388826 2.0010393
1.4279635 -3.1466436 1.9954027
1.4339918 -3.1443226 1.9843601
1.4349018 -3.1390052 1.9913427
1.4340682 -3.1408756 2.0006626
1.4471326 -3.1371756 2.0003474
1.4486995 -3.1193311 1.985412
1.4516902 -3.1188776 1.9859806
1.4492767 -3.1215959 1.9958855
1.4585426 -3.1289723 1.9918861
1.4614427 -3.1197429 1.9838425
1.4647588 -3.1269674 1.9860619
1.4824353 -3.1125526 1.9886205
1.4890665 -3.121614 1.9945089
1.4826773 -3.1158924 1.9965327
1.4856051 -3.1014872 2.0002563
1.4882149 -3.1098931 1.9998181
1.4958863 -3.0996833 1.9978207
1.5041236 -3.0962594 1.9910865
1.5022627 -3.107939 1.9949512
1.5163996 -3.1010852 1.9860146
1.5224899 -3.095279 1.9878166
1.5107968 -3.0961573 2.0019903
1.5216594 -3.0947626 1.9850537
1.5184072 -3.0841122 1.9917833
1.537176 -3.0948865 1.9908568
1.5396655 -3.0874007 1.9994571
1.5417136 -3.0765898 1.9961938
1.5417614 -3.0818856 1.9942749
1.5550721 -3.0733829 1.9985908
1.5522444 -3.0750813 1.987669
1.5604773 -3.0750244 2.0004554
1.570509 -3.0709927 1.99026
1.5747114 -3.0804276 1.9993494
1.5619743 -3.0774407 1.9969732
1.5759636 -3.0600083 2.0017006
1.5890234 -3.0644069 1.9917862
1.5906804 -3.0710745 1.9905485
1.589071 -3.0620084 2.0018752
1.5855397 -3.0639431 1.9995581
1.6063212 -3.0530138 1.9933908
1.5961777 -3.0581572 1.9851222
1.5988177 -3.0575709 1.9987211
1.6112591 -3.0570815 2.000715
1.6127867 -3.0536256 1.9835197
1.6119349 -3.0404735 2.0015745
1.6158077 -3.038552 1.9930427
1.6297628 -3.0392604 1.9956492
1.6224771 -3.0458622 1.9851215
1.6265147 -3.0402765 1.9904529
1.6482321 -3.038187 1.9845015
1.6437792 -3.0305159 1.9911886
1.6510543 -3.0244765 1.9962381
1.6519252 -3.0302644 1.9995469
1.6547869 -3.0187902 1.9840755
1.66045 -3.0324302 1.9995142
1.6641647 -3.0264568 1.9946266
1.6593444 -3.0107841 1.9867766
1.6771274 -3.0066504 1.990065
1.6843793 -3.0227287 1.9966733
1.6769595 -3.0213363 1.9830993
1.6835849 -3.0086403 1.9949188
1.6968944 -3.0129094 1.9904941
1.6952499 -3.0005445 1.997992
1.696911 -3.009552 1.9946687
1.7030973 -2.9971273 1.995404
1.7047192 -3.0052152 1.9998057
1.70145 -3.0023477 1.9975667
1.7103276 -2.9859183 1.9971424
1.7224902 -2.9864545 1.9983149
1.8164546 -3.1451776 1.9419985
1.8218774 -3.1548011 1.9325918
1.8191161 -3.155323 1.9365734
1.8319266 -3.1416938 1.9305712
1.8322314 -3.1506047 1.933207
1.8492093 -3.1375272 1.9259075
1.8469189 -3.1470225 1.9281538
1.8490267 -3.1439781 1.9308957
1.8488919 -3.1362443 1.9276891
1.8683292 -3.1405325 1.9415625
1.8689352 -3.1302342 1.9408755
1.8697718 -3.1189239 1.9280363
1.8811982 -3.1147816 1.9321407
1.8766023 -3.1222322 1.9273334
1.8860006 -3.1137781 1.9310682
1.8780311 -3.1127422 1.9453274
1.8827585 -3.1183894 1.9275321
1.8897285 -3.1063178 1.9302157
1.8994367 -3.0987668 1.9380618
1.9059347 -3.0961604 1.9390421
1.9063023 -3.0973263 1.9277368
1.9059793 -3.1020305 1.9451519
1.9128134 -3.0996795 1.9441133
1.9237481 -3.0862916 1.9330218
1.9298719 -3.0878694 1.9277763
1.9197267 -3.0817771 1.9409524
1.9238369 -3.0953138 1.9258609
1.9301482 -3.0862336 1.9402144
1.9391394 -3.0717945 1.9394863
1.9359727 -3.0752029 1.9387258
1.9537827 -3.0825858 1.9341547
1.9602834 -3.0746298 1.9422288
1.9641955 -3.0641742 1.9299971
1.9670652 -3.0671148 1.9284902
1.9588395 -3.0682585 1.9427364
1.9653647 -3.0638711 1.9404
1.985062 -3.0596929 1.9418458
1.9896642 -3.0535195 1.9296846
1.9886159 -3.0626669 1.9292694
1.9868356 -3.0592895 1.9427466
1.984291 -3.0424068 1.9261358
1.9971715 -3.0433242 1.9347697
1.9981222 -3.0446265 1.9311421
2.0068371 -3.0473523 1.9418507
2.0140414 -3.0425932 1.9286861
2.0154879 -3.0355949 1.937174
2.0145943 -3.033181 1.9270986
2.0151424 -3.030443 1.9404497
2.0235255 -3.0330274 1.9419
2.0314896 -3.0216625 1.9439685
2.0329268 -3.0171084 1.9401548
2.0377493 -3.0239367 1.9326526
2.0512018 -3.0140731 1.941071
2.0410225 -3.0197494 1.9439806
2.061548 -3.0024724 1.9288603
2.0489049 -3.0079958 1.9379435
2.0647457 -2.9986563 1.9266398
2.070507 -2.9930079 1.9352674
2.0696156 -3.0032117 1.9384979
2.0701704 -2.9896832 1.9302748
2.0727897 -2.9989448 1.9437811
2.1806111 -3.1454577 1.8710784
2.1921265 -3.1447353 1.8819532
2.1920564 -3.1384072 1.8843098
2.1948915 -3.1357653 1.8810952
2.2026019 -3.1299736 1.869503
0.21866181 -4.9854503 1.5797791
0.20470449 -4.7859006 1.6277871
0.20812893 -4.7975397 1.6312704
0.21048117 -4.6076016 1.6799481
0.20997769 -4.4078822 1.7367035
0.20719622 -4.2105947 1.7877352
0.21818341 -4.207397 1.7993582
0.20266208 -4.0255966 1.8498167
0.21424375 -4.0253472 1.8571475
0.21159762 -3.8334391 1.9052191
0.22770286 -3.8361285 1.9141163
0.21595609 -3.6397684 1.9653447
0.22750649 -3.6386445 1.969502
0.22253983 -3.6333055 1.9712473
0.23110348 -3.6460702 1.9603765
0.24127539 -3.6386802 1.9544741
0.24733172 -3.6261942 1.9714859
0.24501057 -3.6254883 1.9580008
0.25800052 -3.638823 1.9644786
0.25832087 -3.6302574 1.9705929
0.25156546 -3.6309402 1.9537302
0.27370673 -3.6380184 1.9609839
0.271929 -3.6386309 1.9690739
0.27430815 -3.6292942 1.9622083
0.27843213 -3.6364779 1.9622761
0.29168472 -3.6385734 1.9694251
0.29903433 -3.6396954 1.968744
0.30339518 -3.6282213 1.968446
0.29427043 -3.6288395 1.954483
0.31162298 -3.6342189 1.9687485
0.31508917 -3.6314349 1.9619867
0.32169214 -3.6315906 1.9677954
0.31554818 -3.6386042 1.9526329
0.31749362 -3.6283181 1.9664414
0.33257276 -3.6189876 1.9526932
0.32771912 -3.6214831 1.9564698
0.35001385 -3.621707 1.9587373
0.35162693 -3.6226478 1.9720846
0.3529413 -3.6177905 1.9644129
0.36029205 -3.6206572 1.9709533
0.36190751 -3.6251335 1.9598624
0.35676059 -3.628082 1.9681934
0.37742162 -3.6222496 1.9690813
0.38291952 -3.6195457 1.9598182
0.3822251 -3.6268363 1.9594423
0.38778177 -3.6240532 1.9561199
0.39711428 -3.624048 1.9721154
0.38871351 -3.627501 1.9667052
0.3936595 -3.6147108 1.9656801
0.41093293 -3.6196404 1.9613093
0.41474608 -3.6280239 1.9719758
0.40746742 -3.6266232 1.9592001
0.42851895 -3.6096299 1.9717566
0.43045756 -3.6122062 1.9665093
0.42313242 -3.620544 1.953457
0.43543041 -3.608391 1.9626657
0.44440514 -3.6119709 1.971351
0.44937465 -3.6090164 1.9560472
0.44893301 -3.6061797 1.9529907
0.44746548 -3.6111326 1.9644547
0.46162623 -3.6173351 1.9669778
0.46645257 -3.6158774 1.9703375
0.47850239 -3.6184292 1.9701191
0.48310781 -3.6041024 1.966746
0.48246509 -3.60216 1.9544498
0.48876899 -3.6129777 1.953714
0.48428071 -3.6198785 1.9687986
0.48847681 -3.6068664 1.9662312
0.49736816 -3.5993516 1.9658866
0.50320196 -3.6183596 1.9599683
0.52049881 -3.6082609 1.9672198
0.52031791 -3.5983889 1.9552938
0.52349567 -3.6015196 1.9601741
0.52645403 -3.6050961 1.9587321
0.52603829 -3.6143661 1.9585766
0.53332531 -3.6023817 1.9669399
0.53987551 -3.5999343 1.9677323
0.54150927 -3.5983386 1.9608595
0.56057453 -3.5928981 1.9608171
0.55929422 -3.6066699 1.9610753
0.5720945 -3.6081896 1.9707339
0.57214516 -3.5949342 1.9695588
0.5802688 -3.6035438 1.9645405
0.57327163 -3.5942371 1.9552259
0.58483136 -3.5903869 1.9559147
0.59623438 -3.6042895 1.9678543
0.59599966 -3.5966809 1.9615003
0.59655625 -3.5924764 1.9559944
0.61023891 -3.5942433 1.9551739
0.6038779 -3.6023262 1.9598198
0.61777401 -3.5826435 1.962177
0.62132746 -3.5879438 1.9570137
0.62370467 -3.5901527 1.9624578
0.6210624 -3.5843904 1.9564185
0.62910432 -3.5920985 1.9534323
0.63783383 -3.5934327 1.9557394
0.63850158 -3.5800297 1.9648439
0.65281421 -3.5910969 1.9573348
0.66161966 -3.5935073 1.9672335
0.64960337 -3.5873034 1.9682171
0.66223168 -3.5922267 1.9680442
0.67721599 -3.5786188 1.9617248
0.66703576 -3.5876546 1.952343
0.68229824 -3.5843527 1.9678633
0.69152015 -3.5780277 1.9548082
0.69775462 -3.5879905 1.9595445
0.68629473 -3.5823019 1.9568025
0.70393801 -3.5673153 1.9621048
0.69407076 -3.5685375 1.9641013
0.71410096 -3.5667882 1.9713994
0.7151134 -3.5774219 1.9528648
0.71595156 -3.5780811 1.9670217
0.73046887 -3.5739295 1.9712193
0.73560303 -3.5795226 1.9577882
0.73625612 -3.5609 1.9697449
0.74385267 -3.5610476 1.9707944
0.73618418 -3.5776587 1.9565811
0.74577224 -3.5616286 1.9563959
0.76066113 -3.5604665 1.9540232
0.75754505 -3.5642736 1.9524274
0.76172566 -3.5720663 1.9592185
0.76737022 -3.5640175 1.9643638
0.76717019 -3.5664468 1.9526676
0.77116621 -3.5687361 1.9543779
0.7817297 -3.5553646 1.9537034
0.78424835 -3.5593877 1.971867
0.78781497 -3.5560689 1.9523983
0.79716688 -3.5481503 1.9679314
0.80633187 -3.5503299 1.9635915
0.81312269 -3.5606108 1.9544022
0.8183161 -3.5516951 1.9563711
0.81029904 -3.5421171 1.9653325
0.82742584 -3.5577204 1.9708015
0.83285481 -3.554307 1.9529114
0.8399924 -3.5453081 1.9673157
0.84645391 -3.5387671 1.9566128
0.85107744 -3.5536346 1.9681379
0.85623062 -3.5441234 1.9664835
0.8569153 -3.5504193 1.9615446
0.85325837 -3.5348947 1.9652132
0.86041057 -3.5391455 1.9566787
0.86953002 -3.5363805 1.9565965
0.86760914 -3.5414546 1.9597784
0.87115562 -3.5460637 1.965234
0.87681019 -3.5284979 1.958542
0.89686739 -3.5294313 1.9572375
0.8862201 -3.5307004 1.9599053
0.90709603 -3.5317743 1.9709167
0.90631586 -3.5371192 1.9544581
0.90059513 -3.5310755 1.952343
0.91854125 -3.5228324 1.9647889
0.90795112 -3.530421 1.9588047
0.91727698 -3.5248797 1.9665445
0.92978293 -3.5207398 1.9684663
0.92774272 -3.5158913 1.9667382
0.93900871 -3.5159299 1.962854
0.94896835 -3.5315588 1.9564711
0.94159395 -3.5112522 1.9677777
0.94522917 -3.516665 1.9524961
0.95240396 -3.5127361 1.9620076
0.95746177 -3.5157969 1.9585052
0.97496361 -3.5143816 1.96615
0.96647942 -3.5085726 1.958065
0.98573321 -3.515188 1.952842
0.98690689 -3.5087724 1.9711826
0.9863506 -3.5160174 1.9681928
0.9819082 -3.5182278 1.9682759
0.99108088 -3.5127358 1.9673599
1.0115584 -3.5085301 1.9597187
0.99675226 -3.502069 1.9546871
1.0114558 -3.4954679 1.9652689
1.0226549 -3.4962807 1.9559327
1.0214968 -3.4904916 1.9710659
1.0322517 -3.4903607 1.9582367
1.0377817 -3.4939666 1.9704696
1.0416503 -3.503037 1.9540969
1.0425271 -3.5014563 1.9541466
1.0434849 -3.4956074 1.9583139
1.0435249 -3.4941835 1.965306
1.0559216 -3.4924664 1.9573714
1.0632846 -3.4809444 1.9546431
1.0612273 -3.4831202 1.9697005
1.0698318 -3.491349 1.9691385
1.0735674 -3.4937155 1.967292
1.0844717 -3.4754429 1.9604174
1.0876069 -3.4781907 1.9630436
1.0943674 -3.4849486 1.9658146
