# .PCD v0.7 - Point Cloud Data file format
VERSION 0.7
FIELDS x y z
SIZE 4 4 4
TYPE F F F
COUNT 1 1 1
WIDTH 1517
HEIGHT 1
VIEWPOINT 0 0 0 1 0 0 0
POINTS 1517
DATA ascii
-3.9678915 -3.5051529 1.990163
-3.9525428 -3.510581 1.9854612
-3.9607539 -3.5060735 1.97804
-3.9489369 -3.5131204 1.9864284
-3.9452293 -3.5291948 1.9717484
-3.9485469 -3.5318673 1.9823457
-3.9337285 -3.5342746 1.9847648
-3.9343076 -3.5338519 1.985655
-3.9280722 -3.5464027 1.9781961
-3.924171 -3.5401683 1.9743867
-3.9236627 -3.5591559 1.9772557
-3.9199169 -3.5676899 1.9802426
-3.9008653 -3.5693376 1.9732758
-3.9092274 -3.5640786 1.9847941
-3.8891935 -3.58003 1.985763
-3.8838317 -3.5842249 1.9895777
-3.8878653 -3.5785348 1.9764963
-3.889472 -3.5983648 1.9893423
-3.8701811 -3.5969083 1.975135
-3.8783414 -3.5965071 1.9726527
-3.8703036 -3.6005616 1.9766663
-3.8593893 -3.6058421 1.9776227
-3.8454804 -3.6170506 1.9824014
-3.858531 -3.621608 1.9779017
-3.8400555 -3.6311262 1.9829063
-3.8406038 -3.6402848 1.9891649
-3.8373299 -3.6384869 1.9865555
-3.8271298 -3.6433129 1.9895507
-3.8240762 -3.6538732 1.9794303
-3.8152225 -3.6576262 1.9751321
-3.8088436 -3.6583815 1.972193
-3.8184438 -3.67327 1.9893801
-3.8070798 -3.6793048 1.9807583
-3.7909298 -3.6834528 1.9729717
-3.7992723 -3.6741958 1.9810524
-3.7826025 -3.6905646 1.9853528
-3.7796669 -3.6887445 1.9768225
-3.7793334 -3.7018173 1.9888301
-3.7759969 -3.6969366 1.9756347
-3.7627735 -3.7083097 1.9840361
-3.7538412 -3.7184191 1.9770249
-3.7478404 -3.7232509 1.9804609
-3.7446454 -3.721849 1.9831902
-3.7500648 -3.7294343 1.9870927
-3.7432635 -3.7305069 1.9855666
-3.728374 -3.740062 1.9729785
-3.729177 -3.7518408 1.9875098
-3.718503 -3.7484531 1.974261
-3.7158139 -3.7469034 1.9911782
-3.7063131 -3.7573123 1.9820001
-3.7084038 -3.7639778 1.9879835
-3.6974981 -3.7698388 1.9743983
-3.7031496 -3.7777085 1.9874713
-3.6860642 -3.7762086 1.9782078
-3.6850691 -3.7931259 1.9731134
-3.6855929 -3.8003793 1.9836981
-3.6786978 -3.7936685 1.9877309
-3.677264 -3.8015242 1.9803711
-3.6690719 -3.8119383 1.9797733
-3.6639555 -3.8181064 1.9739716
-3.64801 -3.8116274 1.9867023
-3.6460738 -3.8195119 1.9787621
-3.6377158 -3.8383241 1.9881351
-3.6362777 -3.8253348 1.9841834
-3.6440959 -3.8366416 1.9884827
-3.6370015 -3.85377 1.9906894
-3.6193151 -3.849309 1.9847599
-3.617589 -3.8487265 1.9761208
-3.6232157 -3.8652718 1.9822061
-3.6094329 -3.8620272 1.987254
-3.601445 -3.8681712 1.9839048
-3.6007192 -3.8777204 1.9777873
-3.5879266 -3.8842597 1.9779658
-3.5857539 -3.8747163 1.9762349
-3.5875258 -3.8983536 1.988291
-3.5849917 -3.9002659 1.9883045
-3.5802438 -3.8898687 1.9778579
-3.5614183 -3.9031291 1.9730648
-3.5512249 -3.9074068 1.9767901
-3.5549393 -3.9232998 1.9888159
-3.5535989 -3.9166098 1.9797462
-3.5356007 -3.9146056 1.9861683
-3.5437133 -3.9252281 1.9910843
-3.5316401 -3.9391038 1.9905697
-3.5212913 -3.9401846 1.9714359
-3.5188792 -3.9441712 1.9754003
-3.5164468 -3.9488566 1.9747649
-3.5044541 -3.9601707 1.9858645
-3.4972477 -3.9667521 1.977674
-3.5063093 -3.9625161 1.9785706
-3.5033381 -3.962414 1.9911296
-3.4894297 -3.9697957 1.9906576
-3.4890926 -3.9707785 1.9845201
-3.4838324 -3.9851837 1.9894563
-3.4790802 -3.9947424 1.9782534
-3.473455 -3.9873984 1.9879981
-3.4638586 -4.0031381 1.9779835
-3.4548907 -4.0124083 1.9815736
-3.4548166 -4.0000019 1.983493
-3.4429262 -4.0021939 1.9745517
-3.4301326 -4.026958 1.9906077
-3.4247732 -4.0233645 1.9841697
-3.419879 -4.024991 1.9816289
-3.4211156 -4.0269208 1.9895549
-3.4174094 -4.0296698 1.9727864
-3.4048996 -4.0323706 1.9882187
-3.4026382 -4.0510597 1.9727597
-3.3903847 -4.0463719 1.9728715
-3.3945346 -4.0472083 1.9902227
-3.3767583 -4.0617585 1.9902073
-3.3879168 -4.0691261 1.990245
-3.3830128 -4.0767527 1.978686
-3.3645401 -4.0651097 1.9903023
-3.3686016 -4.0803347 1.9847822
-3.3647306 -4.0774918 1.9812994
-3.3576212 -4.0877833 1.9798936
-3.3550735 -4.1014647 1.984569
-3.3479779 -4.088551 1.9786942
-3.3407638 -4.1054521 1.9767379
-3.3361924 -4.1102481 1.9849775
-3.3316295 -4.1118803 1.9905878
-3.3270226 -4.1142931 1.9733024
-3.3139682 -4.1239243 1.9723824
-3.3092911 -4.1233144 1.9809521
-3.3101275 -4.1245379 1.9770715
-3.2944403 -4.1443629 1.9875979
-3.2801526 -4.1473575 1.9891334
-3.2811828 -4.1489801 1.9882652
-3.2680814 -4.1491194 1.9751706
-3.2769303 -4.150424 1.9819469
-3.2575328 -4.1529093 1.9717494
-3.2525187 -4.1565375 1.9837898
-3.2447836 -4.1728678 1.9908417
-3.2579622 -4.1702838 1.983138
-3.2425647 -4.1743054 1.9788371
-3.2310414 -4.188416 1.9793297
-3.2289853 -4.1940203 1.981438
-3.2253876 -4.1864438 1.9865259
-3.222652 -4.1915612 1.9760685
-3.2130041 -4.1913285 1.9888924
-3.2165742 -4.1975064 1.983809
-3.2103353 -4.2044845 1.9796671
-3.1920495 -4.2095475 1.9837565
-3.1867058 -4.2136164 1.9749835
-3.1890595 -4.2281213 1.986734
-3.1757081 -4.2169418 1.9889115
-3.1818576 -4.2295527 1.9900134
-3.1658926 -4.2244177 1.9832125
-3.1648335 -4.2424059 1.975807
-3.1542258 -4.2366109 1.9731383
-3.1507878 -4.2402573 1.9887881
-3.1324272 -4.2435417 1.9819481
-3.1382024 -4.2544241 1.9745246
-3.1398818 -4.2658525 1.9875038
-3.1303284 -4.2655311 1.9904417
-3.1090183 -4.27776 1.9890139
-3.1055245 -4.2820473 1.9794222
-3.1009228 -4.2762837 1.9794039
-3.103116 -4.2753825 1.9858277
-3.0927088 -4.2898006 1.9824685
-3.0849638 -4.2867136 1.9798769
-3.0815632 -4.2912059 1.9784062
-3.0849965 -4.3074183 1.9904501
-3.0758474 -4.3112617 1.9754542
-3.0737131 -4.3115096 1.9851604
-3.0486348 -4.3164115 1.9870096
-3.0449781 -4.3237891 1.9889356
-3.0509074 -4.312541 1.9809802
-3.0368493 -4.3294683 1.9782733
-3.036361 -4.3219767 1.985487
-3.0192261 -4.3327336 1.9801179
-3.024677 -4.3460908 1.9745787
-3.0115926 -4.348887 1.9771407
-3.0064583 -4.3485465 1.9801641
-2.9963143 -4.3520899 1.9872361
-2.9964578 -4.3565788 1.973695
-2.9947464 -4.3634415 1.9770561
-2.9911034 -4.3622699 1.9759365
-2.9754097 -4.3730817 1.9821526
-2.9824173 -4.3694539 1.9801153
-2.9622052 -4.3747444 1.9715667
-2.9673564 -4.3715463 1.9738988
-2.9580412 -4.3813291 1.9776638
-2.9461582 -4.3920498 1.98599
-2.9512458 -4.3987036 1.9749851
-2.9292557 -4.3915844 1.9836949
-2.9208009 -4.408843 1.9897369
-2.9289794 -4.4085536 1.9811373
-2.9182718 -4.4186716 1.9859039
-2.9213424 -4.4219041 1.9784682
-2.9064445 -4.411037 1.9899025
-2.9000895 -4.4114394 1.9886878
-2.8913968 -4.4286504 1.9818339
-2.8789334 -4.4201083 1.988395
-2.8781383 -4.44279 1.9724292
-2.8683422 -4.4296227 1.9877006
-2.8698308 -4.4341478 1.9898229
-2.865272 -4.4530044 1.9763354
-2.8493071 -4.4473114 1.9768224
-2.8485699 -4.4508538 1.978161
-2.8352628 -4.4656682 1.9744418
-2.8305159 -4.4603033 1.9743868
-2.8269782 -4.4724269 1.9811785
-2.8302889 -4.4782743 1.9805615
-2.8270328 -4.4695191 1.9813036
-2.8197372 -4.4771657 1.9792448
-2.7971647 -4.4725051 1.9766843
-2.7924643 -4.4894953 1.9792819
-2.8012459 -4.4967351 1.971578
-2.789535 -4.4894586 1.9843292
-2.7764802 -4.4951015 1.9862545
-2.767139 -4.5022287 1.9775245
-2.7778473 -4.5120559 1.9806418
-2.7617588 -4.5114365 1.9818742
-2.7462816 -4.5138097 1.9758155
-2.7500572 -4.5151405 1.9860548
-2.7358859 -4.5201583 1.9848907
-2.7442698 -4.5267406 1.9906642
-2.7300508 -4.5283747 1.9731163
-2.7235303 -4.5245738 1.9867548
-2.7242534 -4.5339994 1.9786515
-2.7030456 -4.54037 1.9873132
-2.7105629 -4.5437417 1.990031
-2.6949573 -4.5373216 1.9772431
-2.6981142 -4.5417275 1.985948
-2.6873245 -4.5562172 1.9771789
-2.6862903 -4.562849 1.9872403
-2.6664147 -4.5641837 1.9745587
-2.6607604 -4.5576239 1.9840735
-2.6526489 -4.5708733 1.9812111
-2.6508939 -4.5711808 1.972736
-2.6572368 -4.5766206 1.9816941
-2.6349127 -4.5759234 1.991076
-2.6298659 -4.5859714 1.990664
-2.6376019 -4.5855327 1.9896235
-2.6166275 -4.6006651 1.977862
-2.6244173 -4.6011305 1.983228
-2.6021404 -4.6080918 1.9910098
-2.61254 -4.5957761 1.9890933
-2.5934198 -4.6017313 1.9776603
-2.597157 -4.612319 1.9896439
-2.5893643 -4.6156421 1.9799025
-2.5726082 -4.6230392 1.9745644
-2.5664654 -4.6117926 1.9828755
-2.5607293 -4.6146898 1.9753135
-2.5560288 -4.6230264 1.9762982
-2.5430849 -4.6255713 1.9804878
-2.54477 -4.6322622 1.9813772
-2.5386682 -4.6357822 1.9782345
-2.5344779 -4.646615 1.9727798
-2.5217156 -4.6476245 1.9803716
-2.5169649 -4.6472845 1.9882655
-2.5019507 -4.6566381 1.9723784
-2.5122695 -4.6663022 1.9913453
-2.4942725 -4.6566892 1.9910131
-2.4838324 -4.6688399 1.9859334
-2.492403 -4.6745157 1.9818895
-2.476779 -4.6683507 1.9747251
-2.4802606 -4.6825624 1.9876032
-2.4668801 -4.6790681 1.9732009
-2.4589496 -4.6893005 1.9813334
-2.4434223 -4.6812754 1.9733404
-2.4399965 -4.6847353 1.9795198
-2.4324532 -4.6850176 1.9795517
-2.4259379 -4.6938114 1.9727038
-2.4197502 -4.6986785 1.9772037
-2.4186373 -4.6986341 1.9795172
-2.4215639 -4.7094889 1.9714761
-2.4116497 -4.7103539 1.9726942
-2.4088531 -4.7043705 1.9808687
-2.4004538 -4.7169948 1.9822637
-2.3839173 -4.720634 1.975127
-2.3753693 -4.7273951 1.9879651
-2.3806372 -4.7331643 1.9839464
-2.3658686 -4.7189751 1.9745502
-2.3579433 -4.7251596 1.983694
-2.3455133 -4.7367978 1.9762797
-2.3507652 -4.7379336 1.9813992
-2.3440537 -4.7357311 1.9890335
-2.3361197 -4.7373118 1.9860212
-2.3200064 -4.7570791 1.9737457
-2.3224936 -4.7468996 1.9811828
-2.3121128 -4.7547665 1.9852017
-2.3088896 -4.7545004 1.9867848
-2.3096805 -4.7660694 1.9858811
-2.2998629 -4.7563214 1.9821076
-2.2808974 -4.760757 1.9900017
-2.2893414 -4.7770619 1.9800565
-2.2726617 -4.7732773 1.9756011
-2.268343 -4.7681856 1.9728427
-2.2670324 -4.773612 1.9735858
-2.2579925 -4.7881613 1.9877681
-2.2415113 -4.7789707 1.9773334
-2.2410069 -4.7932014 1.9904056
-2.2389147 -4.7948728 1.9751402
-2.2177222 -4.7933803 1.9728448
-2.2202985 -4.7995811 1.9893272
-2.2149765 -4.8008885 1.9727083
-2.1995955 -4.8121839 1.9830681
-2.2086654 -4.8058324 1.9817046
-2.2004895 -4.8048463 1.9780905
-2.1915662 -4.8215013 1.9830931
-2.1884563 -4.8083601 1.9804436
-2.1757767 -4.8214045 1.9867107
-2.1700208 -4.8190503 1.9744449
-2.1595261 -4.8222017 1.9868001
-2.1513224 -4.8346319 1.9760743
-2.1466322 -4.8284473 1.9871511
-2.1385565 -4.8335934 1.9900335
-2.1401169 -4.8345242 1.9823588
-2.1230366 -4.8339996 1.9787519
-2.1295664 -4.8512754 1.9815625
-2.1110895 -4.8521705 1.9805773
-2.1152577 -4.8471184 1.9896019
-2.0931549 -4.8630471 1.984025
-2.0833137 -4.8552227 1.9783316
-2.0811133 -4.8659401 1.9832332
-2.0696344 -4.8587165 1.9773355
-2.0670745 -4.8701715 1.9892986
-2.0616286 -4.869945 1.9833277
-2.063853 -4.8794007 1.9808694
-2.0496805 -4.8821521 1.9841132
-2.0526931 -4.8731971 1.9894311
-2.0366871 -4.8751855 1.9827604
-2.0316525 -4.8818493 1.9831107
-2.0321908 -4.8854551 1.9742258
-2.0184186 -4.8936472 1.9775544
-2.0197408 -4.8971519 1.991028
-2.0069568 -4.884892 1.9759585
-2.0022058 -4.8939848 1.9840177
-1.9834216 -4.8921056 1.9855145
14.121337 -0.98398525 0.26223171
14.11063 -0.96146339 0.26551932
14.108072 -0.93653643 0.26371792
14.123117 -0.92117602 0.2768988
14.111899 -0.90570581 0.2626116
14.117767 -0.88518977 0.25985819
14.123846 -0.86243671 0.27191365
14.126191 -0.84424597 0.26745176
14.122202 -0.8164801 0.26170406
14.125697 -0.80596447 0.27600512
14.117347 -0.78665125 0.26070562
14.123613 -0.75940996 0.26823786
14.133141 -0.73606402 0.26100507
14.120839 -0.71898246 0.26943886
14.121691 -0.69440204 0.27364719
14.128227 -0.68520939 0.25867414
14.131983 -0.67116529 0.26675498
14.127767 -0.63597673 0.27332571
14.139062 -0.6259501 0.26795977
14.12458 -0.61357415 0.27340531
14.124373 -0.59066635 0.25845835
14.128839 -0.56258202 0.27104539
14.140809 -0.54603356 0.26726964
14.145519 -0.52282244 0.26086521
14.138636 -0.49976784 0.25932953
14.135933 -0.49115694 0.2672734
14.138229 -0.4597432 0.26954699
14.14858 -0.45347121 0.26729342
14.145473 -0.41680291 0.27534947
14.136971 -0.41548604 0.27606323
14.133889 -0.39521959 0.25996539
14.135832 -0.37130305 0.27223131
14.150334 -0.35620427 0.26132396
14.141034 -0.33715603 0.27390492
14.145301 -0.30572459 0.26981667
14.148005 -0.29770169 0.27461448
14.138625 -0.26806042 0.27110022
14.151491 -0.2487199 0.27413121
14.142076 -0.2331095 0.27410287
14.140691 -0.20659521 0.27566293
14.139991 -0.18373151 0.25776017
14.143165 -0.1794654 0.2640439
14.138577 -0.14120987 0.2656956
14.143056 -0.13274074 0.26666406
14.140087 -0.12046245 0.25933176
14.153003 -0.08591073 0.26028961
14.150688 -0.08114174 0.27115539
14.144833 -0.043881942 0.26162776
14.14198 -0.036384918 0.26797614
14.139071 -0.010594665 0.2611039
14.157365 0.016822113 0.36074579
14.158054 0.024555856 0.36153236
14.165001 0.047464538 0.36083844
14.173571 0.074640758 0.36887732
14.163082 0.098665446 0.36945784
14.165234 0.11545031 0.3648532
14.168315 0.12979312 0.36528048
14.162234 0.15817958 0.36323035
14.166599 0.16364066 0.36893991
14.157284 0.18614796 0.36070228
14.16107 0.20726153 0.37752438
14.161083 0.22907855 0.3623153
14.161857 0.23788272 0.37025002
14.161908 0.27532569 0.36559612
14.169971 0.28237587 0.36520222
14.158587 0.31170097 0.36182863
14.16257 0.32425877 0.37303346
14.166953 0.35091504 0.37286067
14.169259 0.36214209 0.3783851
14.157246 0.38428819 0.36665326
14.156968 0.41048118 0.37627178
14.153485 0.41697714 0.36794454
14.154765 0.44456261 0.36865905
14.163952 0.47254369 0.36705461
14.148458 0.48895913 0.37273893
14.152542 0.49438947 0.36798745
14.153225 0.52423 0.37603348
14.165086 0.538908 0.37097609
14.156745 0.5563733 0.37738666
14.153902 0.58233535 0.36618501
14.1593 0.60855651 0.36141875
14.154287 0.63185894 0.36339158
14.160921 0.6370334 0.37319386
14.148242 0.65201461 0.37122199
14.15393 0.67214864 0.3659113
14.145275 0.69704157 0.36627758
14.151841 0.72331971 0.37673193
14.146426 0.74218792 0.36211291
14.155926 0.75347334 0.36520877
14.151809 0.78270036 0.37451744
14.136462 0.79813713 0.3702991
14.136322 0.82940209 0.36963612
14.138126 0.84816796 0.37440181
14.149706 0.85514927 0.3744041
14.139287 0.88874149 0.37479714
14.143529 0.89462894 0.38034105
14.128109 0.92806011 0.37242246
14.143117 0.93708092 0.36363277
14.143477 0.95663399 0.36639068
14.126907 0.97312987 0.37863919
14.139618 0.99536681 0.36658958
15.264144 2.8925598 0.11271717
15.264632 2.9222941 0.10712488
15.065958 2.8962774 0.14951272
15.073048 2.9280849 0.1519042
14.862713 2.9104402 0.17748877
14.854943 2.9369793 0.18055308
14.675057 2.9029551 0.21680216
14.669804 2.9253862 0.21977548
14.474866 2.9113061 0.26396433
14.460749 2.9350994 0.25374103
14.271188 2.9189177 0.29388979
14.256016 2.9262621 0.30580714
14.062684 2.9122801 0.32417858
14.067647 2.9289715 0.33667275
13.862546 2.9120414 0.36481282
13.858827 2.9314694 0.36208811
13.66583 2.9070866 0.39944938
13.664766 2.9221191 0.40211833
13.646649 2.9590628 0.40897611
13.463893 2.9242718 0.43610525
13.463086 2.9380758 0.4494797
13.253716 2.9185545 0.48695713
13.248322 2.9442842 0.47369784
13.052708 2.9162877 0.51416862
13.061527 2.9421973 0.52177233
13.0418 2.9484503 0.5094623
12.847598 2.9345539 0.55097085
12.845858 2.9469438 0.55178952
12.655158 2.9212105 0.58715653
12.642956 2.932801 0.59370351
12.641198 2.9476664 0.59527802
12.461372 2.9243996 0.61743945
12.453819 2.9444411 0.63017333
12.452983 2.964874 0.619174
12.244705 2.9324958 0.67252731
12.235298 2.9499121 0.65726161
12.042459 2.9227386 0.71011168
12.045607 2.9438696 0.70075864
12.049549 2.9500105 0.69183856
11.841272 2.9209893 0.73351592
11.850488 2.9410679 0.73575026
11.841254 2.9568574 0.74197084
11.646794 2.9213455 0.7675243
11.635818 2.9366651 0.77948678
11.633818 2.9590633 0.76740992
11.437985 2.9275165 0.81232512
11.437436 2.9467037 0.80255735
11.433054 2.9531114 0.817114
11.419296 2.9675581 0.80101079
11.416596 2.9887507 0.80612123
11.418891 3.0032356 0.81478757
11.423398 3.0325873 0.80272639
11.414104 3.0423071 0.80647117
11.413679 3.0651286 0.80929619
11.405195 3.0700521 0.81828588
11.404613 3.093771 0.80812854
11.392262 3.1010191 0.80120224
11.390121 3.1279862 0.80473322
11.382516 3.125319 0.80676627
11.378784 3.1440976 0.81405282
11.380141 3.1693385 0.81989104
11.370142 3.1832762 0.81915385
11.36806 3.1921315 0.81221497
11.3697 3.2047968 0.81218189
11.354143 3.2332349 0.80116296
11.347554 3.2453687 0.81795925
11.350786 3.2694533 0.80610603
11.347069 3.2757204 0.80532831
11.346861 3.2987266 0.80599779
11.328664 3.3023691 0.80956632
11.337731 3.3317578 0.80250257
11.332614 3.3355594 0.81350946
11.326738 3.3617125 0.81751055
11.502358 3.4299982 0.78166169
11.509388 3.451432 0.77506292
11.505377 3.4507766 0.76475585
11.498139 3.4778745 0.7826972
11.479026 3.4857998 0.77107608
11.479113 3.5180829 0.7666381
11.479846 3.5167572 0.77002561
11.464126 3.5491092 0.7669915
11.46132 3.560977 0.77195501
11.469498 3.5716233 0.7672742
11.461656 3.5941093 0.77905178
11.454601 3.608402 0.77621567
11.440928 3.623482 0.77668339
11.436923 3.6361461 0.76821518
11.430839 3.6545408 0.77164483
11.43311 3.6778882 0.77133727
11.430922 3.6868579 0.77369046
11.412098 3.7050185 0.77238882
11.410218 3.725306 0.76695496
11.41328 3.7387276 0.77617449
11.411638 3.749284 0.77189392
11.401752 3.757787 0.76592678
11.389009 3.7776377 0.77906775
11.396709 3.7985291 0.76890773
11.37592 3.8184025 0.78118432
11.378538 3.8256369 0.7808575
11.380827 3.8357937 0.77355671
11.365446 3.8522611 0.76847988
11.368742 3.8720045 0.76776129
11.366582 3.8999877 0.7645421
11.35362 3.9115298 0.77596444
11.356354 3.9184079 0.77998209
11.333099 3.9377866 0.76795024
11.342963 3.9501328 0.78091681
11.322645 3.966979 0.77787119
11.334581 3.9917543 0.76618171
11.511573 4.0695858 0.73211801
11.495746 4.0922165 0.7353189
11.494821 4.1035204 0.74240756
11.493154 4.118063 0.74163115
11.488245 4.1250648 0.73655599
11.474736 4.1402445 0.74252611
11.465223 4.1576347 0.73204935
11.463655 4.1703773 0.7381013
11.455032 4.1883116 0.74518919
11.443341 4.2037139 0.74125016
11.439939 4.236258 0.73391354
11.43911 4.2386422 0.73316205
11.441461 4.2657909 0.72767669
11.430877 4.2769842 0.74070454
11.419495 4.2890038 0.74471229
11.423016 4.3132715 0.72788602
11.412484 4.3138051 0.7324447
11.411453 4.338573 0.73374826
11.396453 4.3605409 0.73699653
11.388517 4.3766642 0.7396661
11.396622 4.3952522 0.7389065
11.377366 4.3989029 0.74456662
11.377337 4.4108167 0.7414186
11.371801 4.4380817 0.7335158
11.359271 4.4399223 0.7416926
11.350726 4.4712625 0.73820549
11.345332 4.4780731 0.7393288
11.344476 4.4898772 0.72930491
11.3449 4.5127263 0.74534273
11.328551 4.5337086 0.7416057
11.51735 4.6220255 0.70390707
11.502765 4.6243138 0.69063866
11.493816 4.6527081 0.69341147
11.481698 4.6617227 0.70758575
11.481655 4.6843858 0.70774531
11.469766 4.7047043 0.70339888
11.474367 4.7058525 0.71002531
11.46007 4.732389 0.6926266
11.455726 4.7456169 0.7022568
11.447398 4.768785 0.69705778
11.43531 4.7845626 0.69123238
11.442163 4.7921901 0.69164687
11.435724 4.817328 0.70441604
11.412036 4.8168273 0.7101692
11.4225 4.8427858 0.70256364
11.413101 4.86338 0.69926429
11.399334 4.8751235 0.70110983
11.392171 4.8991385 0.69349772
11.387587 4.9054017 0.70312887
11.37261 4.9299512 0.69995248
-3.9965465 -3.783638 1.975513
-3.9850576 -3.7803586 1.9742333
-3.9852552 -3.7958117 1.9899516
-3.9679501 -3.7972281 1.9856929
-3.9695811 -3.7988546 1.9786561
-3.9601185 -3.8082967 1.9861995
-3.9548874 -3.8088541 1.9813356
-3.958055 -3.818681 1.9837027
-3.9415069 -3.8253894 1.9755405
-3.9348705 -3.8193481 1.9887192
-3.9294784 -3.8237338 1.9899098
-3.9221051 -3.8419113 1.9799577
-3.9160037 -3.8455753 1.9801232
-3.9141762 -3.8372304 1.9844354
-3.9165998 -3.8558209 1.992677
-3.9060526 -3.8502603 1.9770246
-3.9079542 -3.8647885 1.9863557
-3.8947124 -3.8678114 1.9913934
-3.8990958 -3.8796215 1.9752488
-3.8916335 -3.8701377 1.9906639
-3.870985 -3.8806126 1.9872043
-3.8691385 -3.8890719 1.9910709
-3.8772364 -3.896796 1.9767694
-3.8651612 -3.9080658 1.9763013
-3.8487663 -3.9071405 1.9827241
-3.8441224 -3.9210565 1.9801807
-3.8551233 -3.9222708 1.9885753
-3.8367856 -3.915647 1.9794053
-3.8334024 -3.9188182 1.9838761
-3.8261566 -3.9399464 1.983274
-3.8234882 -3.9458528 1.9776328
-3.8242719 -3.9353471 1.9889601
-3.8211815 -3.9583809 1.9779842
-3.8123851 -3.9547894 1.9811513
-3.8040493 -3.9602597 1.990649
-3.7892833 -3.9665506 1.9916282
-3.7970533 -3.9693146 1.9767832
-3.7964213 -3.9792202 1.9739443
-3.7849519 -3.99123 1.9933089
-3.7690043 -3.9814885 1.9769123
-3.7736514 -3.9945805 1.9799685
-3.7639325 -3.9939656 1.9788822
-3.7628787 -3.9957774 1.9801058
-3.7527936 -4.014317 1.9902573
-3.7395339 -4.0100527 1.9802667
-3.7367692 -4.016562 1.9893061
-3.7330182 -4.0163879 1.9808944
-3.7241046 -4.0211353 1.9878823
-3.7180228 -4.0399756 1.9881577
-3.7125692 -4.0484366 1.9834645
-3.7235048 -4.047121 1.9909611
-3.7113769 -4.0416698 1.9843465
-3.7003281 -4.0607562 1.9811865
-3.6880486 -4.0553551 1.984745
-3.6856103 -4.0623002 1.9778185
-3.6931553 -4.072094 1.9896255
-3.6716537 -4.0837564 1.9868417
-3.6785567 -4.0721326 1.9845371
-3.6584644 -4.0800624 1.9886118
-3.6580896 -4.0881801 1.9894367
-3.662401 -4.0928831 1.9767805
-3.6592088 -4.1111145 1.9747709
-3.6426237 -4.1039615 1.9788628
-3.6491916 -4.110199 1.9735351
-3.632194 -4.1196771 1.9864339
-3.6221156 -4.1223855 1.9747031
-3.6202233 -4.1292849 1.9764656
-3.6211076 -4.128787 1.9749993
-3.6042895 -4.1339045 1.9907434
-3.6033895 -4.1443605 1.9835014
-3.6016576 -4.1448498 1.9766804
-3.5925748 -4.1478748 1.9767437
-3.5854948 -4.1600509 1.9890684
-3.5743158 -4.164537 1.980255
-3.5684574 -4.1577754 1.9870554
-3.5696933 -4.1666927 1.9762312
-3.5626531 -4.179481 1.9835833
-3.5538435 -4.178925 1.9765007
-3.5464931 -4.1873293 1.9893608
-3.5433915 -4.2006183 1.9768158
-3.5475252 -4.1979675 1.9888252
-3.5384729 -4.1920333 1.9828448
-3.5293503 -4.2048254 1.9897158
-3.5278962 -4.2122517 1.9771193
-3.5152485 -4.2196398 1.9762955
-3.5157938 -4.2140913 1.9915572
-3.5071561 -4.2273364 1.9790251
-3.4911597 -4.2376132 1.9920354
-3.5022388 -4.2263875 1.9816201
-3.4804511 -4.2379155 1.9828857
-3.4912014 -4.239439 1.9917638
-3.4699357 -4.2577791 1.9915298
-3.4746437 -4.252872 1.9834493
-3.4724739 -4.2523937 1.9928799
-3.4628935 -4.2651577 1.9798512
-3.4541304 -4.2643628 1.9772922
-3.4500988 -4.2808337 1.9864004
-3.4385927 -4.2872181 1.9901361
-3.4340694 -4.2905984 1.9899936
-3.4199548 -4.2981148 1.9832109
-3.4245679 -4.3023124 1.9797843
-3.4202962 -4.2911816 1.9828888
-3.4162517 -4.3107028 1.975763
-3.4002812 -4.3140049 1.9739699
-3.3948734 -4.3136845 1.9842596
-3.3824875 -4.3105655 1.9801818
-3.3926542 -4.3293862 1.984463
-3.3737059 -4.3226786 1.9871808
-3.3710153 -4.3374319 1.991331
-3.3684607 -4.3440623 1.9927691
-3.3526821 -4.3413033 1.9748058
-3.3603237 -4.3402777 1.9927611
-3.3448541 -4.3612189 1.9759746
-3.3365037 -4.3522077 1.9806567
-3.3299398 -4.3638129 1.9904215
-3.3330801 -4.3690643 1.9880595
-3.3202913 -4.3705196 1.9916224
-3.323215 -4.3790717 1.9866304
-3.3034143 -4.3709841 1.9916135
-3.2994568 -4.3863997 1.9746865
-3.294055 -4.3921008 1.98523
-3.2866099 -4.3915143 1.9815024
-3.2812028 -4.4015355 1.9815284
-3.2725761 -4.4092908 1.975252
-3.2792609 -4.4165726 1.9820479
-3.2761743 -4.4130912 1.9882622
-3.2554436 -4.422925 1.9776815
-3.2511432 -4.421792 1.9832011
-3.2518287 -4.4269748 1.9814519
-3.2475247 -4.4343233 1.9889222
-3.2401414 -4.4423995 1.9753178
-3.2422085 -4.4291663 1.9869179
-3.2279966 -4.4366684 1.9931058
-3.2137525 -4.4416924 1.9761393
-3.2057784 -4.4595561 1.9764833
-3.2110019 -4.460495 1.9848922
-3.2100053 -4.4668708 1.9880425
-3.1995828 -4.4751205 1.9768919
-3.1836345 -4.4702363 1.985116
-3.1894293 -4.4672356 1.9905404
-3.1677475 -4.4830441 1.9924293
-3.1796639 -4.4871197 1.9920832
-3.1599741 -4.4831896 1.988758
-3.1540902 -4.4912271 1.9849232
-3.1451664 -4.4975095 1.9877303
-3.1358924 -4.4952397 1.9740955
-3.1382036 -4.4982047 1.9785731
-3.1373582 -4.5169845 1.9792804
-3.1276574 -4.5060596 1.9893426
-3.1297264 -4.5271792 1.9868678
-3.1063647 -4.5328732 1.9930373
-3.1011083 -4.5367455 1.979576
-3.0961916 -4.5271964 1.9744809
-3.0945942 -4.5380383 1.9857751
-3.0968256 -4.546237 1.9752054
-3.0762439 -4.5514488 1.9913146
-3.0692909 -4.5452642 1.9888597
-3.0778544 -4.5445342 1.9920167
-3.0657043 -4.5604081 1.9904817
-3.0634863 -4.5646625 1.9922014
-3.0437372 -4.5718727 1.9925927
-3.0378122 -4.5801501 1.993468
-3.0453429 -4.5698404 1.9882402
-3.0379627 -4.5842695 1.9765097
-3.0192823 -4.5872712 1.9809104
-3.0111659 -4.5960393 1.9844207
-3.0069339 -4.584208 1.9784274
-3.0051515 -4.5872998 1.9774679
-3.0002058 -4.6046076 1.9849288
-2.9967892 -4.6060691 1.9924209
-2.9916472 -4.6141591 1.9769794
-2.9861083 -4.6227078 1.9775282
-2.9796879 -4.6251769 1.9926453
-2.9584897 -4.6266613 1.9775835
-2.9690161 -4.6158667 1.983761
-2.9551361 -4.623363 1.9854023
-2.9377398 -4.6330409 1.9830981
-2.9463313 -4.6473551 1.9819161
-2.9358766 -4.6431494 1.9876313
-2.9179549 -4.6419573 1.9760811
-2.9125357 -4.6420608 1.9806281
-2.9225523 -4.6630669 1.9808043
-2.9120142 -4.6641016 1.9826807
-2.9063535 -4.670392 1.9872326
-2.8957486 -4.6736693 1.98673
-2.8789608 -4.6695318 1.9828731
-2.8805261 -4.6744699 1.9934711
-2.8843896 -4.6744766 1.9738787
-2.8694298 -4.6905117 1.9826072
-2.8687491 -4.6951141 1.9766332
-2.8596129 -4.6807919 1.9746528
-2.8459244 -4.7029858 1.9757534
-2.8520539 -4.701148 1.9798979
-2.8363016 -4.700161 1.9818213
-2.8359916 -4.7150865 1.9845281
-2.816179 -4.7197466 1.9754233
-2.8202176 -4.712501 1.9854226
-2.8136525 -4.7156529 1.979448
-2.8066745 -4.7303848 1.981462
-2.7909627 -4.7309818 1.9828883
-2.7812192 -4.7289929 1.9826425
-2.7734506 -4.7398725 1.9841989
-2.7845762 -4.7434435 1.9915802
-2.7715516 -4.7378297 1.9839267
-2.7565982 -4.7384796 1.9853165
-2.7589328 -4.7458949 1.9860054
-2.7503667 -4.7439337 1.9778906
-2.7517958 -4.7619972 1.9905649
-2.7391944 -4.7596779 1.9924392
-2.7245734 -4.7682471 1.9776394
-2.7285209 -4.7736793 1.9887416
-2.7127087 -4.7779546 1.9928689
-2.7153349 -4.7799726 1.9773202
-2.7105744 -4.775588 1.9912709
-2.6934624 -4.7828784 1.9884484
-2.6949549 -4.7791367 1.9820774
-2.6757536 -4.7934675 1.9815257
-2.6846616 -4.7958713 1.9867593
-2.6608901 -4.7923231 1.9781516
-2.6552393 -4.8008089 1.9848045
-2.6643829 -4.7999024 1.9898462
-2.6424191 -4.8098488 1.974424
-2.636323 -4.8090925 1.9807861
-2.6457703 -4.8102517 1.9753251
-2.6212618 -4.8209796 1.9863573
-2.6195705 -4.8198872 1.9849052
-2.6242452 -4.8262849 1.9928874
-2.6094663 -4.8282881 1.9822209
-2.6094489 -4.8332219 1.9788486
-2.5980341 -4.8392124 1.9907271
-2.5799613 -4.8410597 1.9872396
-2.5768418 -4.8476605 1.9775233
-2.5691392 -4.8548884 1.992272
-2.5750697 -4.8582921 1.9895607
-2.5664561 -4.8639207 1.9798108
-2.5468051 -4.8545966 1.9748336
-2.5486014 -4.8566909 1.9871294
-2.5424106 -4.8707547 1.9810835
-2.5268812 -4.8715553 1.9737557
-2.5347192 -4.8677001 1.9840798
-2.5106738 -4.8725362 1.97619
-2.5101109 -4.881022 1.9853226
-2.4992592 -4.8885789 1.9908414
-2.493654 -4.8888459 1.9765612
-2.4907553 -4.8872833 1.9802477
-2.4776015 -4.892859 1.9768441
-2.4894199 -4.9070249 1.9749225
-2.4689379 -4.9017997 1.9825034
-2.4744968 -4.9078488 1.9928409
-2.4673789 -4.908545 1.9905812
-2.4499321 -4.9120097 1.9870236
-2.4403701 -4.9217305 1.9785091
-2.4416709 -4.927424 1.9859563
-2.437448 -4.914341 1.9766463
-2.4275005 -4.9251924 1.9923989
-2.4138618 -4.929729 1.9860661
-2.4036219 -4.9329276 1.9890481
-2.395299 -4.942492 1.9807268
-2.3993905 -4.9444685 1.9898181
-2.3931396 -4.9461851 1.9816651
-2.3891439 -4.9573174 1.9934899
-2.3687012 -4.9457555 1.9790266
-2.3767684 -4.9623666 1.9822932
-2.3573835 -4.9616313 1.9820569
-2.3473041 -4.9578309 1.9743729
-2.3414674 -4.9672785 1.9855467
-2.341959 -4.9733772 1.976907
-2.3394639 -4.9780488 1.9820778
-2.3252857 -4.9737124 1.9886374
-2.3220115 -4.9700313 1.9768366
-2.3068857 -4.989264 1.9772495
-2.2999308 -4.9749684 1.9925611
-2.3074346 -4.9956598 1.9745886
14.138394 -0.97154504 0.36562294
14.136713 -0.96677387 0.36952677
14.126878 -0.93445051 0.37095517
14.127552 -0.93016142 0.36448407
14.133438 -0.8995384 0.36150092
14.1332 -0.88974589 0.37469685
14.131147 -0.86555821 0.37406218
14.137417 -0.8342644 0.37873474
14.138814 -0.81403917 0.36227319
14.149896 -0.8085314 0.37139279
14.150004 -0.79175335 0.36990908
14.136279 -0.75802386 0.37347907
14.146429 -0.73546863 0.36965305
14.13798 -0.73355168 0.37039489
14.143033 -0.70703274 0.36203662
14.145075 -0.68200946 0.36374608
14.140285 -0.66026783 0.36991659
14.154833 -0.65345895 0.36765268
14.154026 -0.62642747 0.36588407
14.15673 -0.60946113 0.36989164
14.148525 -0.59350574 0.37094414
14.15881 -0.57236826 0.36599144
14.152637 -0.54214495 0.36385778
14.16261 -0.52140743 0.36390337
14.153297 -0.49662679 0.37072885
14.1556 -0.49078628 0.36283714
14.159583 -0.47068995 0.37694514
14.14971 -0.45697257 0.3781189
14.157545 -0.4249616 0.36657974
14.163584 -0.41111863 0.37226123
14.153603 -0.38632408 0.37415123
14.164647 -0.3720617 0.37743071
14.170711 -0.34476155 0.37118435
14.154613 -0.32824966 0.36592531
14.158533 -0.30178428 0.3656956
14.169251 -0.2937237 0.37155414
14.17205 -0.26235849 0.37775573
14.168929 -0.24151818 0.37792051
14.166955 -0.23346673 0.37034121
14.173413 -0.21997276 0.37684897
14.165526 -0.19702876 0.36839452
14.159501 -0.16358224 0.37444496
14.156728 -0.14458597 0.36803728
14.167681 -0.12217364 0.37838253
14.173347 -0.11629969 0.37543356
14.158756 -0.10013868 0.36078495
14.169996 -0.081582382 0.37774071
14.16741 -0.046522804 0.37577543
14.164961 -0.033786241 0.36209974
14.174906 -0.014911891 0.36215571
14.190243 0.018404905 0.46891958
14.178182 0.022834104 0.46584013
14.192142 0.04425193 0.48199344
14.179669 0.076412 0.48079526
14.177513 0.09405522 0.46570697
14.19238 0.11695186 0.46701533
14.192571 0.13096042 0.46711546
14.18969 0.14228244 0.48251051
14.184816 0.17108268 0.47087729
14.186239 0.1897818 0.47835356
14.18769 0.20488749 0.47675845
14.192351 0.22794533 0.47980121
14.173904 0.24500565 0.46447051
14.191584 0.26966077 0.48150864
14.188038 0.29225591 0.47639886
14.189375 0.30984205 0.4743948
14.171993 0.3277705 0.46660852
14.174685 0.34299704 0.47035372
14.172743 0.37355632 0.48310891
14.17914 0.38577265 0.47477326
14.172986 0.39970189 0.48175374
14.185209 0.41858122 0.47200277
14.180448 0.43933114 0.47952339
14.180328 0.45810497 0.47191077
14.177218 0.49370447 0.46710545
14.168972 0.51104128 0.48009899
14.178694 0.53142369 0.47123426
14.180601 0.53495193 0.47781
14.166226 0.5570209 0.47515959
14.164579 0.58599734 0.46494073
14.174569 0.60935748 0.46886709
14.171512 0.62550622 0.47188956
14.178676 0.63748628 0.47587955
14.173332 0.66996688 0.47886175
14.160349 0.67998612 0.47766274
14.162533 0.70243418 0.47402078
14.157682 0.71530694 0.47098249
14.163939 0.75081813 0.47169459
14.156745 0.75271297 0.47469887
14.166873 0.77374643 0.46690392
14.166754 0.805583 0.4826946
14.170533 0.81520307 0.47486061
14.157309 0.83285558 0.47923446
14.168045 0.86606109 0.47631791
14.161737 0.88720709 0.48365092
14.154202 0.89148808 0.47366357
14.162998 0.9118976 0.47678199
14.148727 0.9395709 0.47564599
14.155142 0.96108371 0.47664049
14.144533 0.97378552 0.4789058
14.146101 1.0074574 0.4732464
15.288362 2.9045897 0.22502786
15.297482 2.9240792 0.22332092
15.093472 2.9073892 0.27236959
15.095032 2.9198513 0.25676057
14.895847 2.9194341 0.29519495
14.876678 2.9324245 0.29661691
14.684339 2.9187026 0.33341426
14.687346 2.9269118 0.32999784
14.491426 2.9253414 0.36372799
14.48722 2.9412918 0.37459463
14.2929 2.9289126 0.40147576
14.276442 2.9487488 0.4112899
14.085451 2.9221337 0.43546808
14.081112 2.9407203 0.43583322
13.888451 2.9170451 0.4676564
13.871716 2.9383872 0.47647604
13.683805 2.9236734 0.50426942
13.67007 2.9366965 0.50455928
13.480434 2.9094419 0.53679448
13.481795 2.9232512 0.54954827
13.473997 2.9597459 0.54903591
13.285549 2.9215779 0.58365375
13.27923 2.9513211 0.57636613
13.069678 2.9179842 0.62323999
13.072688 2.9313126 0.61196709
13.072272 2.9519744 0.62266856
12.86867 2.9377763 0.65544862
12.869655 2.9572566 0.6469419
12.679046 2.9194989 0.68879062
12.677345 2.9510467 0.69041872
12.668374 2.9588826 0.68974012
12.467193 2.9297101 0.72959524
12.457118 2.9429858 0.72544962
12.268185 2.9174876 0.74748534
12.262488 2.9442935 0.74938488
12.265495 2.9547815 0.75371045
12.067826 2.931479 0.78444618
12.059109 2.9392736 0.78148293
12.061862 2.9524305 0.78696311
11.860059 2.9208689 0.8215366
11.851084 2.951262 0.83105201
11.861408 2.9562712 0.81868428
11.665382 2.9273984 0.85742259
11.656214 2.9528761 0.86354369
11.653836 2.9567287 0.8593573
11.462578 2.9389904 0.90377384
11.446448 2.9474821 0.89885533
11.445809 2.9713347 0.90490234
11.442184 2.9820414 0.88728291
11.444018 2.9862282 0.88837743
11.425179 3.0055232 0.90332013
11.435835 3.019248 0.88673288
11.434099 3.0520349 0.89263278
11.415858 3.0597379 0.88774925
11.423716 3.0691707 0.89046299
11.407364 3.0822322 0.88788164
11.400184 3.1032484 0.89781451
11.408064 3.1277318 0.89562804
11.401968 3.1327198 0.88818228
11.398231 3.1636918 0.8889631
11.395566 3.1799991 0.89308459
11.387821 3.1911571 0.89498222
11.383467 3.2047977 0.89372391
11.384991 3.224437 0.90423203
11.381609 3.2361956 0.88824189
11.360919 3.2558873 0.8893885
11.357625 3.2727058 0.89563227
11.364242 3.2817328 0.89044684
11.34865 3.2890153 0.89434242
11.345591 3.3169334 0.89330953
11.34329 3.3265822 0.89268953
11.345089 3.3529038 0.88733906
11.328763 3.3593113 0.89974713
11.331157 3.3717046 0.89591837
11.324037 3.3851998 0.88797855
11.320904 3.4025106 0.90386701
11.507368 3.4779575 0.86549431
11.511502 3.4879332 0.85552055
11.490428 3.5068896 0.85698473
11.493228 3.5273809 0.87052929
11.494972 3.5501881 0.85789096
11.476074 3.559432 0.85574925
11.471804 3.5770109 0.86419654
11.479918 3.601666 0.86922491
11.464182 3.6039057 0.85194308
11.460484 3.6277394 0.8561734
11.452651 3.6343143 0.86315697
11.461646 3.6498735 0.86406767
11.440645 3.6692321 0.86789298
11.441087 3.6962852 0.85617459
11.43505 3.71 0.87123489
11.436353 3.7297568 0.85951805
11.435492 3.7302046 0.86936563
11.423056 3.7437518 0.86786091
11.415626 3.7665694 0.85259539
11.410892 3.7907176 0.86517036
11.410365 3.7920849 0.8683337
11.396801 3.8075211 0.87107706
11.404124 3.8270526 0.85720676
11.395251 3.8521433 0.85442454
11.374638 3.856338 0.86939937
11.369062 3.8869982 0.86818016
11.371748 3.9019821 0.85146546
11.364259 3.9097369 0.8523618
11.355244 3.9352911 0.86014682
11.35094 3.9413629 0.85615861
11.359189 3.9521823 0.85762352
11.350579 3.9747331 0.85861778
11.344691 3.9899261 0.86324418
11.324911 4.0015864 0.85706931
11.322326 4.0179954 0.85920471
11.500161 4.1002531 0.82090062
11.511195 4.1248226 0.81693369
11.505492 4.1273313 0.82485986
11.500664 4.1462755 0.8224861
11.483597 4.1663885 0.83033746
11.48252 4.1802464 0.83316946
11.482886 4.1910114 0.82272112
11.464224 4.2214274 0.83164221
11.470165 4.2376246 0.8164078
11.449909 4.2568197 0.82177442
11.451767 4.2739878 0.82755911
11.450521 4.28791 0.82186198
11.445286 4.3018713 0.82263076
11.427954 4.3167682 0.82630831
11.428226 4.3203855 0.83407217
11.416328 4.3487353 0.81967479
11.407239 4.3632822 0.82003188
11.40768 4.3850203 0.83480251
11.397019 4.3985763 0.82977557
11.391103 4.4177747 0.82795763
11.39053 4.4247518 0.82732999
11.37572 4.4364252 0.824655
11.375191 4.4488287 0.81998014
11.375408 4.4698882 0.83424926
11.359281 4.4972296 0.83619118
11.350895 4.4987044 0.83054674
11.348089 4.5171447 0.82352138
11.345619 4.5421023 0.82231498
11.337897 4.5424976 0.81875378
11.325127 4.563097 0.81848925
11.513056 4.6630144 0.79408538
11.497692 4.6807938 0.80069286
11.499631 4.6842303 0.78382748
11.496873 4.7140937 0.79215384
11.488361 4.7140603 0.79196268
11.48177 4.7318954 0.79739624
11.469511 4.7532001 0.78542864
11.470204 4.7583327 0.7825858
11.44967 4.782063 0.78431463
11.445551 4.7993641 0.79082769
11.441145 4.8084183 0.78770399
11.427536 4.828598 0.78630751
11.440513 4.8572283 0.79230487
11.416601 4.8696337 0.7921316
11.420994 4.8800836 0.7959007
11.405173 4.8905196 0.78148907
11.394764 4.915298 0.79237628
11.392365 4.927393 0.79239881
-3.9875772 -4.0667672 1.9977343
-3.9785366 -4.0674715 1.9868224
-3.982975 -4.0858731 1.9889957
-3.9705296 -4.0911546 1.995389
-3.9594727 -4.0967073 1.9944619
-3.9624107 -4.0993977 1.9899995
-3.9455142 -4.1108985 1.9800556
-3.9448409 -4.1114016 1.9846261
-3.9385717 -4.1154728 1.9980625
-3.9414074 -4.1150799 1.9876908
-3.9242129 -4.1330657 1.9796308
-3.9192457 -4.1277018 1.996441
-3.9251826 -4.1324744 1.9804153
-3.9089386 -4.1505075 1.9846666
-3.9062936 -4.143198 1.9889148
-3.9045682 -4.1445479 1.9960152
-3.8872976 -4.1547308 1.9971486
-3.8799632 -4.1699777 1.9833053
-3.8880508 -4.1646996 1.990909
-3.8826942 -4.1680098 1.9844155
-3.867702 -4.1798859 1.9854381
-3.8607619 -4.1925621 1.9973189
-3.8570042 -4.1969509 1.9899127
-3.8492646 -4.1908789 1.9899511
-3.8372662 -4.2079525 1.982769
-3.8410122 -4.2090988 1.9796984
-3.8376503 -4.2187805 1.9918985
-3.8331473 -4.2069416 1.9942974
-3.8224802 -4.2290111 1.9874114
-3.8242021 -4.2315531 1.9826441
-3.8124096 -4.2249384 1.9914219
-3.7995875 -4.2372284 1.9929363
-3.7948771 -4.2516112 1.9954664
-3.7975652 -4.2441139 1.989465
-3.7802076 -4.2504845 1.9917781
-3.790025 -4.2664747 1.9983249
-3.7829053 -4.2649846 1.9805617
-3.7635782 -4.2648802 1.9800011
-3.7618449 -4.2800055 1.9827263
-3.7669902 -4.2827559 1.9882567
-3.7568955 -4.2796254 1.9857402
-3.7380154 -4.2895918 1.9962647
-3.7376139 -4.3007736 1.9977283
-3.7346749 -4.3005772 1.9920034
-3.71773 -4.3089643 1.9852136
-3.7184646 -4.3131166 1.987731
-3.7126453 -4.3161054 1.9970275
-3.704582 -4.3257298 1.991709
-3.6970718 -4.3195915 1.9965378
-3.7068293 -4.3245764 1.98388
-3.6910491 -4.3454518 1.9796082
-3.6777782 -4.3334398 1.9906175
-3.6739757 -4.3470259 1.9956838
-3.6687021 -4.3436799 1.9861771
-3.6691465 -4.3494034 1.9935055
-3.6563735 -4.3618832 1.981895
-3.6610761 -4.3745728 1.992501
-3.6564748 -4.3652349 1.9786793
-3.6371851 -4.3744302 1.9961842
-3.6330593 -4.3794336 1.9938841
-3.6215842 -4.3947148 1.99588
-3.6143739 -4.4027901 1.9950513
-3.6161473 -4.3931346 1.9857908
-3.6128471 -4.4042854 1.9850224
-3.5990467 -4.4019675 1.9836679
-3.5979109 -4.4129701 1.9949623
-3.5883784 -4.4147758 1.978688
-3.588233 -4.4180884 1.9968635
-3.5819023 -4.4282265 1.990947
-3.5780597 -4.440361 1.9851218
-3.57651 -4.4471498 1.9891019
-3.5529575 -4.4528651 1.9900843
-3.5502269 -4.446497 1.985791
-3.5567498 -4.4629788 1.9954073
-3.544034 -4.4518185 1.9923937
-3.532666 -4.4656868 1.9834208
-3.5299964 -4.4761944 1.9976768
-3.5235944 -4.4727349 1.993646
-3.5190101 -4.4691305 1.9844947
-3.5203352 -4.4878764 1.9882175
-3.5074787 -4.491272 1.9901514
-3.4906354 -4.4973221 1.9913616
-3.4928026 -4.506855 1.9839228
-3.4792564 -4.509131 1.9849758
-3.4760871 -4.5049191 1.9821546
-3.4759245 -4.5155735 1.9904219
-3.4647281 -4.5097995 1.9931295
-3.459269 -4.5238714 1.9842354
-3.4578338 -4.5196142 1.9838761
-3.4455431 -4.5229445 1.9896928
-3.449523 -4.5396867 1.9970266
-3.4315622 -4.5458612 1.9832145
-3.4323845 -4.5404854 1.9847647
-3.4206388 -4.5478525 1.9889255
-3.4078336 -4.5583463 1.9821758
-3.4178426 -4.5549808 1.9896411
-3.3995781 -4.5667281 1.9877403
-3.3985991 -4.5793333 1.9966186
-3.3865075 -4.5768256 1.9945965
-3.3947685 -4.5883579 1.9940782
-3.3772063 -4.5902066 1.9816422
-3.3723037 -4.5804377 1.9878478
-3.3612068 -4.5978413 1.9842362
-3.3685529 -4.5898557 1.9980556
-3.3517318 -4.5954285 1.9861702
-3.3416536 -4.6173806 1.9824308
-3.3441036 -4.6074452 1.9917153
-3.3284481 -4.6229138 1.9931576
-3.3239076 -4.6126809 1.9818608
-3.3213825 -4.6371059 1.9837767
-3.3193696 -4.630372 1.9885795
-3.3097861 -4.6451454 1.987878
-3.2939904 -4.6352382 1.9944906
-3.3017998 -4.6391006 1.9937974
-3.2957835 -4.6525707 1.9922311
-3.2816463 -4.6623993 1.9934036
-3.2712419 -4.6611209 1.9891937
-3.2715466 -4.6706357 1.9941878
-3.2704027 -4.662066 1.9940785
-3.2605491 -4.6774335 1.994199
-3.2487733 -4.6772566 1.9856991
-3.2521882 -4.6739712 1.9870623
-3.2362986 -4.6813722 1.9829603
-3.2337897 -4.6830707 1.9796149
-3.2319679 -4.7052469 1.9874083
-3.2117059 -4.6997871 1.9899735
-3.2102652 -4.7104301 1.9984089
-3.1930282 -4.7078919 1.9819113
-3.1907909 -4.7107301 1.9785568
-3.1886566 -4.7102408 1.9843985
-3.1863954 -4.7245083 1.9949719
-3.1726282 -4.7287307 1.9933761
-3.1774912 -4.7236085 1.9889162
-3.16645 -4.7425294 1.9872853
-3.1587484 -4.7461863 1.987996
-3.1432471 -4.736146 1.9786756
-3.1451743 -4.751236 1.9832119
-3.13866 -4.7556653 1.9947772
-3.1286371 -4.764441 1.9879861
-3.1219628 -4.7576718 1.9861565
-3.1094406 -4.7752376 1.994522
-3.106339 -4.7656374 1.9831192
-3.1048269 -4.7675085 1.9812833
-3.0877686 -4.7849531 1.9849617
-3.0923355 -4.7813163 1.9894092
-3.0761852 -4.788805 1.9883138
-3.0693495 -4.7848535 1.9965363
-3.0779715 -4.8010268 1.9847271
-3.0550222 -4.7938223 1.9885314
-3.0588579 -4.8065948 1.9834845
-3.0445175 -4.8135023 1.9852426
-3.0418055 -4.8239717 1.9809617
-3.0304902 -4.8195982 1.9791614
-3.0210049 -4.8248425 1.9842589
-3.0278354 -4.8213348 1.9973263
-3.0102122 -4.8283644 1.9872286
-3.0136788 -4.8352523 1.985397
-3.0089169 -4.8374615 1.9916968
-2.9959583 -4.8434272 1.9894969
-2.9791896 -4.8399405 1.9788108
-2.987462 -4.8488307 1.9854939
-2.9739704 -4.861732 1.9859754
-2.9647539 -4.870048 1.9950882
-2.9573319 -4.8556142 1.9832056
-2.9648066 -4.874752 1.9790699
-2.939208 -4.8830142 1.9921342
-2.9437015 -4.881496 1.9825312
-2.9300208 -4.8819747 1.9949297
-2.9300344 -4.8762598 1.985564
-2.9122424 -4.880547 1.9838773
-2.9051309 -4.8998833 1.9974829
-2.9113302 -4.8925099 1.9823599
-2.8970425 -4.9027085 1.9830844
-2.8936365 -4.9122791 1.982397
-2.8821073 -4.9161243 1.9867162
-2.8747082 -4.9211764 1.9869084
-2.874239 -4.9175334 1.9927446
-2.8633673 -4.9270267 1.9822178
-2.8600914 -4.9233565 1.9815123
-2.8461757 -4.9287224 1.9806166
-2.853941 -4.9338112 1.9844722
-2.8480954 -4.9319396 1.9797786
-2.8373671 -4.9426255 1.9889549
-2.8259087 -4.9367571 1.9926193
-2.8151321 -4.9462161 1.9964876
-2.8200309 -4.9551382 1.9793434
-2.8047321 -4.9504595 1.9898721
-2.8035915 -4.9617829 1.9949278
-2.7929723 -4.9567103 1.9876643
-2.7830532 -4.9646063 1.9790359
-2.7740242 -4.9671588 1.9893099
-2.7611344 -4.9707613 1.9854376
-2.7529325 -4.9905372 1.9948514
-2.755549 -4.9857621 1.9940964
-2.7544959 -4.9971232 1.9878352
14.146647 -0.98509485 0.47200295
14.157508 -0.97115654 0.481538
14.151185 -0.94271594 0.47793338
14.154133 -0.926925 0.47618634
14.161088 -0.90610421 0.47211736
14.160324 -0.88893211 0.47323635
14.150434 -0.87246674 0.47289822
14.149509 -0.84400868 0.47666788
14.151527 -0.81886196 0.48391581
14.155473 -0.80562627 0.46538872
14.15881 -0.77943498 0.47167799
14.167939 -0.76375222 0.47216165
14.166575 -0.73573339 0.48134023
14.161579 -0.72608066 0.46656215
14.174809 -0.7107591 0.47285545
14.163941 -0.67746025 0.47656965
14.174166 -0.6552825 0.4769963
14.164024 -0.65523297 0.46612635
14.177625 -0.6343416 0.48064685
14.178446 -0.61065388 0.4686451
14.180712 -0.58474976 0.48307517
14.16924 -0.5708102 0.47342694
14.178224 -0.53930032 0.47203493
14.176358 -0.53382462 0.48053169
14.179688 -0.51613033 0.4645845
14.169283 -0.49028635 0.48216933
14.182565 -0.47517377 0.48216367
14.176245 -0.45113075 0.482438
14.179028 -0.43438768 0.48383296
14.176304 -0.41769671 0.46914357
14.18155 -0.37958488 0.48058504
14.181199 -0.37376305 0.46619165
14.171172 -0.33974752 0.48353261
14.179726 -0.32835978 0.46657264
14.176748 -0.31437799 0.4675293
14.177795 -0.29150879 0.47455129
14.1764 -0.27603811 0.47690624
14.174973 -0.24753928 0.48352358
14.173791 -0.23688231 0.46710253
14.173976 -0.20954674 0.46759015
14.179445 -0.19753435 0.46640646
14.176328 -0.16641513 0.4712607
14.178789 -0.14583731 0.47034582
14.178564 -0.13719298 0.48103333
14.181351 -0.11198539 0.4659166
14.185067 -0.086161785 0.47388247
14.175777 -0.062137365 0.47753176
14.188816 -0.059917834 0.46989214
14.188443 -0.039228883 0.47312126
14.191622 -0.018675625 0.48389718
14.193417 0.0096792402 0.57055843
14.195841 0.032049075 0.58488727
14.203092 0.056641798 0.58000398
14.209399 0.060798336 0.58397484
14.206367 0.087558672 0.57336277
14.20819 0.11787945 0.56878358
14.197952 0.13878262 0.56843787
14.211335 0.15262307 0.57052058
14.197051 0.16601811 0.57350105
14.205968 0.18254668 0.57724345
14.205634 0.20269631 0.58692271
14.208271 0.22528332 0.57915509
14.20521 0.25516191 0.57616353
14.197237 0.27141714 0.57751197
14.193207 0.28473645 0.58580428
14.198538 0.30000311 0.58460104
14.199262 0.32518294 0.58448488
14.199613 0.34392524 0.57839328
14.202018 0.36859027 0.58588111
14.207376 0.38240716 0.57008219
14.196449 0.41615176 0.57461798
14.195174 0.43282318 0.58192623
14.206103 0.44675022 0.57929891
14.194014 0.47304952 0.57311314
14.203245 0.47569194 0.58043349
14.200741 0.50406533 0.58320791
14.197005 0.5335905 0.57135004
14.193127 0.54392159 0.57842308
14.183128 0.55714142 0.57035035
14.20059 0.57623035 0.57628447
14.182225 0.60493076 0.57615381
14.188369 0.63292193 0.57288599
14.181793 0.65243608 0.58373737
14.192562 0.66048169 0.58108127
14.177117 0.67840719 0.58126146
14.188966 0.6945048 0.57001001
14.183561 0.72757119 0.56847954
14.186271 0.73749024 0.57747704
14.176026 0.75817031 0.57989228
14.177681 0.77709913 0.58159548
14.185243 0.79847783 0.57219917
14.172646 0.82684213 0.57099527
14.176753 0.84950024 0.56950802
14.171684 0.86382473 0.5762701
14.183931 0.88362986 0.58116263
14.176332 0.89623594 0.58235908
14.177453 0.92441726 0.57682955
14.177015 0.93631601 0.58142811
14.165548 0.95900524 0.58691716
14.176469 0.98441201 0.57154697
14.169065 0.9984706 0.57776898
15.31683 2.9045899 0.3437624
15.300409 2.9246778 0.33477694
15.105832 2.9162831 0.37686163
15.102967 2.9363849 0.36821544
14.904636 2.9154596 0.41453436
14.913501 2.9326317 0.40527984
14.703032 2.9161301 0.43346295
14.705924 2.9444439 0.43890083
14.502077 2.9216387 0.48047063
14.509499 2.9357321 0.47437936
14.312715 2.9322238 0.51611555
14.301245 2.9354455 0.50279582
14.107718 2.9218507 0.55071592
14.095565 2.9490883 0.54387552
13.901805 2.9151189 0.58656645
13.893544 2.9342566 0.57184875
13.703182 2.9194107 0.61190766
13.70007 2.9322424 0.60598123
13.489665 2.9170692 0.64934915
13.499783 2.9346442 0.65279233
13.291195 2.9106336 0.68564743
13.303181 2.9210198 0.68798745
13.28182 2.9550269 0.67669052
13.102163 2.9180901 0.70674086
13.088108 2.9470272 0.70981669
12.890647 2.9083734 0.74642068
12.890792 2.9394121 0.75599301
12.877188 2.9514089 0.73928541
12.685528 2.9255931 0.78360355
12.675593 2.9379003 0.77288282
12.689078 2.9582989 0.78138566
12.489693 2.9297297 0.81550682
12.484603 2.9486301 0.81130695
12.276401 2.9188445 0.84828007
12.276298 2.9443612 0.84214234
12.279245 2.9688079 0.84249473
12.073392 2.9311152 0.8896836
12.06875 2.9499946 0.8771069
12.067378 2.9734359 0.88494915
11.885114 2.9238703 0.92118168
11.863575 2.9587808 0.90633595
11.870516 2.9703536 0.9102453
11.666568 2.9329736 0.94942337
11.669667 2.9509866 0.95317245
11.655935 2.9729724 0.9453029
11.46504 2.9332514 0.97853327
11.465546 2.9518883 0.98951566
11.459435 2.9699674 0.98252678
11.460724 2.9907804 0.98213416
11.449834 3.004863 0.98249036
11.441371 3.0214944 0.98119098
11.43804 3.0291774 0.97490388
11.438596 3.04825 0.98263705
11.444524 3.0545125 0.99210131
11.43418 3.0711551 0.98727512
11.435944 3.0920401 0.97521269
11.417132 3.1175194 0.98578924
11.429282 3.1209993 0.9784525
11.41442 3.1499033 0.97594249
11.419144 3.1520731 0.99153441
11.404201 3.1699586 0.98778284
11.407936 3.188714 0.97574514
11.405362 3.2122486 0.986817
11.390499 3.2259574 0.98819417
11.385078 3.2335896 0.99026269
11.37481 3.2472756 0.97727072
11.372457 3.266463 0.97381896
11.380657 3.2821338 0.97791398
11.361499 3.3072994 0.97498566
11.359808 3.3215671 0.97830623
11.353688 3.3252928 0.98359746
11.363793 3.3571775 0.99173528
11.34184 3.3709338 0.98750514
11.350935 3.3742948 0.98108763
11.341386 3.3967249 0.98641229
11.333883 3.4133978 0.98953933
11.333366 3.432251 0.97597623
11.329375 3.443861 0.98221302
11.329457 3.4608912 0.97775066
11.515062 3.5385954 0.95791477
11.495412 3.5573008 0.93973577
11.501031 3.5707562 0.95759606
11.494764 3.5869241 0.95337385
11.484245 3.5968764 0.95668042
11.487287 3.6219902 0.94659138
11.475631 3.6243339 0.9573561
11.467079 3.6509154 0.95116156
11.464942 3.6582832 0.94077128
11.46902 3.670532 0.95161211
11.448612 3.6847336 0.94660079
11.44213 3.7042089 0.94424599
11.437446 3.7342484 0.93930489
11.4506 3.7429903 0.9544968
11.439509 3.7662041 0.94361311
11.431704 3.7774727 0.94182223
11.433786 3.7821207 0.94636106
11.426611 3.8032749 0.94147468
