# .PCD v0.7 - Point Cloud Data file format
VERSION 0.7
FIELDS x y z
SIZE 4 4 4
TYPE F F F
COUNT 1 1 1
WIDTH 1508
HEIGHT 1
VIEWPOINT 0 0 0 1 0 0 0
POINTS 1508
DATA ascii
-4.7456293 -3.1632371 1.9786884
-4.7348542 -3.1634727 1.9927981
-4.7411895 -3.1641798 1.9859397
-4.7278705 -3.1807327 1.9898864
-4.7223463 -3.1758041 1.9822054
-4.7262678 -3.1829126 1.9804677
-4.7110705 -3.189168 1.9931618
-4.7076969 -3.2060094 1.9931294
-4.6993747 -3.2018509 1.9970728
-4.7095408 -3.2230053 1.9923226
-4.6987176 -3.2238421 1.9947032
-4.6940556 -3.2183223 1.9834791
-4.6952744 -3.2435653 1.9981725
-4.6833425 -3.2399259 1.9829316
-4.6874552 -3.255208 1.9792315
-4.6792393 -3.258867 1.995029
-4.6727519 -3.2517929 1.9911709
-4.6735616 -3.2658186 1.9970651
-4.6543946 -3.2760048 1.993705
-4.6512752 -3.2808495 1.9957715
-4.6528964 -3.2793717 1.9835761
-4.6521282 -3.2977419 1.9834688
-4.6425753 -3.3018508 1.9846808
-4.6383195 -3.2985563 1.996088
-4.6292958 -3.3039122 1.9787626
-4.6239629 -3.3255987 1.9843214
-4.6228237 -3.3253543 1.9834908
-4.6255336 -3.3304846 1.995165
-4.6223402 -3.341022 1.9831769
-4.6024976 -3.3530231 1.9928619
-4.6005797 -3.3512378 1.9905357
-4.5908484 -3.3532858 1.9963441
-4.6012154 -3.3703909 1.984542
-4.5903611 -3.3678598 1.9825262
-4.5880909 -3.3809338 1.98164
-4.583137 -3.3933122 1.985546
-4.5726156 -3.3891983 1.9961689
-4.5629153 -3.3924499 1.9881275
-4.5615325 -3.3971725 1.9960082
-4.5521283 -3.4067266 1.9983406
-4.5530305 -3.4190452 1.9889047
-4.5562501 -3.4263244 1.9838607
-4.5536523 -3.4286709 1.9881446
-4.5428476 -3.4448729 1.9813862
-4.53405 -3.4435229 1.987974
-4.5261297 -3.441947 1.9885967
-4.5342946 -3.4545856 1.9797401
-4.5318274 -3.4622698 1.9940324
-4.5173931 -3.473325 1.9899954
-4.5150695 -3.4797397 1.9827913
-4.5104041 -3.4718285 1.9896487
-4.4951663 -3.4919176 1.9956006
-4.5049634 -3.4941988 1.9855729
-4.4904675 -3.4904742 1.9857035
-4.4827218 -3.5027595 1.9935372
-4.488379 -3.511941 1.9892938
-4.4734054 -3.5141125 1.9787515
-4.467279 -3.518651 1.9868585
-4.4668522 -3.5335984 1.9902365
-4.4704533 -3.5310736 1.9935198
-4.4612498 -3.5487442 1.9910271
-4.4451804 -3.556046 1.9947512
-4.44315 -3.5580232 1.9824935
-4.451139 -3.5703919 1.980253
-4.4389882 -3.5599101 1.9920126
-4.4389954 -3.5799904 1.9808698
-4.4232373 -3.5700097 1.9938272
-4.4180126 -3.578825 1.988511
-4.4246726 -3.592144 1.9945056
-4.4079461 -3.5940034 1.9892763
-4.407927 -3.6116076 1.9926207
-4.4103928 -3.6180987 1.9949006
-4.4091253 -3.6075253 1.9814337
-4.4001069 -3.629915 1.9818218
-4.393321 -3.6251371 1.9789081
-4.3747663 -3.6253576 1.9821239
-4.3873463 -3.6348205 1.9815227
-4.36696 -3.6440675 1.9983019
-4.3718815 -3.6449919 1.9879508
-4.3707995 -3.6542156 1.9819218
-4.354939 -3.6684551 1.9844633
-4.3557248 -3.6702037 1.986681
-4.3542228 -3.6757367 1.9856323
-4.346179 -3.6773117 1.9883474
-4.3377385 -3.6971698 1.9819869
-4.3322034 -3.7035508 1.9815449
-4.3234439 -3.707598 1.9977722
-4.3152771 -3.7163537 1.9908774
-4.3103228 -3.7151339 1.9891762
-4.3157115 -3.7179444 1.9843619
-4.3071203 -3.7300141 1.9914114
-4.295979 -3.7279987 1.9828089
-4.3026118 -3.7296185 1.9947628
-4.2902851 -3.7483404 1.9912233
-4.2952347 -3.7437761 1.9939007
-4.2865367 -3.7588391 1.9962646
-4.2782722 -3.770314 1.9806417
-4.2737718 -3.7588019 1.9823164
-4.2561579 -3.7675235 1.9912566
-4.2602372 -3.7868299 1.983425
-4.2491221 -3.7827501 1.989555
-4.2509494 -3.7927425 1.9837244
-4.2413707 -3.7945895 1.9822907
-4.23983 -3.8093398 1.9881448
-4.2418208 -3.8142781 1.9845653
-4.2211256 -3.8157649 1.9919175
-4.2180581 -3.8142426 1.9937823
-4.2106056 -3.8334835 1.9931394
-4.2214699 -3.8403823 1.9897475
-4.2033858 -3.8366406 1.9930146
-4.1931252 -3.8470724 1.9863195
-4.1967263 -3.8446279 1.9955827
-4.1861496 -3.8579099 1.988942
-4.1769986 -3.8549647 1.9934869
-4.1819859 -3.8593316 1.9790217
-4.1705437 -3.8683331 1.9889904
-4.1717415 -3.8796055 1.9863951
-4.1710663 -3.8887718 1.9904648
-4.1510258 -3.8941569 1.9935341
-4.1543689 -3.9068208 1.9862361
-4.1544371 -3.8945951 1.9943899
-4.141192 -3.9113498 1.990864
-4.1386757 -3.9229152 1.9799244
-4.1227922 -3.9307253 1.9977911
-4.1223559 -3.9289262 1.997144
-4.1163764 -3.941097 1.9933413
-4.1204205 -3.9398854 1.9841043
-4.1070514 -3.9434268 1.9915318
-4.1096048 -3.9523644 1.9793973
-4.0890808 -3.9500895 1.9804143
-4.0958467 -3.953335 1.9794647
-4.094451 -3.9687965 1.9875606
-4.0765734 -3.9672103 1.9898837
-4.0696268 -3.9752173 1.9901813
-4.205483 -4.1260018 1.9628327
-4.2011089 -4.1187668 1.9443055
-4.2005291 -4.1410766 1.9527518
-4.1891785 -4.1355257 1.9434108
-4.190392 -4.1380453 1.9508787
-4.1837316 -4.1455655 1.9463602
-4.1760464 -4.1653848 1.9443271
-4.169302 -4.1693487 1.952556
-4.1544542 -4.1609831 1.9480865
-4.1572747 -4.1712284 1.9613178
-4.1597896 -4.1822171 1.9471936
-4.1544228 -4.1945968 1.9461929
-4.1475744 -4.1921701 1.948763
-4.1322718 -4.2041736 1.962756
-4.1263022 -4.2031803 1.9600939
-4.1128569 -4.2013245 1.9557675
-4.1239219 -4.2175889 1.9574702
-4.1170115 -4.2129235 1.9610488
-4.1018648 -4.2192321 1.9588246
-4.0911794 -4.2341914 1.9521788
-4.0872545 -4.2375045 1.9603596
-4.077446 -4.2412968 1.9619678
-4.0886302 -4.2440953 1.9518021
-4.0772362 -4.2574544 1.9554236
-4.2078252 -4.4130797 1.9105986
-4.2048855 -4.418963 1.9086268
-4.186264 -4.4217973 1.9161568
-4.1859317 -4.4236164 1.9141102
-4.1820121 -4.4361916 1.911505
-4.1803093 -4.4239917 1.9196817
-4.1652436 -4.4337854 1.9102786
-4.1619892 -4.4396973 1.9228082
-4.1571183 -4.442728 1.9182557
-4.1424055 -4.4603071 1.9260527
-4.1440625 -4.4584422 1.9262896
-4.135314 -4.459795 1.9265248
-4.1285291 -4.4686918 1.9097981
-4.1342063 -4.4834299 1.9171166
-4.121922 -4.4804306 1.9177159
-4.1122346 -4.4819183 1.916362
-4.1143627 -4.4945388 1.9110525
-4.105886 -4.5101113 1.9256606
-4.0848718 -4.5070271 1.923059
-4.0884018 -4.5154529 1.9086903
-4.0841265 -4.511766 1.9219902
-4.079607 -4.5255694 1.9197322
-4.2063909 -4.6853094 1.8791409
-4.1981421 -4.6906905 1.8848114
-4.1825666 -4.6900496 1.8792498
-4.1863832 -4.6859927 1.8779602
-4.171546 -4.7103424 1.8898013
-4.1620102 -4.712502 1.8918121
-4.1578579 -4.7199421 1.8826402
-4.1562991 -4.7172146 1.8907677
-4.1491008 -4.7165232 1.8882976
-4.1485949 -4.7376304 1.8777308
-4.1303387 -4.7403011 1.8795969
-4.1174426 -4.7412624 1.8819547
-4.1188684 -4.7531953 1.8908169
-4.1058478 -4.7555008 1.8895907
-4.1141086 -4.7495322 1.8898603
-4.0905204 -4.7606001 1.8738064
-4.0849133 -4.7740951 1.8761395
-4.08847 -4.7726197 1.8870176
-4.0838914 -4.7905426 1.884396
-4.0817747 -4.7945633 1.8864663
-4.1976233 -4.9370303 1.8564332
-4.1839819 -4.9433098 1.8464423
-4.1879745 -4.957643 1.8502902
-4.1830964 -4.9655914 1.857595
-4.1594367 -4.9684453 1.8566211
-4.1554995 -4.9743633 1.8503234
-4.1476073 -4.9813342 1.8562648
-4.1373744 -4.9785304 1.8494066
-4.1362553 -4.9978242 1.8503414
-5.9793525 -2.9920151 1.8690449
-5.9820762 -3.0048776 1.8546566
-5.9637146 -3.0040298 1.8569107
-5.9625158 -3.025353 1.8530204
-5.9739332 -3.0262091 1.8691223
-5.9660411 -3.0406876 1.8706514
-5.9577684 -3.0532494 1.857865
-5.9514651 -3.0614369 1.8519531
-5.9385471 -3.0608432 1.852082
-5.9456182 -3.0745671 1.8515719
-5.9427571 -3.071125 1.8641132
-5.765945 -3.0035367 1.8859372
-5.7584682 -3.0126143 1.9031821
-5.7487259 -3.0047114 1.887454
-5.7428632 -3.0124557 1.8992141
-5.7408867 -3.0365498 1.904834
-5.7373705 -3.0366242 1.8862246
-5.7266288 -3.0346603 1.8877543
-5.7217884 -3.0440547 1.8981981
-5.7168074 -3.0648081 1.9032328
-5.7123256 -3.0669999 1.9000177
-5.7152915 -3.0715222 1.9016287
-5.7102046 -3.0927632 1.9022144
-5.5345812 -2.994487 1.9325325
-5.5280871 -3.0083053 1.929364
-5.5298219 -3.0043766 1.9301362
-5.5259261 -3.021172 1.938863
-5.5206289 -3.0314777 1.9375767
-5.5137911 -3.0412056 1.9349128
-5.5164986 -3.0502267 1.9195065
-5.5141611 -3.0590513 1.9299135
-5.4950275 -3.0551379 1.9237972
-5.4942722 -3.0704453 1.9244331
-5.4929209 -3.067729 1.9373506
-5.4950233 -3.0827165 1.924189
-5.3086014 -2.9867768 1.956472
-5.3132143 -3.0077929 1.9659042
-5.3090901 -3.0077426 1.9527521
-5.3062415 -3.0250964 1.9575875
-5.2860465 -3.0294101 1.9611114
-5.2812476 -3.0356493 1.9635144
-5.2860312 -3.047029 1.9575285
-5.2769213 -3.0419381 1.9639267
-5.2871647 -3.0597908 1.960727
-5.2644801 -3.0640523 1.9702193
-5.2749472 -3.0578909 1.9664536
-5.2669039 -3.0805342 1.9690996
-5.2694182 -3.0832555 1.9592181
-5.2650743 -3.0873411 1.9593992
-5.0861287 -2.9952464 1.9964598
-5.073545 -3.002558 2.0009027
-5.078548 -3.0188971 2.0013642
-5.0695271 -3.01038 1.9943092
-5.0740986 -3.0163713 1.9967879
-5.0618596 -3.0239527 2.0023859
-5.0601182 -3.0462866 2.0015199
-5.0621333 -3.0448725 2.0053792
-5.041492 -3.0502782 1.9938798
-5.0507221 -3.0556557 2.0056515
-5.0397615 -3.0761697 1.9966596
-5.0455132 -3.0682962 1.9874641
-5.0268126 -3.0896323 1.9890311
-5.0276403 -3.0861638 2.0062108
-5.0155134 -3.0914924 2.0044894
-5.0208979 -3.1088183 2.0022702
-5.0206742 -3.1086485 2.0047953
-5.0013075 -3.1147492 1.9958068
-4.9980712 -3.124474 1.9884787
-5.0063243 -3.1277046 2.0028331
-5.0027966 -3.1442597 2.0037279
-4.9882507 -3.1508617 1.9995443
-4.9828906 -3.1430681 2.0010667
-4.9759536 -3.1604166 1.993094
-4.971827 -3.1699626 1.9868225
-4.9694128 -3.1692276 1.9902494
-4.9692073 -3.1726131 2.000864
-4.9664674 -3.1809855 1.9923899
-4.9527059 -3.1904852 2.0011966
-4.9662633 -3.1926119 1.9937726
-4.9454565 -3.2155938 1.9967871
-4.9437451 -3.2084227 2.0001869
-4.9462075 -3.220294 1.9983619
-4.9471383 -3.2296407 2.0061634
-4.9360318 -3.2392833 1.9913878
-4.9311872 -3.2509429 2.0043101
-4.9229059 -3.2468388 2.0008035
-4.9240007 -3.2644458 1.9958749
-4.9135599 -3.2527525 1.9883906
-4.9143028 -3.2590868 2.0057175
-4.9024601 -3.2690947 1.9869943
-4.9075933 -3.2818811 2.0023675
-4.889317 -3.2816296 1.9927886
-4.8928566 -3.2868178 2.0007756
-4.8885846 -3.3054185 2.0060263
-4.8790789 -3.3037031 1.9865177
-4.8766413 -3.3182447 1.9980071
-4.8777008 -3.3184288 1.9987768
-4.8636794 -3.3327291 1.9981209
-4.8571329 -3.332339 1.9980054
-4.8532495 -3.3446829 1.9947503
-4.8480802 -3.346746 2.0055709
-4.8475285 -3.3551285 2.0034983
-4.8365459 -3.3716555 2.0030866
-4.8375669 -3.368525 1.9909167
-4.8333278 -3.3805134 1.9872985
-4.8285875 -3.3946977 1.9959682
-4.8323488 -3.3945847 1.9912773
-4.8153305 -3.405103 1.9991027
-4.8189588 -3.4137371 1.9941282
-4.8226933 -3.4031599 2.0036135
-4.8096738 -3.4120946 1.9978329
-4.8058238 -3.4251678 1.9904604
-4.8040376 -3.4319589 1.9933449
-4.8026533 -3.4444807 2.0061371
-4.7934294 -3.4374821 1.9937121
-4.7878146 -3.4504721 1.9938669
-4.7735205 -3.451961 2.0008924
-4.7839084 -3.4611795 2.0041504
-4.7664614 -3.4787829 2.0055187
-4.7739792 -3.4848871 2.0042019
-4.7520027 -3.4827471 2.0006814
-4.7557974 -3.5015421 1.9908119
-4.7469554 -3.503345 2.000869
-4.7552199 -3.5085673 2.0051153
-4.7306824 -3.5093789 2.0030642
-4.7385607 -3.5093982 1.9947206
-4.7262754 -3.5199552 1.9915787
-4.7269549 -3.5257406 2.0059025
-4.7243676 -3.5389292 1.9892999
-4.7204027 -3.5444958 1.9932635
-4.7177453 -3.5529547 2.0060308
-4.6985989 -3.5500865 1.9866599
-4.7093129 -3.5632639 1.9921359
-4.689961 -3.5696023 1.9990326
-4.6863532 -3.5763092 1.9917539
-4.6847878 -3.5758102 1.9910855
-4.6715565 -3.5879498 2.0064826
-4.681458 -3.6057031 2.0027099
-4.6770267 -3.6058116 1.9923573
-4.669189 -3.6069076 2.0030398
-4.6573782 -3.6103072 1.9918582
-4.652791 -3.6195314 1.9901327
-4.6475658 -3.6244493 2.0018108
-4.6368556 -3.635004 1.9937245
-4.6392393 -3.6469493 2.0054982
-4.6288929 -3.6423361 2.0043311
-4.6392059 -3.6495082 1.9975774
-4.6341124 -3.6716073 1.9996164
-4.6127825 -3.6743095 1.9880856
-4.6217966 -3.6742177 2.001991
-4.6001191 -3.6873679 1.9990214
-4.6096144 -3.6809928 1.9933455
-4.6008258 -3.6944637 1.9892625
-4.6003504 -3.7023044 2.0011282
-4.5879521 -3.717618 1.9875453
-4.5837712 -3.7076833 2.0050647
-4.5807481 -3.7131689 2.0018945
-4.5644703 -3.7186773 2.0031002
-4.5661445 -3.7279813 1.9880714
-4.5593405 -3.7314336 1.9995955
-4.5586219 -3.7383518 2.0044227
-4.5608644 -3.7599173 2.0020714
-4.5487738 -3.7578554 1.9926883
-4.5407572 -3.7604885 2.0018964
-4.5408659 -3.7759023 2.0022156
-4.5345488 -3.7723236 1.9988868
-4.5307035 -3.7909193 1.9964828
-4.5300198 -3.7984428 1.9949734
-4.508121 -3.7928555 1.9905556
-4.5012426 -3.8056879 1.9890739
-4.502831 -3.8030348 1.9870549
-4.4995837 -3.8078656 1.9898442
-4.4986787 -3.8258564 2.0010617
-4.4871483 -3.8210902 1.9960051
-4.4864006 -3.841701 2.0018861
-4.4853253 -3.8412721 1.9976903
-4.4675698 -3.8422837 2.0012357
-4.4722095 -3.8479061 2.0035872
-4.4583502 -3.8569336 1.997848
-4.4488997 -3.8643951 2.0055909
-4.4409223 -3.8787665 2.0022943
-4.4549556 -3.8752203 2.0004666
-4.4461904 -3.8761079 1.9869405
-4.426199 -3.8908126 2.0044653
-4.4312558 -3.8901262 1.9876568
-4.4304228 -3.8937297 1.9975473
-4.4137769 -3.9049511 1.9926884
-4.4135771 -3.9061952 1.988462
-4.4110169 -3.9189711 2.0014553
-4.3941879 -3.9276962 1.9932268
-4.389607 -3.9338531 1.9968593
-4.3883138 -3.93946 1.9902626
-4.3888402 -3.9417281 1.9889953
-4.382884 -3.9494395 1.9992328
-4.3793941 -3.9676511 1.9963585
-4.3727045 -3.9704816 1.9960752
-4.3561158 -3.9621272 1.9907569
-4.3643775 -3.9790418 1.9903736
-4.3568573 -3.9788742 2.0033858
-4.3563352 -3.9873641 1.9938364
-4.3440328 -3.9967675 2.0042863
-4.3280897 -4.0103817 1.9952774
-4.3387346 -4.0100346 1.9901412
-4.3306384 -4.0092521 2.0034263
-4.3122964 -4.0105085 2.0046251
-4.3168206 -4.0306139 1.9891105
-4.3016191 -4.0396762 1.9880604
-4.2917275 -4.0425558 1.9961975
-4.3022113 -4.043478 1.9905962
-4.299674 -4.0494499 2.0025916
-4.2866778 -4.0486999 1.9912618
-4.2832236 -4.0575957 1.9923886
-4.2687697 -4.0627337 1.9999256
-4.2594438 -4.0653811 1.9943005
-4.256824 -4.0753007 1.9934657
-4.2529979 -4.095367 1.9985654
-4.2446775 -4.0858626 2.000634
-4.2373991 -4.0921063 2.0058467
-4.2419753 -4.0944815 1.9961532
-4.2321444 -4.0999751 2.0064955
-4.23031 -4.1181374 2.0035877
-4.2197967 -4.1185179 1.997776
-4.208149 -4.1301265 1.9928106
-4.2089558 -4.1380978 1.9911736
-4.1953793 -4.129148 2.0055854
-4.2026296 -4.1420784 2.0058911
-4.184772 -4.1524024 2.0016534
-4.1848373 -4.1611714 1.9971162
-4.1796818 -4.1602473 1.9961404
-4.1842117 -4.1752319 1.9955988
-4.178391 -4.1741295 2.0028152
-4.1554704 -4.1882701 1.9955629
-4.1583529 -4.1765265 2.0026066
-4.146193 -4.1913624 1.9875746
-4.1556616 -4.1984019 1.9873803
-4.1307106 -4.1984811 2.0001357
-4.1254458 -4.2064991 1.9884386
-4.1244106 -4.2203879 1.9938365
-4.1279044 -4.2149348 2.0060139
-4.1123662 -4.2198329 1.9890542
-4.1173615 -4.2247396 1.999036
-4.0951324 -4.232564 2.0007083
-4.1001472 -4.2491164 1.9999471
-4.0981107 -4.2393627 1.9901648
-4.0910983 -4.2649403 1.9991491
-4.0842719 -4.2514367 1.9938527
-4.084682 -4.2585464 2.0063286
-4.2127399 -4.4132452 1.9569143
-4.1992345 -4.414784 1.97251
-4.193543 -4.4266872 1.9689732
-4.184803 -4.4294953 1.9662863
-4.1860728 -4.4359927 1.9615245
-4.1656628 -4.4534316 1.9659506
-4.1660051 -4.4547677 1.9658626
-4.1561222 -4.4550333 1.9659214
-4.1572466 -4.454423 1.9651992
-4.1436591 -4.4601808 1.9630744
-4.137588 -4.4640045 1.9546876
-4.12714 -4.4804955 1.970642
-4.121088 -4.4774766 1.9605652
-4.1185651 -4.4919081 1.9535431
-4.118721 -4.4938073 1.965878
-4.1036305 -4.501502 1.9666201
-4.1041059 -4.5157542 1.9718632
-4.104661 -4.5063457 1.9626688
-4.0851498 -4.524292 1.9599046
-4.0863523 -4.5348897 1.9571934
-4.0696721 -4.5256624 1.9564608
-4.0813704 -4.5322428 1.9650308
-4.1886172 -4.6858792 1.9286212
-4.1942167 -4.6966014 1.9373393
-4.1868305 -4.6937585 1.9299254
-4.1871009 -4.7021117 1.9205748
-4.1666212 -4.7172346 1.9227219
-4.1608901 -4.7192163 1.9200183
-4.1643457 -4.7279968 1.9251004
-4.150557 -4.724299 1.9253081
-4.1394715 -4.7302475 1.920457
-4.1291103 -4.7342296 1.9347315
-4.1301713 -4.7402897 1.9279115
-4.1338506 -4.7585053 1.9362403
-4.1288042 -4.755899 1.9332744
-4.1111631 -4.7601347 1.9278082
-4.1028647 -4.7704716 1.9330623
-4.0924115 -4.7816653 1.9221694
-4.0846539 -4.7829113 1.9283211
-4.0918059 -4.7969732 1.9239866
-4.078742 -4.7865624 1.9195101
-4.0705218 -4.7924109 1.9368496
-4.1953783 -4.9564099 1.9001341
-4.1794772 -4.9604425 1.9047645
-4.1752391 -4.9660735 1.8977714
-4.1739588 -4.9807162 1.8923025
-4.1581364 -4.9737215 1.9022483
-4.157052 -4.9829421 1.8867419
-5.9812422 -3.007756 1.9136282
-5.9774218 -3.0088043 1.9186656
-5.9769278 -3.0109155 1.9136236
-5.967628 -3.0161037 1.9058323
-5.9667091 -3.0283382 1.9135789
-5.9735003 -3.0339799 1.902337
-5.9551177 -3.0467129 1.9126197
-5.9608126 -3.0648317 1.9182134
-5.9475846 -3.0610838 1.9158621
-5.9526906 -3.0771599 1.9053183
-5.7727337 -2.9973421 1.9381431
-5.7753043 -3.0085912 1.9459505
-5.7528262 -3.0035582 1.9400129
-5.7553792 -3.013449 1.9372476
-5.7457118 -3.0266562 1.9506024
-5.7482867 -3.0309012 1.9466642
-5.7420921 -3.0410223 1.9383355
-5.745604 -3.0411084 1.9402246
-5.7435107 -3.052248 1.9341925
-5.7237573 -3.072787 1.9404091
-5.7345371 -3.0728464 1.94383
-5.7248216 -3.0796657 1.9440701
-5.5536637 -2.9943531 1.9697468
-5.5421872 -3.0094173 1.9812479
-5.5334654 -2.9990373 1.9675924
-5.5313783 -3.0154667 1.9777362
-5.5332184 -3.0299475 1.9657977
-5.5233765 -3.0321968 1.9818059
-5.5116343 -3.0366209 1.9747014
-5.5259137 -3.0455711 1.9750787
-5.5139661 -3.0495911 1.9834116
-5.4985862 -3.0681975 1.9729339
-5.5029559 -3.0735831 1.9819173
-5.4939795 -3.0716851 1.983591
-5.4934907 -3.0852687 1.9833932
-5.314755 -3.0039895 2.00685
-5.3178926 -3.0055256 2.0112214
-5.3129578 -3.0214558 2.0010746
-5.312005 -3.009891 2.0142286
-5.2981462 -3.0168631 2.0061514
-5.3038998 -3.0361559 2.0017672
-5.3013101 -3.044348 2.0064836
-5.2891874 -3.0411997 2.0135157
-5.2880716 -3.0533755 2.0101409
-5.2852712 -3.0693743 2.0008712
-5.2826586 -3.0628517 2.0035739
-5.2689204 -3.0836635 2.0121775
-5.2708001 -3.0837486 2.0122819
-5.2628169 -3.0870984 2.0113766
-5.2616692 -3.1008177 2.0109186
-5.2485881 -3.1045291 1.9985813
-5.259881 -3.1098998 2.0054593
-5.2464471 -3.1274073 2.0028872
-5.2459712 -3.1280684 2.0155349
-5.2288599 -3.1302092 1.9995736
-5.2410078 -3.1540277 1.9975187
-5.230443 -3.1484082 2.0020294
-5.2312641 -3.1489794 2.0138268
-5.2119708 -3.1658881 2.00964
-5.2135725 -3.1659803 1.9990932
-5.2156219 -3.1773331 2.0121887
-5.2099986 -3.1843307 2.0072608
-5.1974874 -3.2022567 2.0121667
-5.1875377 -3.2040787 2.003747
-5.1849303 -3.213172 2.0005152
-5.1782742 -3.218806 2.0007882
-5.1736631 -3.2182782 2.0139973
-5.1845307 -3.2229846 2.0139458
-5.1835909 -3.232821 2.0042901
-5.1668277 -3.2486928 2.0018404
-5.1606016 -3.2510574 2.0153301
-5.1612697 -3.2522528 2.0091078
-5.1468554 -3.2654006 2.0122395
-5.1475253 -3.273073 2.0008223
-5.1566048 -3.2826223 2.0075791
-5.1489058 -3.29001 2.0159626
-5.140924 -3.2972906 2.0121286
-5.1397233 -3.2999537 2.0108361
-5.1385641 -3.3062015 2.0069494
-5.1270504 -3.3202212 2.0144265
-5.1179762 -3.3325593 2.006768
-5.1154027 -3.3301206 2.005137
-5.119041 -3.3378327 1.9975747
-5.0995378 -3.3507898 2.0095501
-5.0914421 -3.3574116 1.9991798
-5.0965791 -3.3609295 2.0086193
-5.0933232 -3.3610711 1.997969
-5.0938911 -3.3846271 2.0118401
-5.0757418 -3.391649 2.0066411
-5.0814691 -3.3917923 2.0145941
-5.0797091 -3.387507 2.0173736
-5.065598 -3.4053032 2.0097506
-5.0531082 -3.4114032 2.0015671
-5.0481706 -3.4226749 2.0075722
-5.0512476 -3.430536 2.0140946
-5.0446849 -3.4282296 2.004231
-5.0486732 -3.4473722 2.0013516
-5.0433016 -3.4517975 2.0020356
-5.0240493 -3.4627981 2.0028102
-5.0299859 -3.4642608 2.0105474
-5.0279598 -3.4687088 2.0096693
-5.0231442 -3.4837999 1.9980875
-5.0059423 -3.4911656 2.0074921
-5.0169139 -3.478368 2.0127041
-5.0018706 -3.4934316 2.0171278
-5.0002952 -3.5067267 2.0109236
-4.9885736 -3.5088139 2.0126364
-4.9997215 -3.5103433 2.0169764
-4.9901757 -3.5174439 2.0173616
-4.9798455 -3.5353146 2.0033231
-4.9817686 -3.5360026 2.011869
-4.96456 -3.5367281 2.0123491
-4.9589233 -3.5451145 2.0124824
-4.9638724 -3.549345 2.0124252
-4.9636002 -3.5634143 2.0043094
-4.9588943 -3.5808003 2.0098968
-4.940383 -3.5713668 2.0003884
-4.9401488 -3.5779924 2.0163352
-4.9355655 -3.5999939 2.0121591
-4.9305873 -3.5965962 2.0170832
-4.9196377 -3.6000626 2.0082831
-4.9201331 -3.6112709 2.0057144
-4.9201384 -3.6218026 2.0017095
-4.9000006 -3.6222534 2.0004172
-4.8999109 -3.6274114 2.0119917
-4.907927 -3.6328528 2.0131094
-4.8903465 -3.6447814 2.0105829
-4.8822646 -3.6614847 2.0083461
-4.8782263 -3.6586227 2.0110159
-4.8783545 -3.6758101 2.0039842
-4.8735495 -3.6670856 2.0003808
-4.8775344 -3.6839032 2.0124559
-4.864079 -3.6857829 2.0008793
-4.8546185 -3.692591 2.0157247
-4.8464413 -3.704385 2.0122783
-4.8466797 -3.7092805 2.0102491
-4.8457913 -3.7216904 2.0031431
-4.8474197 -3.7311227 2.0061781
-4.8312755 -3.7216308 1.9989126
-4.8324523 -3.7373908 2.0012898
-4.8206511 -3.7334783 1.9992145
-4.8124442 -3.7586939 2.0071375
-4.8121529 -3.7556059 1.9999895
-4.8034282 -3.7682192 2.012835
-4.799849 -3.7778261 2.0006804
-4.7997069 -3.7728519 2.0104175
-4.7815843 -3.7921791 2.0145242
-4.7905588 -3.7983341 2.0159714
-4.7764888 -3.7935541 2.0136755
-4.7696748 -3.7951689 2.0023777
-4.7604742 -3.8102102 2.0017428
-4.7733397 -3.8222816 2.0026355
-4.7582731 -3.8193078 2.0133524
-4.7503448 -3.8328655 1.9981844
-4.7495623 -3.8281093 2.0001309
-4.7409248 -3.8484855 2.0137656
-4.7425408 -3.8560231 2.0147793
-4.7400408 -3.8578281 2.0163372
-4.7360845 -3.8708658 2.009367
-4.7144151 -3.8624015 2.0074661
-4.7240338 -3.8700581 2.0172009
-4.7142787 -3.8759108 2.0015337
-4.7036214 -3.8920364 2.0155022
-4.7022381 -3.9055834 2.0025673
-4.6960135 -3.9037058 2.0010357
-4.6878333 -3.9185586 2.0057676
-4.6860094 -3.9204044 2.009594
-4.6831622 -3.9251363 1.9982394
-4.6787486 -3.9313076 2.0004642
-4.6612959 -3.9412136 1.9977628
-4.6657343 -3.9461527 2.0140064
-4.6604295 -3.9467595 2.0109916
-4.6507826 -3.962141 1.9984378
-4.6471581 -3.961581 1.9989159
-4.6364594 -3.9602468 2.007843
-4.6272831 -3.976192 2.0084813
-4.6333661 -3.9757822 2.0138299
-4.6156139 -3.9780035 2.0009952
-4.6092067 -4.001298 2.0085299
-4.6205659 -3.992636 2.0126917
-4.6146178 -4.0139184 1.99844
-4.5924168 -4.0154099 2.0100992
-4.5932217 -4.0127778 2.0128868
-4.5865712 -4.0320544 2.002737
-4.5794339 -4.0261736 2.0004158
-4.5833602 -4.0366673 2.0086362
-4.5666394 -4.0388041 2.0037456
-4.5645614 -4.0487571 2.0031047
-4.5553093 -4.0578809 2.0056331
-4.5585132 -4.0639505 2.003279
-4.5575461 -4.0696678 2.0060904
-4.5508223 -4.0787888 2.0138505
-4.5324302 -4.0743284 2.0106745
-4.5312419 -4.0888405 2.0146465
-4.5201941 -4.1018472 2.0109155
-4.5114589 -4.1044207 2.0030994
-4.5144944 -4.1159229 1.9995474
-4.5024123 -4.1110053 2.0124352
-4.5109615 -4.1225033 2.0025842
-4.496974 -4.1228809 2.0130403
-4.4853315 -4.1279774 2.0041482
-4.490869 -4.1320434 2.012496
-4.4886374 -4.1434207 2.0116572
-4.4695735 -4.1593213 2.0026515
-4.4665284 -4.1498947 2.0069764
-4.4672055 -4.1574626 2.0150568
-4.4556904 -4.1738038 1.997956
-4.4477186 -4.1838102 2.0120857
-4.4468498 -4.1881213 2.0010228
-4.4358234 -4.1842098 2.0158789
-4.4343328 -4.1944294 2.0119276
-4.4217253 -4.1959682 2.0101907
-4.4207611 -4.2010665 2.0033495
-4.4206271 -4.2129002 2.0068724
-4.4094906 -4.2274976 2.006078
-4.3940206 -4.2285895 2.0039644
-4.390461 -4.2239919 2.0117495
-4.3839941 -4.2372565 2.0157607
-4.383389 -4.255496 2.0016842
-4.3738379 -4.2485614 1.9977354
-4.3694224 -4.265996 2.0097744
-4.3689494 -4.2566919 2.006474
-4.3702049 -4.2723022 2.0042665
-4.3582931 -4.273665 2.016408
-4.3428497 -4.2897863 2.0001266
-4.3481922 -4.2963409 2.00892
-4.33564 -4.2852483 2.0084691
-4.3352942 -4.2936096 2.0009034
-4.3309288 -4.3072948 2.0012398
-4.320631 -4.3173676 2.0146444
-4.3142743 -4.3089709 2.0167394
-4.3158693 -4.326056 2.0142548
-4.3007569 -4.3303604 2.0022683
-4.2878437 -4.3287253 2.0150192
-4.2827802 -4.3376269 1.9977404
-4.2739902 -4.3578606 1.9999903
-4.2763982 -4.3515396 1.9994076
-4.2792487 -4.3708782 2.01653
-4.2696562 -4.3718662 2.0060253
-4.2597194 -4.3685799 2.011498
-4.2563696 -4.3849673 2.0114083
-4.2509165 -4.3889899 2.0002663
-4.2479401 -4.3839483 2.0108442
-4.2369413 -4.3920498 2.0090735
-4.2331839 -4.4011531 2.0044081
-4.2266965 -4.4075389 2.0055082
-4.2179508 -4.4224148 1.9989198
-4.2097802 -4.4262314 1.9989746
-4.2044783 -4.4265537 2.0040147
-4.1896729 -4.4230461 1.9983066
-4.1893873 -4.4423037 2.0021672
-4.1891828 -4.4422312 2.0079527
-4.1801119 -4.4453135 2.0047193
-4.1804552 -4.4635372 1.999315
-4.1625609 -4.4641514 2.0107298
-4.1693239 -4.4644346 2.0016716
-4.1549788 -4.4821367 2.0036423
-4.1472139 -4.4778409 2.0076933
-4.1393862 -4.4944243 2.017309
-4.1265101 -4.4823918 2.0163114
-4.1193342 -4.4962711 2.0019267
-4.1282897 -4.4961514 2.0134759
-4.1114516 -4.5131745 2.0077958
-4.1178389 -4.5167627 2.0097361
-4.109622 -4.528687 2.0168979
-4.089983 -4.5336127 2.0096033
-4.0993938 -4.5304394 2.0104244
-4.0868258 -4.5457554 2.0013509
-4.070199 -4.539506 2.0014942
-4.0639486 -4.5466514 1.9994619
-4.1901541 -4.7001085 1.9769921
-4.1990647 -4.7017822 1.9727578
-4.1764174 -4.7129121 1.9772657
-4.1794419 -4.716732 1.9839419
-4.1805182 -4.7186456 1.9844418
-4.1544247 -4.7272382 1.9657551
-4.1556172 -4.7315688 1.9759721
-4.1559811 -4.7496653 1.9765942
-4.1454101 -4.7374783 1.9691782
-4.1346874 -4.7453904 1.9803205
-4.1259894 -4.7544007 1.9709092
-4.1274118 -4.758893 1.9656938
-4.11306 -4.7673178 1.9752084
-4.1141925 -4.785356 1.9667541
-4.1086407 -4.7910671 1.9822278
-4.102581 -4.7972889 1.9749409
-4.0952001 -4.7913165 1.969147
-4.0775943 -4.7923284 1.9710699
-4.0793581 -4.8093982 1.9709851
-4.0685301 -4.8023825 1.968783
-4.1938572 -4.9641366 1.9510156
-4.1810713 -4.9633212 1.9468741
-4.1734929 -4.9748149 1.9400749
-4.1763921 -4.9941101 1.9409957
-5.9907174 -2.991097 1.9572892
-5.9992547 -3.0106006 1.9603772
-5.9849534 -3.0078056 1.9606879
-5.9806304 -3.0174289 1.9497908
-5.9853077 -3.0296865 1.9635297
-5.9877553 -3.0444384 1.9600152
-5.9754629 -3.0412154 1.9516892
-5.9687443 -3.051744 1.9554899
-5.9746261 -3.0679166 1.9497961
-5.9690428 -3.0713716 1.9547873
-5.9658804 -3.0807543 1.967064
-5.7783637 -2.9918289 1.9991232
-5.7832518 -3.0036008 1.9914614
-5.767818 -3.0152667 1.9825523
-5.7632704 -3.0158381 1.9897559
-5.7649722 -3.0230975 1.9905717
-5.7501779 -3.042316 1.9829692
-5.7436976 -3.0390794 1.9931904
-5.7534056 -3.0459998 1.9955854
-5.7487965 -3.0516233 1.9828662
-5.7391849 -3.058383 1.9890984
-5.7372851 -3.0773129 1.981546
-5.7342129 -3.0853257 1.9902993
-5.7187915 -3.0821104 1.9954585
-5.7122684 -3.0985639 1.988112
-5.7185302 -3.1009476 1.9815662
-5.7039647 -3.1127758 1.9838561
-5.7169909 -3.1223743 1.9974307
-5.6997848 -3.1259427 1.9921271
-5.7001724 -3.1291745 1.9892359
-5.6932678 -3.147079 1.9876155
-5.7001204 -3.1473789 1.9950892
-5.6945143 -3.1689134 1.9825683
-5.6801434 -3.1793439 1.9812751
-5.6806026 -3.1875799 1.9915344
-5.6683969 -3.1864178 1.9874102
-5.6627259 -3.1950414 1.9994519
-5.6547542 -3.2010534 1.9898828
-5.6531968 -3.2142327 1.9847273
-5.6569319 -3.2121842 1.9843154
-5.6435471 -3.227627 1.9939688
-5.6517715 -3.234329 1.9912857
-5.6325116 -3.2398424 1.9950253
-5.645761 -3.2554142 1.9962853
-5.6402931 -3.2558849 1.9972541
-5.6245546 -3.2686012 1.9873239
-5.6329293 -3.2801087 1.9967022
-5.6092515 -3.2881176 1.9879947
-5.6151319 -3.2990532 1.9940277
-5.6061568 -3.2982194 1.9900229
-5.5975823 -3.3085072 1.9984826
-5.5993438 -3.3115368 1.9881413
-5.6037774 -3.3198345 2.0001812
-5.5844603 -3.3259215 1.9845378
-5.5838723 -3.3310907 1.9963057
-5.5823045 -3.345083 1.983233
-5.5706563 -3.3520222 1.9865218
-5.5696187 -3.3598671 1.9896647
-5.5772781 -3.3581862 1.9897282
-5.5588932 -3.3721356 1.9984756
-5.5645022 -3.3821268 1.9847788
-5.5616407 -3.3985062 1.9958894
-5.5491099 -3.4039574 1.9865328
-5.5445285 -3.4147403 1.9989134
-5.5355792 -3.409595 1.9939424
-5.5348511 -3.4275529 1.9827902
-5.5271854 -3.438544 1.9925033
-5.5162196 -3.4331901 1.9821695
-5.5221004 -3.4401989 1.9813077
-5.5079069 -3.453537 1.9942816
-5.5049553 -3.4572091 1.9850426
-5.5156898 -3.4627557 1.9871956
-5.4953032 -3.4805181 1.9916627
-5.504262 -3.4784565 1.9931052
-5.5008292 -3.492214 1.9874444
-5.482357 -3.4900227 1.9915708
-5.4750266 -3.5049555 1.9924444
-5.477972 -3.5137236 1.9864035
-5.4712405 -3.5131838 1.9810787
-5.4653602 -3.523273 1.9901341
-5.4664955 -3.5352435 1.9832288
-5.4568586 -3.5427923 1.9984813
-5.4450588 -3.5548084 1.9836693
-5.4487805 -3.5606487 1.9986101
-5.4510498 -3.5679326 1.9874778
-5.4389687 -3.5816309 1.986214
-5.4227509 -3.5728958 1.9976879
-5.4256487 -3.5920143 1.9880576
-5.414577 -3.5893204 1.9866238
-5.4088192 -3.6056755 1.9827509
-5.4139957 -3.6081057 1.9945506
-5.4060669 -3.62585 1.9864377
-5.4028749 -3.6367557 1.9939378
-5.3944845 -3.6363552 1.98322
-5.3911424 -3.6432066 1.9928336
-5.3789225 -3.6429701 1.9963572
-5.3879557 -3.6515195 1.9962173
-5.3855047 -3.6679814 1.9845531
-5.372673 -3.6783965 1.9831704
-5.3612652 -3.6880894 1.9930129
-5.3537197 -3.688005 1.9879985
-5.3543639 -3.7050483 1.9928058
-5.3431106 -3.7039669 1.9942667
-5.3443465 -3.719573 1.98368
-5.3362899 -3.7169254 1.9937869
-5.3386092 -3.7271566 1.991668
-5.3373947 -3.7315307 1.9885303
-5.3163095 -3.7385731 1.9964542
-5.3268781 -3.7579145 1.9814796
-5.3188195 -3.7509887 1.9843211
-5.3009076 -3.7616687 1.9947492
-5.3079996 -3.7781544 1.9956286
-5.2902741 -3.7685587 1.9850768
-5.2910771 -3.785382 1.9863994
-5.2824569 -3.7993417 1.9978426
-5.2837195 -3.8008242 1.9865202
-5.2670903 -3.8063061 1.9982824
-5.2735887 -3.815927 1.9904534
-5.2721529 -3.8213513 1.9907267
-5.2656813 -3.8239615 1.9853624
-5.2563581 -3.833915 1.9967475
-5.2565966 -3.8362267 1.9990687
-5.2359452 -3.8460886 1.9983999
-5.2458353 -3.8620405 1.9883151
-5.2343926 -3.8746686 1.9916703
-5.2314968 -3.8738661 1.9809351
-5.219913 -3.8817518 1.992103
-5.216557 -3.8814635 1.9810274
-5.2210197 -3.9050775 1.9918976
-5.2051988 -3.9075677 1.9875201
-5.1947322 -3.9060934 1.980544
-5.1928701 -3.9102261 1.9986038
-5.1886768 -3.9190862 1.9941416
-5.185142 -3.9232259 1.98106
-5.1716819 -3.9413223 1.9826754
-5.1748567 -3.9419324 1.9924105
-5.1687565 -3.9563785 1.9815698
-5.1714783 -3.9528983 1.9983194
-5.1652656 -3.9593208 1.9987497
-5.1481729 -3.9753728 1.9839767
-5.155447 -3.9864187 1.9979576
-5.1496878 -3.9810731 1.9950776
-5.1258583 -3.9970148 1.9906013
-5.1264811 -3.9949129 1.989242
-5.1201754 -4.0048518 1.9970348
-5.1122446 -4.0234766 1.9914585
-5.1145682 -4.021522 1.9986696
-5.1077232 -4.0278206 1.9965864
-5.1041183 -4.0334482 1.9952986
-5.1000729 -4.0475335 1.9851688
-5.0907907 -4.0544553 1.9911956
-5.0875177 -4.0611887 1.9897623
-5.0871148 -4.069674 1.9995742
-5.0711784 -4.084374 1.998667
-5.076591 -4.0783701 1.994992
-5.0542011 -4.0900459 1.9998555
-5.0573778 -4.0896678 1.9938288
-5.0533333 -4.1080756 1.9886508
-5.051362 -4.1085196 1.9849854
-5.0306692 -4.11057 1.9943659
-5.0400958 -4.1289992 1.9839489
-5.0234861 -4.1298265 1.9939145
-5.0282998 -4.1359324 1.9825025
-5.0232916 -4.1517925 1.9834905
-4.9991813 -4.1587667 1.9975749
-4.9987359 -4.1690617 1.9870672
-4.9934173 -4.1682539 1.984014
-4.9941154 -4.1691322 1.9896212
-4.9799819 -4.1737795 1.9818443
-4.9895043 -4.1834841 1.9990692
-4.969636 -4.1883759 1.9849089
-4.9601755 -4.2024274 1.9969569
-4.9607391 -4.2070723 1.9899272
-4.9527059 -4.2124987 1.9940571
-4.9436741 -4.2196136 1.9982246
-4.9405489 -4.2320924 1.9991007
-4.9479213 -4.2450714 1.98778
-4.9383373 -4.2445769 1.9825683
-4.9231367 -4.2557874 1.9996881
-4.9157028 -4.2623677 1.9940745
-4.9110351 -4.2549381 1.990532
-4.9005175 -4.2639151 1.9998926
-4.8979425 -4.2793331 1.9915546
-4.9023881 -4.292604 1.9847283
-4.8826938 -4.2827401 1.997717
-4.8788223 -4.2956567 1.9851487
-4.8740654 -4.3018618 1.9865149
-4.88062 -4.3044081 1.9952806
-4.8723764 -4.3176889 1.9997327
-4.8670034 -4.3294806 1.9844928
-4.8472347 -4.3225584 1.9835627
-4.8509989 -4.3310828 1.9805276
-4.8453927 -4.3430057 1.9889382
-4.8281155 -4.3453565 1.9909328
-4.8376551 -4.3540058 1.9896382
-4.8141966 -4.3647857 1.9822654
-4.823297 -4.3768201 1.9955176
-4.8110218 -4.3814301 1.9930451
-4.8099713 -4.3838272 1.9841052
-4.8044591 -4.3868914 1.9901783
-4.794178 -4.3962364 1.9899698
-4.7848172 -4.4154048 1.9880248
-4.7784824 -4.4150352 1.9809363
-4.7837272 -4.4234667 1.9982678
-4.7669687 -4.427525 1.9937124
-4.7714953 -4.4342217 1.9851309
-4.7633853 -4.4361248 1.9912601
-4.7420139 -4.4518681 1.9995159
-4.7431054 -4.4526863 1.9921029
-4.7331276 -4.4541264 1.9883454
-4.7370677 -4.4714293 1.981954
-4.7212071 -4.4655242 1.9830967
-4.727282 -4.4794469 1.9913026
-4.7204366 -4.4847865 1.9977623
-4.7162499 -4.499548 1.9868402
-4.69661 -4.5050268 1.9958897
-4.6855421 -4.508595 1.9896953
-4.6883359 -4.5170007 1.994408
-4.6828647 -4.5127168 1.9849448
-4.6847973 -4.524682 1.9806744
-4.6704783 -4.5268245 1.9857258
-4.6625419 -4.5393519 1.9832977
-4.6534534 -4.5442095 1.9935542
-4.6561499 -4.5484858 1.9850696
-4.6523776 -4.5548491 1.9884126
-4.6395183 -4.5678554 1.9928578
-4.6376004 -4.5760851 2.0003066
-4.6218681 -4.57341 1.9859127
-4.6214137 -4.5915742 1.9823574
-4.610414 -4.59799 1.993382
-4.6036754 -4.5964155 1.9888011
-4.5918765 -4.6132421 1.9982206
-4.5824966 -4.6073265 1.9893013
-4.5828509 -4.6104631 1.9826158
-4.5716815 -4.6161928 1.996068
-4.5771594 -4.6354365 1.9830065
-4.5581837 -4.6391454 1.9881983
-4.5517502 -4.6335139 1.9825394
-4.5597019 -4.6538296 1.985182
-4.5511999 -4.6495547 1.9878652
-4.5316644 -4.6649604 1.9985704
-4.5367007 -4.6749954 1.9988878
-4.5323086 -4.6820869 1.9915502
-4.5168271 -4.6759791 1.9874964
-4.5080223 -4.6851568 1.9841248
-4.5057564 -4.686276 1.9879118
-4.4965434 -4.6948924 1.9943833
-4.5021296 -4.7035565 1.9928707
-4.4933662 -4.7066631 1.997418
-4.4819512 -4.727767 1.9926063
-4.467844 -4.7158432 1.998746
-4.4630232 -4.7354732 1.9811989
-4.4578762 -4.7372375 1.9828991
-4.4600582 -4.7500544 1.9970367
-4.4462852 -4.7406106 1.9883176
-4.4358754 -4.7554531 1.9847907
-4.4416695 -4.7676439 1.9989498
-4.4209833 -4.7719908 1.9907377
-4.4218016 -4.7741528 1.9857031
-4.4180636 -4.7714872 1.9858395
-4.3991289 -4.781311 1.984165
-4.3940458 -4.7929192 1.9891169
-4.3865008 -4.8059936 1.9985518
-4.3972473 -4.8078723 1.9814073
-4.373848 -4.8026094 1.9999354
-4.379159 -4.8135762 1.9898401
-4.3679881 -4.8169856 1.9937643
-4.3626494 -4.8263659 1.9995421
-4.3455148 -4.8432307 1.9893492
-4.3534064 -4.8430314 1.988004
-4.3411527 -4.8505802 1.9830074
-4.330565 -4.8597374 1.9925663
-4.3350172 -4.8680501 1.9952048
-4.3100262 -4.8738179 1.9821091
-4.3221707 -4.8629036 1.9804115
-4.3157792 -4.8840261 1.9938731
-4.2994742 -4.880712 1.9900417
-4.2992368 -4.8988023 1.9829367
-4.2932129 -4.8865094 1.9850649
-4.2773738 -4.9088678 1.9934804
-4.2628717 -4.9057407 1.9804258
-4.2733574 -4.9188032 1.9842832
-4.2542763 -4.9231033 1.9858875
-4.2525482 -4.9292054 1.9877741
-4.2439075 -4.9342546 1.9866158
-4.2369561 -4.9397225 1.9903663
-4.2365346 -4.9357047 1.9834526
-4.2199364 -4.9582767 1.9844606
-4.2104354 -4.9616609 1.9837641
-4.2187972 -4.9560499 1.9867022
-4.1987357 -4.9627895 1.9987507
-4.1917205 -4.9668756 1.9837106
-4.1808395 -4.9787493 1.990335
-4.1883464 -4.9757724 1.9968117
18.995615 0.001477909 0.1849201
19.005812 0.03504597 0.17859982
18.994661 0.068092152 0.18480858
19.00194 0.085764267 0.19081967
19.004234 0.11863285 0.1727296
18.996775 0.13745573 0.18327577
19.005068 0.16670701 0.18201125
18.993683 0.20204957 0.18119028
19.001724 0.21870665 0.18104963
19.000469 0.24756315 0.1883098
18.995291 0.2790294 0.18978772
19.007322 0.30070966 0.1783185
18.992998 0.33129445 0.17338036
19.004845 0.34924918 0.1795993
19.002665 0.38962728 0.19217196
19.002357 0.40271235 0.17705286
18.992561 0.42429423 0.18467061
19.001461 0.45472956 0.18111685
18.989504 0.49348333 0.18770644
18.99737 0.51129603 0.17663921
18.992458 0.54428166 0.19052538
18.988987 0.56968695 0.1795795
18.994011 0.60119146 0.1727066
18.994059 0.62500393 0.17727733
18.980289 0.64713544 0.17571567
18.999054 0.66949588 0.18072933
18.982664 0.70263129 0.18081591
18.993855 0.72527713 0.18482967
18.981455 0.75661242 0.18108991
18.975607 0.77649647 0.18865654
18.978655 0.81218934 0.18270344
18.975552 0.82516891 0.17565127
18.981466 0.86396587 0.17360038
18.980471 0.88364214 0.18885989
18.984009 0.91041648 0.17975001
18.985947 0.93686157 0.18650085
18.972864 0.96785831 0.17988874
18.97983 0.99102426 0.18942547
-6.0113754 -2.992157 2.0143907
-5.9958987 -3.0039706 2.0158887
-6.005671 -3.004972 2.0144601
-6.0024858 -3.0239854 1.9985938
-5.992321 -3.0393147 2.0118935
-5.9918547 -3.042592 2.0017505
-5.9857883 -3.0525699 2.0126657
-5.9744158 -3.0632834 2.0139031
-5.9721937 -3.0686438 2.0066669
-5.9729767 -3.0767086 2.0153022
-5.9616852 -3.0800512 2.009871
-5.9615674 -3.0921154 2.0010235
-5.95994 -3.098161 1.9995657
-5.9597292 -3.1052427 2.0074804
-5.9553733 -3.1063929 2.008445
-5.9377065 -3.1313217 2.0145061
-5.9301705 -3.1344402 1.9989572
-5.9317079 -3.1304538 2.0010564
-5.9319963 -3.1485255 2.006151
-5.9195089 -3.1516712 2.0115304
-5.9183755 -3.1678283 2.0019112
-5.9226608 -3.1681821 2.0085654
-5.9157829 -3.1712348 2.0175059
-5.9103508 -3.1784146 2.0076902
-5.8969927 -3.2055881 2.0050437
-5.9026585 -3.1994553 2.0057821
-5.9022512 -3.2101593 2.0117097
-5.8973818 -3.2267849 2.0099247
-5.8904018 -3.2280943 2.0183632
-5.8783154 -3.2413244 2.0119448
-5.8808379 -3.2378392 2.0176523
-5.8729687 -3.2630701 2.0112822
-5.8584332 -3.2658648 2.0101302
-5.8549466 -3.2676809 2.0100622
-5.8612638 -3.2806039 2.0110791
-5.8502159 -3.283669 2.0064805
-5.838418 -3.2908151 1.9994233
-5.8406816 -3.2975912 2.0039794
-5.8447185 -3.3018982 2.0154591
-5.8403053 -3.3186412 2.0019355
-5.8222995 -3.3224409 2.0001171
-5.8185749 -3.3429163 2.0012815
-5.8212085 -3.3534133 2.0078588
-5.8249831 -3.3449917 2.0008211
-5.808814 -3.3674672 2.0090551
-5.8116169 -3.3634856 2.0024123
-5.7990074 -3.3723087 2.0168054
-5.7934432 -3.3880093 2.0125976
-5.7833118 -3.3923721 2.0122521
-5.7816896 -3.3969586 2.0033262
-5.7735796 -3.4081874 1.9987564
-5.7672768 -3.4203508 2.0018606
-5.779798 -3.4198189 2.0026109
-5.7657309 -3.4277434 1.9999192
-5.7586899 -3.4441929 2.002882
-5.7634039 -3.4481497 2.0179498
-5.7547493 -3.4642131 2.012311
-5.7516904 -3.45944 1.9990819
-5.7528281 -3.469274 2.0095935
-5.7343001 -3.4822357 2.0036151
-5.7246871 -3.4918489 2.0144987
-5.7196326 -3.4999318 2.0013022
-5.7314625 -3.5053198 2.0167148
-5.7225308 -3.5214357 2.0122726
-5.71628 -3.5153172 1.9994447
-5.7070551 -3.5387301 2.0107167
-5.7027512 -3.5383174 2.0139754
-5.7040749 -3.5396862 2.0100503
-5.6986165 -3.5470438 2.0043275
-5.6826358 -3.5607359 2.0136728
-5.6926217 -3.5696886 2.0014281
-5.6717134 -3.5784714 2.0091164
-5.6839905 -3.5839801 1.9994258
-5.6608438 -3.5854645 2.0016217
-5.662128 -3.6056161 2.0179315
-5.6562295 -3.6014724 1.9988171
-5.6590476 -3.6179652 2.0080969
-5.6585965 -3.6207337 2.0039828
-5.6420588 -3.6230068 2.0004792
-5.6312332 -3.6342728 2.0112443
-5.6310511 -3.6405103 2.0010107
-5.6231027 -3.6508353 2.0099411
-5.6274552 -3.6584446 2.001303
-5.6214876 -3.6679256 1.9991134
-5.6133127 -3.6837201 2.004698
-5.6088171 -3.6786563 2.0023453
-5.603425 -3.7014623 2.0114117
-5.5887423 -3.7088792 2.0056143
-5.5981622 -3.7048323 2.0054414
-5.5910754 -3.715044 2.0018933
-5.5732121 -3.7301693 1.9999911
-5.5855722 -3.7424526 2.01564
-5.5689907 -3.744206 2.0115492
-5.5610361 -3.7451196 2.0058393
-5.5552607 -3.7629979 2.0121896
-5.563889 -3.7615309 2.0114515
-5.5548596 -3.7798331 2.0157478
-5.5367532 -3.7886243 2.0004601
-5.5444336 -3.7920191 2.0170457
-5.5322752 -3.7935207 2.0112381
-5.5236549 -3.8023643 2.018117
-5.5169258 -3.8087835 2.0005164
-5.5145369 -3.8238475 2.0089595
-5.5162282 -3.8361948 2.0042787
-5.5036182 -3.8280146 2.0095015
-5.5046477 -3.8337226 2.0039663
-5.5064044 -3.8556712 2.0078964
-5.4838538 -3.8647943 2.0107956
-5.4765801 -3.866889 2.0180526
-5.4727106 -3.882128 2.0115535
-5.4746375 -3.8740599 2.0039487
-5.4696751 -3.8845868 2.0176551
-5.4623027 -3.8980596 2.0040207
-5.4664764 -3.8985691 2.0057545
-5.4553204 -3.9118254 2.0033762
-5.4389305 -3.911478 2.002991
-5.4480653 -3.9182649 2.0083499
-5.4332595 -3.9278901 2.0122716
-5.435544 -3.9356411 2.0017767
-5.4305606 -3.9449322 2.0037129
-5.4120655 -3.961571 2.0013802
-5.421165 -3.9586787 2.0161757
-5.4165478 -3.973856 2.0051465
-5.4055538 -3.9786594 2.0012474
-5.3928161 -3.9977701 2.0117249
-5.4024458 -3.985965 2.0101745
-5.3924503 -4.008779 2.0094543
-5.3770852 -4.0022831 2.0067184
-5.3777876 -4.0235767 2.0038333
-5.3689752 -4.0254035 1.9992511
-5.3582153 -4.0342622 2.0056167
-5.3497782 -4.0377584 2.0024529
-5.3465347 -4.0421848 2.0116827
-5.3543105 -4.0611763 2.0036724
-5.3459744 -4.072999 2.0041068
-5.3271503 -4.0800314 2.0038936
-5.3298669 -4.0826583 2.0084059
-5.3332925 -4.095521 2.0069466
-5.3194442 -4.094697 2.0117173
-5.3084702 -4.0906825 2.0021777
-5.3020682 -4.1015406 2.0112875
-5.3092904 -4.1096039 2.0044014
-5.2996659 -4.1200771 2.0005817
-5.2808008 -4.1239891 2.005255
-5.2899361 -4.1452394 2.0055821
-5.2786269 -4.1533504 2.006346
-5.26752 -4.1498718 2.0119436
-5.2718911 -4.1555247 2.0121317
-5.2577109 -4.1730447 2.0005884
-5.25875 -4.1653166 2.0004964
-5.2493181 -4.1769233 2.0169754
-5.2507663 -4.1814981 2.0128117
-5.2390904 -4.2022057 2.0055878
-5.2312236 -4.209816 2.0018563
-5.2186737 -4.2123389 2.0042715
-5.2257862 -4.2093406 2.0059643
-5.2121248 -4.2210336 2.0185158
-5.2128558 -4.2429061 2.0127871
-5.193388 -4.2364178 2.0169024
-5.2054539 -4.2567968 2.0161018
-5.1976013 -4.2535839 2.0110428
-5.1932597 -4.257669 2.0087485
-5.1730719 -4.2759376 2.0130785
-5.1800976 -4.2722096 2.0171213
-5.1708446 -4.2818117 2.0059564
-5.1591663 -4.2844172 2.0050969
-5.1457853 -4.2992616 1.9998428
-5.1398425 -4.3007479 2.0000064
-5.1396189 -4.3086872 2.013941
-5.1352692 -4.3146234 2.01477
-5.1317105 -4.3186483 2.0060775
-5.1332002 -4.3242831 2.0005577
-5.1169748 -4.335691 2.0040181
-5.1164093 -4.3400965 2.0184469
-5.1117911 -4.3612309 2.0105057
-5.0983276 -4.3566785 2.0071831
-5.0857139 -4.364747 2.0162313
-5.0783443 -4.3728848 2.0110006
-5.0908012 -4.3868208 2.0050292
-5.0693135 -4.3824387 2.0003119
-5.0669866 -4.4005399 1.9987513
-5.0733428 -4.4061828 1.9987292
-5.0652084 -4.4216623 2.0144639
-5.0536041 -4.4226484 2.0129495
-5.0475612 -4.4250984 2.0174489
-5.0294495 -4.4401765 2.0136397
-5.0346503 -4.4487429 2.0088928
-5.0307932 -4.4560509 2.0031304
-5.012157 -4.4619379 2.0105464
-5.0194826 -4.4524684 2.0094492
-5.0115156 -4.466814 2.0173478
-5.0050993 -4.4736667 2.006691
-4.9986954 -4.4785466 2.0076342
-4.9965472 -4.4979935 2.0146623
-4.9759035 -4.4975777 2.0063026
-4.9707508 -4.5052414 2.0099182
-4.9693975 -4.5043068 2.0120125
-4.9727812 -4.5257254 2.0138347
-4.9619179 -4.5147281 2.0167975
-4.9436288 -4.5372863 2.0162485
-4.9464269 -4.5381174 2.008364
-4.9413171 -4.5387821 2.000628
-4.9268546 -4.5593023 2.0150046
-4.9314389 -4.5639434 2.0169187
-4.9289856 -4.5742192 2.006223
-4.9148827 -4.5656309 2.0148304
-4.8971543 -4.5819874 2.0113297
-4.8973217 -4.5880361 2.0133591
-4.895658 -4.5895386 2.0133255
-4.8910217 -4.5990796 2.0176647
-4.8869247 -4.5977559 2.0080945
-4.8707032 -4.6176686 2.0047731
-4.8622074 -4.6294751 2.0078361
-4.8593259 -4.6322317 2.0131536
-4.8545208 -4.6389108 2.0150819
-4.8404016 -4.6378717 2.012476
-4.837666 -4.6454992 2.0003819
-4.8384218 -4.6596985 2.0090995
-4.8371382 -4.6586471 2.003165
-4.8158789 -4.6593833 2.0145314
-4.8102713 -4.6824555 2.0140545
-4.8142238 -4.6757479 2.0004888
-4.8014889 -4.6869969 2.0019312
-4.8056812 -4.7018256 2.0074227
-4.7845469 -4.6983204 2.013032
-4.7814751 -4.7071762 2.0064681
-4.7809997 -4.7197862 1.9990555
-4.7726088 -4.7196507 2.0042133
-4.7554913 -4.724741 2.0171828
-4.7642994 -4.7350898 2.0161674
-4.7417312 -4.7463579 1.9988225
-4.7396307 -4.748116 2.0149179
-4.7310867 -4.7636852 2.0064883
-4.7210913 -4.7700028 2.0099447
-4.7255945 -4.7617512 2.0036123
-4.7244797 -4.7770019 2.0151203
-4.7099195 -4.7783608 2.0007057
-4.7027626 -4.7979217 2.0131044
-4.6904387 -4.7869678 2.007082
-4.6851363 -4.8114328 2.0173702
-4.68084 -4.7999511 2.0030406
-4.6738796 -4.8129988 2.0135937
-4.6708145 -4.824142 2.0152094
-4.6561699 -4.8319378 2.0171301
-4.6580596 -4.8308954 2.0139158
-4.6462727 -4.8354053 2.0020549
-4.6429687 -4.8520312 2.0154295
-4.6340704 -4.8481855 2.0158281
-4.6327643 -4.8587108 2.0137568
-4.6174717 -4.8706369 2.0137866
-4.6118817 -4.8649802 2.0118556
-4.6006122 -4.8790846 2.0034244
-4.5987806 -4.8768554 2.0103886
-4.5953245 -4.8867216 2.0160856
-4.5899386 -4.9052272 2.0093443
-4.5877581 -4.8987045 2.0046034
-4.5774293 -4.9156456 2.0097373
-4.5737171 -4.9104648 2.0052078
-4.5695977 -4.9307637 2.0166347
-4.5475407 -4.9225645 2.0026076
-4.5454445 -4.9355788 2.0006998
-4.5452709 -4.9441366 2.0111403
-4.5335193 -4.9576845 2.0102541
-4.5347943 -4.954607 2.0059354
-4.5103641 -4.9529829 2.0095356
-4.5126662 -4.976027 2.0060735
-4.4997005 -4.9756002 2.0120757
-4.5015917 -4.9783278 2.0096543
-4.4880042 -4.9838109 2.01332
18.981653 -0.96977133 0.18263103
18.985947 -0.94372046 0.17287508
18.976768 -0.9138431 0.18371367
18.976973 -0.90305424 0.18214551
18.982479 -0.86121976 0.18562132
18.974512 -0.85122299 0.17967586
18.983868 -0.82448506 0.18838264
18.989544 -0.78153133 0.18779415
18.992819 -0.7651577 0.19188474
18.995449 -0.73981285 0.18010136
18.982079 -0.71680796 0.17446996
18.993196 -0.69086456 0.18840893
18.99452 -0.65541649 0.18574286
18.986647 -0.6210444 0.18738146
18.997168 -0.60241038 0.18436857
18.991127 -0.57294846 0.18486477
18.999104 -0.55530208 0.18560962
18.99575 -0.53311187 0.18281725
18.991772 -0.48874232 0.18990602
18.991848 -0.46280149 0.17584561
19.000103 -0.45125183 0.17829466
19.002687 -0.40956971 0.18019028
18.999176 -0.38751113 0.19103575
18.992962 -0.3742376 0.1897538
18.988348 -0.33131728 0.18060511
19.000685 -0.31527439 0.17441639
18.993481 -0.2920545 0.17937097
19.006985 -0.25295085 0.1800116
18.99766 -0.23855197 0.17851655
18.995384 -0.20476738 0.17645614
18.999014 -0.18338044 0.17943822
19.005054 -0.16002265 0.17759439
18.992954 -0.12075507 0.19130027
18.991661 -0.10824383 0.19177005
19.00905 -0.080850385 0.18864977
18.997253 -0.041587669 0.17506132
18.999231 -0.029959526 0.17818107
19.026283 0.018297935 0.3127569
19.013777 0.03338223 0.31635413
19.019739 0.065873027 0.3272227
19.023603 0.081709862 0.31296453
19.030411 0.12334174 0.31555009
19.015339 0.15266424 0.3308889
19.013937 0.16052276 0.3122243
19.012966 0.20563529 0.31443831
19.028839 0.21885313 0.32940003
19.011086 0.25398749 0.32947478
19.016415 0.27599287 0.32777271
19.017418 0.3055099 0.31461161
19.021982 0.32104343 0.32739806
19.017378 0.36053303 0.32947817
19.018478 0.38696072 0.32664716
19.022127 0.39848262 0.32659581
19.021076 0.42880455 0.32786047
19.021326 0.4583962 0.32769543
19.02375 0.4841373 0.31420636
19.021101 0.51243931 0.32931018
19.01849 0.54642195 0.3198784
19.014139 0.56179631 0.31342316
19.01659 0.6021595 0.31596154
19.011789 0.61838013 0.31145027
19.009033 0.65619993 0.32682803
19.003408 0.67820448 0.32718983
19.017694 0.69973236 0.33133647
19.013208 0.72211915 0.31853846
19.008522 0.74757862 0.32494617
19.010307 0.77107251 0.31312138
19.00716 0.81267554 0.32874578
18.994545 0.83068556 0.31321204
18.995438 0.85194147 0.31151018
18.998831 0.8892296 0.31949872
18.997675 0.90463001 0.31877801
18.991861 0.93531168 0.31353399
19.006372 0.96122324 0.32329142
19.004992 0.98362923 0.32891044
-6.065115 -3.7106106 1.998952
-6.0628219 -3.7338502 1.9994634
-6.056354 -3.7426717 1.9930054
-6.059381 -3.7456317 1.9968736
-6.0523152 -3.7476163 2.0020916
-6.0376058 -3.7489765 1.9917958
-6.0373278 -3.7689886 2.0091794
-6.0269923 -3.773391 2.00951
-6.0265503 -3.7875133 2.0029852
-6.028193 -3.7911625 2.0022445
-6.0134702 -3.8070676 1.9980158
-6.0009532 -3.8058813 1.9990295
-6.0079126 -3.8234401 1.9996966
-6.0013189 -3.8292511 2.0058713
-5.9908447 -3.8332331 1.9985216
-5.995141 -3.8477542 1.9982644
-5.9897218 -3.8472576 2.0064406
-5.986907 -3.8616974 1.9986529
-5.9637499 -3.8609793 2.0051734
-5.9671059 -3.8671997 1.9964683
-5.9711914 -3.8840046 2.0002737
-5.9594936 -3.8936112 1.9936742
-5.9467702 -3.8955085 1.9979168
-5.9533687 -3.9161546 2.0047421
-5.9337802 -3.9116807 1.9959717
-5.9415302 -3.9168692 2.0010586
-5.9295259 -3.9420156 1.9950135
-5.9293337 -3.9497368 2.0028923
-5.9169173 -3.9597018 1.9998449
-5.9179692 -3.9584355 1.9989257
-5.9077148 -3.9666786 2.0095427
-5.8936429 -3.9686596 1.9988862
-5.8861594 -3.9833651 1.9946581
-5.8944216 -3.9901278 1.9981022
