# .PCD v0.7 - Point Cloud Data file format
VERSION 0.7
FIELDS x y z
SIZE 4 4 4
TYPE F F F
COUNT 1 1 1
WIDTH 1498
HEIGHT 1
VIEWPOINT 0 0 0 1 0 0 0
POINTS 1498
DATA ascii
0.16536124 -3.079361 1.5929072
0.1649373 -3.0758078 1.5791759
0.16614188 -3.0695398 1.5752349
0.17634133 -3.0635569 1.5822394
0.16895118 -3.0783763 1.5759776
0.1837109 -3.0799527 1.57511
0.17707136 -3.0671747 1.5906446
0.18341272 -3.0741127 1.5852818
0.18722226 -3.0722849 1.5810814
0.18538603 -3.0633249 1.581046
0.20516872 -3.0637383 1.5846897
0.20847465 -3.0688741 1.5916799
0.19804901 -3.0771036 1.5847251
0.20368198 -3.0794313 1.5835345
0.21631901 -3.0734465 1.5872993
0.22269382 -3.0769994 1.589257
0.22820061 -3.0714886 1.5837556
0.22924156 -3.0639329 1.5910734
0.22491936 -3.076864 1.5799699
0.23639625 -3.075927 1.5775713
0.24783729 -3.0595028 1.5744983
0.24292172 -3.0640678 1.5860225
0.24499586 -3.0633533 1.5890445
0.2601147 -3.0613003 1.5894597
0.25404242 -3.070904 1.5755746
0.27173454 -3.0584264 1.5778458
0.27138379 -3.0647352 1.5853307
0.26553112 -3.0742958 1.5800683
0.2669957 -3.0724709 1.5815659
0.27735627 -3.0634611 1.5836854
0.28531769 -3.0673015 1.581908
0.2902056 -3.0603483 1.5752385
0.28661719 -3.0556118 1.5889506
0.30605018 -3.0600462 1.5843768
0.30589786 -3.0548427 1.5898545
0.31185994 -3.056236 1.5874585
0.32009259 -3.0622687 1.5783968
0.31580964 -3.0584421 1.5794114
0.32626364 -3.0574386 1.581882
0.31821463 -3.0703616 1.5929877
0.33228442 -3.0596094 1.5798718
0.38143274 -3.6099496 1.3416576
0.38781071 -3.6063898 1.3394516
0.40790001 -3.6076806 1.3324119
0.40341485 -3.5934072 1.330171
0.40440646 -3.5974543 1.3261257
0.42300141 -3.5975509 1.3356309
0.41253379 -3.6062119 1.3285397
0.42308006 -3.5887001 1.3420233
0.43609613 -3.6035175 1.3421489
0.44021696 -3.5885448 1.3325857
0.4312211 -3.6055596 1.3339295
0.43567458 -3.6012311 1.3383007
0.45792112 -3.6018474 1.3408411
0.45312721 -3.5919821 1.337108
0.46609145 -3.5861576 1.3287741
0.45500961 -3.5867701 1.3397826
0.47343203 -3.5828807 1.341562
0.46476236 -3.5934756 1.3402785
0.4895753 -3.5960836 1.3235955
0.49451303 -3.5995994 1.341296
0.48988664 -3.5971384 1.3413857
0.48660317 -3.5952511 1.3252009
0.50768977 -3.5961432 1.3277897
0.51131582 -3.5868542 1.3396267
0.51120794 -3.5896256 1.336664
0.52276516 -3.5885019 1.3324577
0.52532989 -3.5939784 1.3315022
0.52967304 -3.5931463 1.339307
0.53273165 -3.5925219 1.3238512
0.53910625 -3.5919795 1.3242207
0.54318035 -3.5810826 1.3263845
0.54734313 -3.5784869 1.3297626
0.55532008 -3.5798218 1.3315681
0.54588473 -3.5825465 1.3419752
0.56828529 -3.5703943 1.3289168
0.56772196 -3.5716991 1.3362806
0.56295133 -3.5754521 1.3374594
0.57722425 -3.5798743 1.338755
0.57930064 -3.5662489 1.3399527
0.58592039 -3.571259 1.3409632
0.59290838 -3.5772042 1.3321345
0.60205919 -3.5639946 1.3251578
0.59458679 -3.5678153 1.336096
0.60891879 -3.5660772 1.323552
0.61365676 -3.5669434 1.3223958
0.60533518 -3.5733769 1.3391635
0.62437612 -3.5695837 1.3313997
0.62459469 -3.5765193 1.3384284
0.62610775 -3.5663791 1.3382901
0.62881726 -3.5746186 1.3323423
0.63253611 -3.5608685 1.3396429
0.64742488 -3.5629649 1.3393397
0.65533578 -3.5575297 1.3343956
0.65418363 -3.5627575 1.3303623
0.66048622 -3.5682409 1.3246284
0.66563129 -3.5670388 1.3316197
0.66754287 -3.5517869 1.3415561
0.68168926 -3.561307 1.3237015
0.68286312 -3.5543027 1.3351249
0.68389738 -3.549577 1.3374395
0.69898248 -3.566119 1.3326281
0.70136684 -3.5527577 1.3248372
0.70344675 -3.5564697 1.3415914
0.70058119 -3.5463166 1.3322208
0.71368092 -3.5548427 1.3364626
0.72104543 -3.5432041 1.3409957
0.71539992 -3.5546331 1.3398625
0.71968931 -3.5568933 1.3282845
0.72612274 -3.5429566 1.3227786
0.7439782 -3.5529606 1.3410597
0.74414682 -3.5528536 1.341853
0.73950267 -3.5553346 1.3350548
0.7470662 -3.5407071 1.323585
0.75138247 -3.553915 1.3413016
0.76632667 -3.5389919 1.3295184
0.76551121 -3.5416713 1.3283933
0.76922733 -3.5349622 1.3348519
0.7718088 -3.5489283 1.3380555
0.78281075 -3.5414238 1.3341948
0.7883054 -3.5410256 1.3393216
0.79207963 -3.545419 1.3235403
0.79664558 -3.5394154 1.3242557
0.79441184 -3.5308056 1.3385695
0.80070674 -3.5428355 1.3386393
0.80471665 -3.5248759 1.3325893
0.81694186 -3.5326846 1.3228098
0.82804048 -3.521729 1.3386827
0.82559597 -3.5331419 1.3395259
0.82635361 -3.5185015 1.3268028
0.84324884 -3.5233135 1.3334005
0.84526932 -3.5292971 1.3345202
0.85150689 -3.5156586 1.3405521
0.85845828 -3.5291965 1.3340954
0.85972178 -3.5213807 1.3345034
0.86105341 -3.5144944 1.3317591
0.85633337 -3.5203207 1.3400868
0.8618322 -3.519985 1.3382444
0.86320227 -3.5270283 1.3238562
0.88541383 -3.5182474 1.3229686
0.8749007 -3.5175028 1.3361223
0.89098346 -3.5196679 1.3421389
0.88818425 -3.5205235 1.3406335
0.89141518 -3.5193548 1.3244228
0.90818763 -3.5018477 1.3348539
0.90536648 -3.5079324 1.3309902
0.91979921 -3.503659 1.3401121
0.92255795 -3.498807 1.328375
0.9234724 -3.4975035 1.3283926
0.92999691 -3.4989052 1.3359826
0.93563205 -3.4957352 1.3231016
0.93441904 -3.5013959 1.3268334
0.93922091 -3.4947677 1.3284801
0.94251555 -3.4898183 1.3300595
0.94959766 -3.493005 1.3279032
0.94710898 -3.5039194 1.3384122
0.96075475 -3.4853058 1.3319379
0.96352059 -3.4888365 1.3290522
0.97454745 -3.4963541 1.3261997
0.98559004 -3.4822466 1.3406682
0.9842208 -3.4874017 1.3370225
0.98996866 -3.4786658 1.3264253
0.99944645 -3.4900224 1.3411586
0.990569 -3.4829764 1.3395364
1.0032691 -3.4737389 1.3334162
1.0138108 -3.4918785 1.3350635
1.0148596 -3.4812593 1.333999
1.0094322 -3.4727595 1.328072
1.0211171 -3.4781156 1.3332884
1.0299475 -3.4773104 1.3312668
1.0332445 -3.482754 1.3227376
1.0328938 -3.4673269 1.3415849
1.0419439 -3.4672978 1.3277098
1.0457252 -3.4610198 1.3395077
1.0478824 -3.4669135 1.3391635
1.0639174 -3.467135 1.339293
1.0615976 -3.4711759 1.3286483
1.0582113 -3.4655099 1.3251036
1.0688958 -3.4730229 1.3347957
1.0647948 -3.4565675 1.3238792
1.07867 -3.4616754 1.3260988
1.0840139 -3.4519918 1.322318
1.0882032 -3.4581144 1.3371322
1.0985152 -3.4653094 1.3367835
1.1006229 -3.4551992 1.3290937
1.1023843 -3.4539044 1.3397275
1.1042732 -3.4597771 1.3248595
1.1155152 -3.453882 1.3341893
1.1232104 -3.4421463 1.3345313
1.1205956 -3.4393535 1.329847
1.127062 -3.4475253 1.3385665
1.1357458 -3.4351907 1.3354746
1.1406466 -3.4435024 1.3247583
1.1403594 -3.4463358 1.3253382
1.1397214 -3.4318926 1.3345129
1.1513913 -3.4405172 1.3234605
1.1536928 -3.4320803 1.3250065
1.1611241 -3.4372261 1.3309119
1.1578829 -3.4394996 1.3270104
1.1749815 -3.4292088 1.3243527
1.1673934 -3.4372699 1.3319675
1.1885228 -3.4214637 1.3303543
1.1865579 -3.4255707 1.3388599
1.1938742 -3.414777 1.3229563
1.2017684 -3.429431 1.3399129
1.1988349 -3.4172227 1.3266554
1.2048466 -3.4275181 1.3402388
1.212402 -3.4151855 1.3270733
1.2058604 -3.4108949 1.3300246
1.2154151 -3.4143045 1.3416505
1.2223097 -3.4100983 1.3235921
1.2368168 -3.4095569 1.3397101
1.2297082 -3.4157722 1.3300846
1.2311029 -3.3994608 1.3296096
1.2365916 -3.4000423 1.3328307
1.2390344 -3.4083424 1.3266035
1.2482175 -3.3954132 1.3284178
1.2509813 -3.399709 1.3408946
1.2605773 -3.3953245 1.3359854
1.2731222 -3.4061608 1.3259836
1.2772906 -3.3948758 1.3384979
1.2833979 -3.3938546 1.329857
1.2856209 -3.3847106 1.3332973
1.278216 -3.3989379 1.3313392
1.2903335 -3.3924403 1.3270829
1.2856697 -3.3882613 1.3328031
1.2947762 -3.3796582 1.3297226
1.3056943 -3.3730478 1.3406097
1.3090868 -3.3815954 1.334138
1.3075677 -3.38235 1.3350801
1.3160441 -3.3836854 1.3255508
1.3170323 -3.3836601 1.3352793
1.3293769 -3.3661563 1.3323822
-2.642437 -2.986722 1.1888422
-2.6419513 -3.0035603 1.1963494
-2.6314635 -2.9906957 1.1983228
-2.6424716 -2.9947243 1.1904217
-2.6331737 -3.0022886 1.1843603
-2.6165531 -3.0016389 1.2005702
-2.617563 -3.0093777 1.1950033
-2.6180174 -3.0211477 1.1882577
-2.605736 -3.0155542 1.1953149
-2.6091161 -3.0312173 1.190967
-2.6057062 -3.0203748 1.1845394
-2.596323 -3.0332322 1.1849804
-2.5994279 -3.0397925 1.2019868
-2.600554 -3.0415571 1.1986595
-2.5895762 -3.0382252 1.1914573
-2.584655 -3.0424788 1.188588
-2.5835185 -3.051954 1.2016572
-2.567944 -3.0461001 1.186628
-2.5791101 -3.0521867 1.2008579
-2.5632138 -3.0658798 1.2030843
-2.5716605 -3.0603952 1.1998072
-2.5665298 -3.0697646 1.1873204
-2.5609531 -3.0664806 1.191915
-2.5583649 -3.0685701 1.1983811
-2.539099 -3.0839343 1.1918093
-2.5470304 -3.0786343 1.1846079
-2.5378261 -3.0764601 1.1915494
-2.5355477 -3.082979 1.187957
-2.5282936 -3.0849361 1.2018844
-2.5268044 -3.0952744 1.1857187
-2.5230842 -3.0983422 1.198632
-2.5226359 -3.1005664 1.1857642
-2.5146697 -3.1015065 1.1997626
-2.5021038 -3.1041558 1.1952475
-2.503067 -3.1118417 1.1989388
-2.490597 -3.1117666 1.1914943
-2.4853237 -3.1267993 1.1897821
-2.4931037 -3.1238711 1.1851034
-2.4844716 -3.118011 1.2020135
-2.4819069 -3.134989 1.1921253
-2.3625345 -2.9896731 1.2852626
-2.3634124 -2.9909942 1.2771444
-2.3571532 -2.9886916 1.2716082
-2.3568914 -2.9981699 1.2669384
-2.3411398 -3.0129638 1.2780926
-2.3416922 -2.9996445 1.2728256
-2.3296847 -3.0054135 1.2760234
-2.3393848 -3.0233297 1.2856408
-2.3337591 -3.0169849 1.2846038
-2.3312187 -3.0124521 1.2700679
-2.3185618 -3.025897 1.2814153
-2.3153222 -3.0244062 1.2747509
-2.3201962 -3.0208473 1.2736928
-2.3106019 -3.0412223 1.266454
-2.3056729 -3.030046 1.2677132
-2.2895851 -3.0436273 1.2855775
-2.2987599 -3.0494103 1.2809527
-2.2847323 -3.0491073 1.2816861
-2.2810831 -3.0473974 1.2720325
-2.2784662 -3.0473702 1.270174
-2.2703807 -3.0589137 1.2781271
-2.2709434 -3.0514498 1.2708216
-2.2781658 -3.0530968 1.2703195
-2.2664421 -3.0693908 1.272681
-2.2619529 -3.0650012 1.2694516
-2.2562001 -3.0687745 1.2758679
-2.2525783 -3.0659773 1.2797221
-2.253577 -3.0734119 1.2670941
-2.2338378 -3.0814607 1.2793851
-2.2437482 -3.091161 1.2749063
-2.2355123 -3.0970485 1.2820809
-2.2393191 -3.0877757 1.2799104
-2.230427 -3.0900071 1.2792782
-2.2220328 -3.1048007 1.2855309
-2.2112727 -3.0993955 1.2793462
-2.2037375 -3.1125321 1.2725554
-2.2097816 -3.1063466 1.2717228
-2.2119672 -3.1054633 1.2666107
-2.2067766 -3.109149 1.2765988
-2.1892908 -3.1070573 1.2800297
-2.1962795 -3.1210468 1.2807101
-2.196089 -3.1231642 1.2737942
-2.1780651 -3.1207151 1.2677718
-2.1806688 -3.1342018 1.2700747
-2.1770158 -3.1212626 1.2808956
-2.159543 -3.1251266 1.2816864
-2.1688569 -3.1393778 1.2717636
-2.158999 -3.140162 1.2858185
-2.1542492 -3.1401069 1.2792763
-2.1595068 -3.1469221 1.2779081
-2.1413295 -3.1450858 1.2856266
-2.1424675 -3.1474237 1.2742982
-2.1305172 -3.1561062 1.2684827
-2.1245852 -3.1517656 1.2722387
-2.1363461 -3.168149 1.271986
-2.1172819 -3.1714413 1.2709149
-2.1174228 -3.1684332 1.2786322
-2.1074824 -3.1799572 1.2685988
-2.1034827 -3.1711254 1.2816478
-2.1060214 -3.1719499 1.2709029
-2.1099241 -3.1789997 1.2850093
-2.1061039 -3.1915941 1.2797866
-2.0936081 -3.1766496 1.2688842
-2.0869238 -3.1801879 1.285319
-2.0764792 -3.1999066 1.2683607
-2.0862834 -3.1849847 1.2710943
-2.0771546 -3.1946313 1.2798141
-2.0803046 -3.1987693 1.2799817
-2.0734837 -3.2033436 1.2719467
-2.0536101 -3.2148967 1.2860466
-2.064477 -3.2147965 1.27605
-2.0612335 -3.2153246 1.2764058
-2.0432088 -3.2078097 1.2746471
-2.0360823 -3.2180667 1.2722845
-2.0325172 -3.2223399 1.2731316
-2.0259063 -3.2208819 1.2718226
-2.0365577 -3.2347641 1.2837828
-2.0184855 -3.2362688 1.2745148
-2.0202417 -3.2354298 1.2835757
-2.0100291 -3.2391977 1.2839805
-2.0057125 -3.2383177 1.2673762
-2.0113885 -3.2386835 1.2731283
-1.9967047 -3.245517 1.2692736
-2.0037756 -3.2497215 1.278034
-1.9932054 -3.2548616 1.2853868
-1.9817842 -3.2578962 1.2770568
-1.9916681 -3.2560909 1.2776978
-1.9895878 -3.2607265 1.2796807
-1.9767716 -3.2516353 1.2853431
-1.9748908 -3.2568521 1.2700716
-1.9726013 -3.2622771 1.2785078
-1.9669122 -3.2579072 1.2694001
-1.9554671 -3.263386 1.2762737
-1.9478728 -3.2804725 1.2817516
-1.9515144 -3.2715294 1.2848918
-1.9477993 -3.2757094 1.2677938
-1.9324105 -3.2743216 1.2752906
-1.9363768 -3.2754056 1.2809352
-1.9383564 -3.2882297 1.2784481
-1.93467 -3.2837329 1.2735147
-1.9262512 -3.3015106 1.2859205
-1.9093922 -3.2981665 1.2854543
-1.9216374 -3.2879491 1.2822605
-1.9070053 -3.2947128 1.2847254
-1.9068913 -3.3096972 1.2788723
-1.9036336 -3.3055494 1.2715713
-1.89747 -3.3105996 1.2683841
-1.883806 -3.3042066 1.2668321
-1.8844937 -3.3043878 1.2751691
-1.8876648 -3.3254807 1.2707095
-1.8757656 -3.3227565 1.2711726
-1.8714569 -3.3277793 1.2776734
-1.8676108 -3.3296566 1.2770787
-1.8669548 -3.3215148 1.2724016
-1.8638302 -3.3378763 1.2754143
-1.8465551 -3.3356004 1.2852428
-1.8565774 -3.3317854 1.2726824
-1.6733358 -3.0201833 1.434288
-1.6685352 -3.0124056 1.433243
-1.6553944 -3.0324352 1.4337473
-1.6467099 -3.0252054 1.4396112
-1.6575592 -3.0183101 1.4430815
-1.6419045 -3.0322158 1.447297
-1.646841 -3.0301163 1.4422703
-1.6364516 -3.0295467 1.4434917
-1.6230463 -3.0363598 1.4495921
-1.6198093 -3.0378571 1.4421041
-1.6291293 -3.0372252 1.450057
-1.6219586 -3.0360167 1.4481251
-1.6158298 -3.0458941 1.4484951
-1.6091936 -3.0513172 1.4384208
-1.6166902 -3.0518229 1.4375614
-1.6007135 -3.0609105 1.44511
-1.600518 -3.0591745 1.4370658
-1.5853462 -3.0512922 1.4318936
-1.5889498 -3.0542507 1.442204
-1.5864499 -3.0582218 1.4333074
-1.5714349 -3.0557654 1.4473267
-1.5684638 -3.0703943 1.4448327
-1.5674216 -3.0631533 1.4347335
-1.5660062 -3.0735381 1.4414775
-1.5546621 -3.0756848 1.4499761
-1.5641744 -3.0661235 1.4316415
-1.5461351 -3.0806382 1.4372913
-1.5561367 -3.0842557 1.4330658
-1.5513077 -3.0757549 1.4481181
-1.5361651 -3.0890348 1.4414299
-1.5299162 -3.091584 1.4394224
-1.529645 -3.0954492 1.4450046
-1.5318646 -3.0825624 1.4400402
-1.5241805 -3.0925536 1.4468975
-1.5297495 -3.0954971 1.4338086
-1.5068167 -3.0922523 1.4324754
-1.5022157 -3.0952709 1.4388161
-1.5119619 -3.0925965 1.4437215
-1.5059308 -3.1094017 1.4393044
-1.5048442 -3.095376 1.4437774
-1.490443 -3.0994163 1.4478657
-1.4980463 -3.1075027 1.4502472
-1.4800645 -3.1021297 1.4476676
-1.4870442 -3.1133962 1.4372431
-1.4871635 -3.1145582 1.4460152
-1.4803691 -3.1171172 1.4401662
-1.4749049 -3.1194079 1.433427
-1.463097 -3.1157804 1.4314839
-1.4663808 -3.13046 1.4348515
-1.454079 -3.1283948 1.4343547
-1.4573011 -3.1362727 1.4319216
-1.4564322 -3.1361012 1.4434998
-1.4331791 -3.1222982 1.4425427
-1.4325026 -3.1398282 1.4324046
-1.4422479 -3.1418335 1.4431839
-1.4232181 -3.1414034 1.4334775
-1.4300346 -3.1398709 1.4435477
-1.4235877 -3.1508954 1.4393069
-1.4190809 -3.1495712 1.4424412
-1.4112037 -3.1403158 1.4496899
-1.4038206 -3.1386557 1.4511036
-1.3988677 -3.1405029 1.4347253
-1.402334 -3.143476 1.4341806
-1.3867546 -3.1501544 1.4381305
-1.3813106 -3.1509628 1.4420934
-1.311668 -2.9904137 1.5310577
-1.3053786 -2.987684 1.5210015
-1.3090162 -3.0029008 1.5219209
-1.2968923 -2.9980073 1.5261583
-1.3016313 -2.9896355 1.521639
-1.2991192 -2.998282 1.520761
-1.2951909 -3.0063803 1.5200113
-1.2876383 -3.0023522 1.5182576
-1.280628 -3.0071545 1.5317886
-1.2696651 -3.0109255 1.5264679
-1.2747369 -3.0028861 1.5169319
-1.2734008 -3.0127423 1.5319675
-1.2621185 -3.0104239 1.5336226
-1.2499143 -3.0201721 1.5220019
-1.2534702 -3.0188525 1.5205775
-1.2415431 -3.0192161 1.5323254
-1.2504913 -3.0198493 1.5177877
-1.2401868 -3.0171306 1.5290853
-1.2316335 -3.0316048 1.5173815
-1.229547 -3.0193214 1.523702
-1.2327787 -3.0363178 1.5198514
-1.2255439 -3.0361891 1.5279281
-1.2232711 -3.028991 1.5201006
-1.2193409 -3.0338039 1.5242966
-1.207029 -3.026391 1.5315783
-1.1961391 -3.0312712 1.5202563
-1.193499 -3.0293229 1.5300548
-1.2053941 -3.0412951 1.5243202
-1.1859894 -3.0489421 1.5258538
-1.1982861 -3.0387325 1.5214069
-1.1842599 -3.0359874 1.5216938
-1.174082 -3.0502424 1.5238341
-1.1758251 -3.0464621 1.514891
-1.1653935 -3.0429914 1.5228474
-1.1707634 -3.0514512 1.5199234
-1.1688493 -3.0532653 1.5338199
-1.158255 -3.0566864 1.5313598
-1.1578599 -3.056252 1.518616
-1.1431971 -3.0606647 1.5199083
-1.1469985 -3.0616276 1.533087
-1.1352445 -3.0528212 1.530682
-1.1432014 -3.0580952 1.5156869
-1.1290157 -3.0693734 1.5261312
-1.1237708 -3.0744832 1.5216993
-1.1305674 -3.0692286 1.530455
-1.1202856 -3.0663276 1.5190376
-1.1161053 -3.0771027 1.5258343
-1.1143829 -3.0717549 1.5146948
-1.1054021 -3.0760193 1.520766
-1.0951269 -3.0683618 1.5274915
-1.0916708 -3.0732296 1.5246348
-1.0906175 -3.0703359 1.5181094
-1.0845572 -3.0775399 1.5219053
-1.0880504 -3.0837851 1.5221846
-1.0759733 -3.081115 1.5293061
-1.0751384 -3.0924535 1.5209098
-1.0657189 -3.0839043 1.5233138
-1.0695004 -3.0779274 1.532635
-1.0644194 -3.0872664 1.5192553
-1.0532651 -3.0906296 1.5150903
-1.0553832 -3.0948377 1.5276089
-1.0603559 -3.1022959 1.5245667
-1.0518519 -3.0879996 1.5158596
-1.0395499 -3.1015041 1.5224406
-1.0469668 -3.0872414 1.533219
-1.0272601 -3.0964558 1.5141801
-1.0359476 -3.100565 1.5252057
-1.022229 -3.0927715 1.5237175
-1.0191872 -3.1042156 1.5143933
-1.0095233 -3.1088254 1.5232033
-1.0040221 -3.0998762 1.529296
-1.0060005 -3.100224 1.5294155
-1.0110191 -3.1163945 1.5253103
-1.0047427 -3.1045918 1.5291735
-0.99188352 -3.1045365 1.5287662
-0.98824388 -3.1091075 1.5206052
-0.98364115 -3.1067007 1.5297902
-0.98801076 -3.114912 1.528217
-0.9738667 -3.1244204 1.5166426
-0.96904498 -3.1086059 1.5218946
-0.97541142 -3.1116328 1.5175265
-0.95568317 -3.1209831 1.5142349
-0.95583355 -3.119699 1.5161912
-0.96008724 -3.116487 1.5313625
-0.96047586 -3.1247668 1.5279952
-0.94126993 -3.1337595 1.5214571
-0.95022303 -3.122504 1.5187199
-0.9299894 -3.1199751 1.5291592
-0.93132704 -3.1276603 1.5314718
-0.92423731 -3.1348844 1.5309749
-0.93189371 -3.1328373 1.5288204
-0.92391634 -3.135426 1.5186791
-0.91922879 -3.1425316 1.5311795
-0.91258305 -3.1382589 1.5282432
-0.91076434 -3.1387446 1.5183724
-0.91231108 -3.1443963 1.520848
-0.90039414 -3.1433747 1.5159119
-0.89121258 -3.1464951 1.5148318
-0.89159 -3.1353304 1.527387
-0.88965303 -3.1414552 1.5140328
-0.88821137 -3.1396174 1.5240344
-0.86892241 -3.1541853 1.5327493
-0.87977296 -3.1484501 1.515655
-0.85812128 -3.1404557 1.5241237
-0.85940433 -3.1550307 1.5333904
-0.85055643 -3.1555429 1.5182834
-0.85923123 -3.1485295 1.5254697
-0.85284048 -3.1567285 1.5308011
-0.84752816 -3.1497002 1.5285567
-0.84965897 -3.165132 1.5214406
-0.84514225 -3.1635211 1.5174096
-0.83062238 -3.1670218 1.5200517
-0.82738596 -3.1657751 1.5296638
-0.82124215 -3.1672809 1.5284989
-0.82662815 -3.1544757 1.5139813
-0.82274568 -3.1572299 1.5201682
-0.81396866 -3.173068 1.5145785
-0.79800379 -3.1669261 1.5219938
-0.75162649 -2.9833858 1.6001942
-0.75281787 -2.9828262 1.6015955
-0.7411238 -3.0021663 1.6057934
-0.75345933 -2.9914043 1.6076698
-0.74315125 -3.0018253 1.611966
-0.74322969 -2.9905236 1.6159232
-0.72447151 -2.9890306 1.6138465
-0.72022945 -2.9880793 1.6101704
-0.72979909 -3.0027771 1.6118045
-0.72495711 -3.0059373 1.6007224
-0.7126984 -2.992229 1.5978181
-0.70479679 -3.0038962 1.5965403
-0.71549243 -3.008055 1.5969837
-0.70198888 -3.0087364 1.6092445
-0.7066074 -3.0032985 1.6121337
-0.68692845 -3.0021291 1.6073685
-0.6832909 -3.006393 1.6051339
-0.68172854 -3.010608 1.6048826
-0.68384111 -3.0085869 1.6109595
-0.68431824 -3.0059199 1.6148963
-0.67587602 -3.0151913 1.6135558
-0.67033678 -3.0207598 1.6015567
-0.66607404 -3.021224 1.6064013
-0.66136658 -3.0123861 1.6115612
-0.66439706 -3.0123696 1.6031498
-0.64453691 -3.0168784 1.5968928
-0.64944088 -3.0219553 1.6073509
-0.63657802 -3.0096769 1.6145674
-0.6439653 -3.0237193 1.6047721
-0.62527436 -3.0224485 1.5986054
-0.62264544 -3.0169466 1.6041229
-0.62135571 -3.0301175 1.6050216
-0.61206388 -3.0232396 1.6063998
-0.61792618 -3.0158691 1.5975537
-0.61862743 -3.0157454 1.6096561
-0.60773879 -3.019979 1.5981758
-0.60310596 -3.0333354 1.6025387
-0.60801375 -3.0180492 1.6000943
-0.60570395 -3.0343719 1.604516
-0.59318823 -3.036226 1.611111
-0.58683801 -3.0196753 1.6041046
-0.57496917 -3.0260599 1.6048179
-0.58220047 -3.027379 1.6132938
-0.56805241 -3.0387883 1.6100191
-0.56274933 -3.0351274 1.6077411
-0.56534266 -3.0248082 1.6020963
-0.55941534 -3.0340874 1.6039562
-0.54912388 -3.0325067 1.6019576
-0.56127566 -3.03285 1.6044856
-0.54900461 -3.0449126 1.6060029
-0.55013746 -3.0348606 1.6049083
-0.53827566 -3.0371771 1.5982608
-0.54569954 -3.0309632 1.6111195
-0.52464646 -3.0348408 1.6133888
-0.52686697 -3.0376561 1.6001325
-0.5313645 -3.0473061 1.5980033
-0.52150571 -3.0352719 1.6073968
-0.50978601 -3.0371902 1.5991669
-0.520064 -3.0355053 1.6113837
-0.5078128 -3.0457954 1.6123221
-0.49404338 -3.0414658 1.6040905
-0.50136745 -3.0495229 1.6143146
-0.49533817 -3.049253 1.6115187
-0.49644917 -3.0521808 1.6056057
-0.49528992 -3.0415804 1.5976318
-0.48738605 -3.0397303 1.6007563
-0.48161039 -3.0522749 1.5966574
-0.46644023 -3.0573547 1.6113769
-0.45949909 -3.056968 1.6085118
-0.46034023 -3.0485868 1.6160812
-0.460242 -3.050694 1.6086988
-0.44837448 -3.044384 1.6139722
-0.44628194 -3.0563042 1.6002221
-0.44698432 -3.0535963 1.6042452
-0.43359891 -3.0539908 1.5995634
-0.4481864 -3.0507438 1.5974206
-0.4396486 -3.045985 1.6034161
-0.43520877 -3.0503204 1.6050088
-0.41604862 -3.0519803 1.6076593
-0.41975266 -3.0587475 1.5993559
-0.41588655 -3.049684 1.6096045
-0.41940197 -3.0530212 1.6068162
-0.41764313 -3.0585349 1.6127547
-0.40963361 -3.049021 1.6020423
-0.39760017 -3.0503926 1.6115707
-0.39024776 -3.0506234 1.6049751
-0.38503733 -3.0665894 1.6037618
-0.39383066 -3.0623889 1.5988301
-0.38103044 -3.0633028 1.6128501
-0.38557899 -3.0721958 1.6007081
-0.37843016 -3.0614989 1.5982289
-0.36103204 -3.0585942 1.6130061
-0.36642149 -3.0582087 1.602857
-0.3658717 -3.0740921 1.602803
-0.35603356 -3.0622213 1.6019529
-0.35666633 -3.0672784 1.6014413
-0.34389395 -3.0714061 1.6055273
-0.35233426 -3.0686088 1.6143712
-0.34570545 -3.0572937 1.6028527
-0.34505603 -3.0748105 1.6029867
-0.33654797 -3.0694625 1.6143571
-0.33051834 -3.0710011 1.6091655
-0.32971087 -3.0622149 1.6048871
-0.31905195 -3.0771649 1.605247
-0.30844629 -3.0665638 1.597993
-0.31869012 -3.060883 1.6061914
-0.30944496 -3.0667186 1.6107658
-0.29611322 -3.0652833 1.5986352
-0.293937 -3.0815091 1.5983111
-0.28327858 -3.0813758 1.6009557
-0.29248562 -3.0770259 1.6094279
-0.29032171 -3.0709379 1.596835
-0.27334875 -3.0683351 1.6134961
-0.28065357 -3.0793662 1.6156687
-0.26759806 -3.0640855 1.6088978
-0.26179597 -3.083343 1.6082571
-0.26779491 -3.0776505 1.6022246
-0.24921888 -3.0829217 1.5980648
-0.26277307 -3.070313 1.5981107
-0.25665081 -3.0713427 1.5987153
-0.24788341 -3.0858767 1.6040896
-0.25064328 -3.0825448 1.6159654
-0.24599554 -3.0865386 1.6108515
-0.22468626 -3.0821364 1.6151079
-0.22120398 -3.0689783 1.6150404
-0.22449209 -3.0743184 1.6161048
-0.22842042 -3.069958 1.6032454
-0.21838084 -3.0713232 1.6054921
-0.21250062 -3.070544 1.600719
-0.20657402 -3.0879452 1.6152816
-0.20004235 -3.0808816 1.6156695
-0.18813601 -3.0808814 1.5997425
-0.18435353 -3.0805373 1.6001693
-0.1856845 -3.0831881 1.6053395
-0.1827587 -3.0866613 1.6040032
-0.17989999 -3.077728 1.5976562
-0.17597644 -3.0770288 1.6159927
-0.164912 -3.0905962 1.6132815
-0.17160054 -3.0825899 1.6116605
-0.16306186 -3.072964 1.6129435
-0.15996021 -3.0811136 1.6015893
-0.15647034 -3.081665 1.6105285
-0.14890705 -3.082742 1.6000991
-0.14091678 -3.0894587 1.6072998
-0.14775591 -3.0775588 1.6113024
-0.13593104 -3.0871093 1.6045073
-0.13045292 -3.0770462 1.5986747
-0.12663803 -3.0802288 1.5995317
-0.1255341 -3.0744104 1.608646
-0.12605092 -3.0843642 1.6076312
-0.12528439 -3.0755274 1.5987056
-0.11587185 -3.0875125 1.6094617
-0.09751986 -3.076246 1.5993675
-0.10959712 -3.0813015 1.6027774
-0.094473362 -3.0775082 1.5983022
-0.095346831 -3.0862031 1.6044853
-0.083015159 -3.0937328 1.6009341
-0.076516025 -3.0817611 1.6143972
-0.089159697 -3.0929987 1.6138693
-0.072688833 -3.0890672 1.6035724
-0.077232517 -3.0886834 1.6022907
-0.070701651 -3.0832012 1.6091968
-0.073414624 -3.0836816 1.6075358
-0.066221654 -3.0805542 1.6009802
-0.055618599 -3.0866179 1.598372
-0.049490586 -3.0778704 1.6072174
-0.037179451 -3.0811067 1.6086756
-0.048419308 -3.0821593 1.602242
-0.04619601 -3.0801716 1.6047009
-0.024500469 -3.0860291 1.6112158
-0.033101793 -3.0807462 1.5982329
-0.022984667 -3.0932488 1.6108444
-0.025961455 -3.0927811 1.6030817
-0.010599097 -3.0894368 1.5985467
-0.021792429 -3.0798063 1.6080421
-0.015593901 -3.0883646 1.6063732
-0.00054987555 -3.0889289 1.6015501
-0.0040476653 -3.0850501 1.6157504
0.0060209744 -3.0832653 1.6120085
0.018548595 -3.0841022 1.6024731
0.017591048 -3.0778577 1.5982785
0.023650585 -3.0858138 1.6016332
0.022321623 -3.0810642 1.6055015
0.033229955 -3.0852697 1.6127539
0.039603267 -3.0849862 1.6096706
0.035471961 -3.0828218 1.5980568
0.049671683 -3.0899312 1.6059003
0.039048284 -3.0848563 1.5976384
0.042625073 -3.0940304 1.611171
0.06245983 -3.0949945 1.6038703
0.052759171 -3.0812342 1.6028116
0.058863811 -3.085732 1.6137884
0.068322979 -3.0958767 1.6095004
0.061650399 -3.0794306 1.6009864
0.082230113 -3.080929 1.6127292
0.07972642 -3.0908763 1.6066036
0.085608706 -3.0909414 1.6133301
0.079334445 -3.0859478 1.6050869
0.084798105 -3.0816946 1.607619
0.1037942 -3.0819242 1.60913
0.095489427 -3.0761716 1.6043386
0.10612573 -3.0886319 1.6149806
0.10773867 -3.0759499 1.6154032
0.10506343 -3.0942576 1.6121908
0.11387393 -3.0763025 1.6073933
0.11442704 -3.0851679 1.6125554
0.12885447 -3.0924675 1.5975533
0.13000812 -3.0903583 1.60744
0.14291838 -3.0871015 1.6014687
0.1383604 -3.0891647 1.6151508
0.13531318 -3.083849 1.6144621
0.14747435 -3.0922127 1.6011842
0.15027721 -3.0832791 1.6004531
0.15350235 -3.0813363 1.6012729
0.15351489 -3.0748982 1.5999006
0.16872956 -3.0922222 1.6095096
0.16910602 -3.0794337 1.6116594
0.17448008 -3.0898058 1.6157533
0.16974048 -3.0915825 1.6029326
0.17902929 -3.082231 1.6078711
0.18199985 -3.0802407 1.5979419
0.18428148 -3.0904028 1.5994594
0.19328487 -3.0820756 1.609715
0.20155671 -3.0748363 1.6017119
0.21064803 -3.0718973 1.5999391
0.19836661 -3.0780561 1.6006289
0.21569376 -3.0881505 1.6138875
0.21517034 -3.077183 1.5965482
0.21874043 -3.0752666 1.5972008
0.22948939 -3.0883725 1.6069669
0.22517636 -3.082819 1.5984795
0.23093376 -3.0792942 1.5995802
0.23820829 -3.0710764 1.6087523
0.23573799 -3.0788965 1.6049019
0.24526408 -3.0819349 1.6037227
0.25301698 -3.0815639 1.6161108
0.26145914 -3.0681744 1.5981245
0.26315951 -3.0796165 1.6108198
0.2675201 -3.0717967 1.6051395
0.27253264 -3.0775354 1.6060553
0.26731083 -3.0718942 1.6122206
0.27360114 -3.0848024 1.6016006
0.28099161 -3.0747421 1.5988824
0.27755365 -3.0714579 1.6080219
0.29026476 -3.082953 1.6137949
0.30179611 -3.0710001 1.5996048
0.30571502 -3.0749094 1.5984643
0.31164703 -3.0814226 1.6055351
0.31027377 -3.0678782 1.6000738
0.30321971 -3.0736246 1.6085157
0.3170808 -3.0688949 1.6022345
0.31710663 -3.0621769 1.6026751
0.32651189 -3.0723701 1.6127995
0.33319828 -3.070302 1.6058259
0.40508619 -3.8045015 1.2767329
0.40769559 -3.786684 1.2694345
0.41611415 -3.7892456 1.2778264
0.42339128 -3.7901726 1.2792991
0.43773854 -3.7967694 1.2739037
0.42662364 -3.7947164 1.2823439
0.44394976 -3.783098 1.2750891
0.45499384 -3.7957485 1.274122
0.44647762 -3.7832882 1.2825255
0.44808501 -3.7884352 1.2725548
0.46271792 -3.7820501 1.2726146
0.4584929 -3.7783597 1.2699305
0.4669686 -3.7915542 1.284116
0.48383534 -3.7827744 1.2767987
0.48217386 -3.7849491 1.2823009
0.49511608 -3.7835395 1.2692653
0.49649745 -3.7901042 1.2672498
0.49062318 -3.7909238 1.271978
0.50378078 -3.7855585 1.2685535
0.50534099 -3.7838833 1.2793614
0.51692945 -3.772872 1.2759264
0.52857673 -3.7713814 1.2755463
0.51753885 -3.7867103 1.2813289
0.54068559 -3.7704663 1.2752414
0.53651398 -3.7811773 1.2663215
0.53784359 -3.7842381 1.2781461
0.5461365 -3.7712088 1.2827339
0.55241293 -3.7693441 1.285822
0.56341654 -3.7796113 1.2735884
0.57099444 -3.773607 1.2823355
0.56937915 -3.7813015 1.281392
0.56432778 -3.7826352 1.2812296
0.57889527 -3.7802923 1.2850217
0.57924426 -3.7800872 1.2843335
0.59350455 -3.7693372 1.272203
0.59884387 -3.7625401 1.2762727
0.59600675 -3.7727315 1.2726253
0.59775615 -3.7619269 1.2700889
0.60259253 -3.7653978 1.2765243
0.61519414 -3.7665694 1.2681956
0.61654168 -3.7746332 1.2713966
0.61694443 -3.7730246 1.2724807
0.63718367 -3.7621233 1.275117
0.64121372 -3.7561471 1.2771606
0.64455432 -3.7611835 1.2691488
0.65576321 -3.7661519 1.2671214
0.65104061 -3.7592282 1.2740827
0.66266942 -3.7558246 1.2710211
0.67176056 -3.7528524 1.2836539
0.66728574 -3.7625458 1.2742729
0.67448097 -3.7561576 1.2759786
0.68487597 -3.7546313 1.2784359
0.67635369 -3.7581291 1.2709303
0.69046646 -3.7628593 1.2685293
0.68662149 -3.7495098 1.2802131
0.69476336 -3.7502112 1.286042
0.70087653 -3.7608938 1.2779009
0.71394962 -3.7452052 1.2722627
0.7239598 -3.745681 1.2686881
0.72660124 -3.7558868 1.2745043
0.71986037 -3.7441506 1.2857858
0.73482382 -3.7472718 1.2776632
0.73224324 -3.7441661 1.2851049
0.74215555 -3.7521973 1.2668715
0.7496655 -3.7493215 1.2810351
0.74885768 -3.743551 1.2735374
0.75387734 -3.736913 1.27439
0.77075446 -3.7424459 1.2699571
0.76199192 -3.7432115 1.2840663
0.76965326 -3.7465775 1.2669809
0.78312939 -3.741924 1.280635
0.78788555 -3.7275462 1.2701644
0.78451753 -3.7409861 1.2817882
0.78858972 -3.7297497 1.2843627
0.79442692 -3.7362378 1.2687871
0.81442618 -3.7287667 1.277949
0.80692631 -3.7215075 1.2727087
0.82027745 -3.7226014 1.2808877
0.82919407 -3.7376866 1.2672461
0.83221841 -3.7303374 1.2691764
0.83815563 -3.7347381 1.2746903
0.83774537 -3.7196066 1.2735053
0.84686291 -3.7330661 1.2777961
0.84760273 -3.7276745 1.2722321
0.85091537 -3.7216651 1.2790811
0.85865068 -3.720875 1.272295
0.85554636 -3.7128012 1.2716548
0.86720002 -3.7165911 1.2687999
0.86703104 -3.7166781 1.269732
0.87321872 -3.7189527 1.2768779
0.88133502 -3.7205002 1.2784808
0.8949635 -3.7076666 1.274065
0.8874054 -3.7109227 1.2750329
0.90413636 -3.7186444 1.2802279
0.89530146 -3.7082574 1.2702605
0.91331387 -3.715337 1.2799044
0.90453845 -3.7107217 1.276436
0.91512102 -3.6996517 1.2679839
0.92284703 -3.7139478 1.2782443
0.9315033 -3.7072518 1.285022
0.92730367 -3.6976335 1.269037
0.94470501 -3.6995788 1.2846631
0.93768889 -3.6942725 1.2758032
0.95163876 -3.6974239 1.2779845
0.95078182 -3.6945975 1.2693087
0.95995557 -3.6989439 1.2723014
0.95877147 -3.6972492 1.2786508
0.97411698 -3.6901534 1.274804
0.98100859 -3.7005119 1.2753879
0.97815865 -3.6873922 1.2813872
0.98208469 -3.6836486 1.2757173
0.99002379 -3.6876783 1.266807
0.99358696 -3.6838968 1.2819008
1.0082884 -3.6913366 1.2725334
1.0051692 -3.6848023 1.2846758
1.0133721 -3.6742616 1.2711481
1.0245659 -3.6900706 1.277984
1.022107 -3.6756976 1.2705771
1.0357995 -3.6795948 1.2714661
1.0300739 -3.6715016 1.284122
1.0303457 -3.6846404 1.2791616
1.0449454 -3.6749961 1.2688042
1.0506328 -3.6669428 1.2808539
1.051412 -3.6693404 1.2840822
1.0628217 -3.6600075 1.2724557
1.0663719 -3.6676199 1.269974
1.0763923 -3.6691849 1.2702801
1.0732466 -3.6583533 1.2835487
1.0826918 -3.6589715 1.2715027
1.0930239 -3.6704559 1.2861249
1.09601 -3.6668072 1.2861763
1.0940334 -3.6536951 1.2744329
1.1016973 -3.6600301 1.2692963
1.1014088 -3.6507185 1.2803085
1.1043464 -3.6551275 1.279193
1.1156555 -3.6611147 1.2689972
1.1244807 -3.6422076 1.2757614
1.1336098 -3.6515708 1.2718749
1.1360054 -3.656611 1.2858807
1.1263528 -3.6364388 1.2669055
1.1313201 -3.6383991 1.2700754
1.1363368 -3.6474516 1.2848465
1.1496077 -3.633954 1.2717646
1.1577398 -3.6458566 1.2664692
1.1568819 -3.6399314 1.2752326
1.1749064 -3.6278043 1.2764693
1.1627326 -3.6319573 1.2750664
1.1773208 -3.6320841 1.2827467
1.1880202 -3.6349165 1.2838259
1.1927233 -3.6325002 1.2835091
1.1984488 -3.6302133 1.2796571
1.1873419 -3.6280038 1.2851703
1.2110039 -3.6176157 1.2825917
1.2015816 -3.6241853 1.2665139
1.2068615 -3.6167006 1.274758
1.2209024 -3.616277 1.2735183
1.2161778 -3.6131103 1.266508
1.2300479 -3.6204362 1.2777456
1.2315959 -3.6221416 1.284519
1.2342207 -3.6042202 1.2720695
1.2365264 -3.6056476 1.2802609
1.2549776 -3.6032534 1.2690083
1.2589395 -3.6022668 1.2664834
1.2603204 -3.6157699 1.2757214
1.2656212 -3.6090577 1.2707696
1.2591635 -3.5933669 1.2845596
1.2714639 -3.6074612 1.2798278
1.2767513 -3.5927429 1.2860742
1.2732739 -3.6015325 1.2689123
1.2965674 -3.5927501 1.267962
1.2874089 -3.5867126 1.2838672
1.3064393 -3.5872722 1.2804426
1.2942147 -3.5889158 1.2762734
1.2994627 -3.5942218 1.276863
1.3139461 -3.579268 1.2824196
1.3234751 -3.5758107 1.2819146
1.3267916 -3.585089 1.2855561
1.3253738 -3.5741136 1.2821494
-2.6663074 -2.994173 1.2282976
-2.6500618 -2.9996142 1.2145575
-2.6521206 -3.0084412 1.2191863
-2.6499841 -3.000813 1.2299811
-2.6488271 -3.0033462 1.2255453
-2.633086 -3.0017219 1.2133241
-2.6411338 -3.0124292 1.2194672
-2.6390595 -3.0198464 1.2134975
-2.6350031 -3.0179203 1.2295909
-2.6201162 -3.0174205 1.2307136
-2.6253343 -3.0333476 1.2192371
-2.6258297 -3.0372181 1.2260499
-2.6200597 -3.0273416 1.2277606
-2.6096561 -3.0395284 1.2208183
-2.6084526 -3.0347624 1.2150561
-2.5916798 -3.0384655 1.2146252
-2.5871232 -3.0544314 1.2271882
-2.5964181 -3.0525432 1.2160294
-2.5916777 -3.0508239 1.2304862
-2.5908389 -3.0584481 1.2291262
-2.5888724 -3.075526 1.215517
-2.5783772 -3.0773401 1.2217091
-2.5610645 -3.07763 1.2214433
-2.5620358 -3.0717671 1.2326508
-2.5699444 -3.0889568 1.2322778
-2.5636103 -3.0936348 1.2318498
-2.5577018 -3.0780225 1.2190977
-2.5392256 -3.0959764 1.2318701
-2.551903 -3.0934663 1.2299918
-2.5501187 -3.0943987 1.2241132
-2.5296896 -3.097651 1.2247748
-2.5228643 -3.1146998 1.2272345
-2.5298424 -3.1187322 1.2330103
-2.517081 -3.1080375 1.228249
-2.5131075 -3.1095581 1.229892
-2.5095019 -3.129056 1.230445
-2.5063195 -3.1269622 1.2301924
-2.4958842 -3.1307135 1.215562
-2.4926717 -3.131469 1.2270116
-2.3773928 -2.9918723 1.302318
-2.382127 -2.9989233 1.2967043
-2.366195 -3.0034909 1.2975936
-2.3677986 -2.999383 1.297996
-2.3636215 -3.0068655 1.3126328
-2.3642013 -3.0147312 1.3092824
-2.3631334 -3.0033524 1.3099616
-2.3615079 -3.0131578 1.2962558
-2.3401306 -3.0168991 1.3023138
-2.3533788 -3.0218041 1.3111255
-2.3351729 -3.0297508 1.3001374
-2.3428817 -3.026618 1.3054364
-2.3361993 -3.0317442 1.3094996
-2.3286233 -3.0426695 1.3009969
-2.3206401 -3.033618 1.308332
-2.3180158 -3.0493512 1.3111159
-2.318737 -3.0482261 1.3085868
-2.3187749 -3.0496898 1.2995551
-2.3125138 -3.0539944 1.3100787
-2.3001902 -3.0557706 1.2989883
-2.2990506 -3.0635688 1.303236
-2.2888942 -3.0633082 1.3138955
-2.2934346 -3.0606024 1.3027018
-2.2939074 -3.0745621 1.3038502
-2.2828782 -3.0647848 1.2973111
-2.2845097 -3.0766337 1.2982941
-2.2633526 -3.0734591 1.3036515
-2.2647202 -3.0745821 1.3107889
-2.255115 -3.0737083 1.2968589
-2.2549818 -3.0847797 1.3043842
-2.2459347 -3.0789845 1.3073368
-2.2526355 -3.0873108 1.3137695
-2.2486722 -3.10446 1.3061215
-2.2358983 -3.1063685 1.3077214
-2.2419717 -3.1015389 1.3023002
-2.2345798 -3.1026363 1.3082255
-2.2262003 -3.1068769 1.3005148
-2.2324593 -3.1167896 1.2948648
-2.2115765 -3.1214061 1.3132659
-2.2246194 -3.110203 1.3037673
-2.2101324 -3.1142704 1.3032292
-2.2126887 -3.1293607 1.2975241
-2.2088079 -3.1248147 1.2978233
-2.1925709 -3.1318257 1.2993612
-2.1947296 -3.1292453 1.30887
-2.1823051 -3.1436126 1.3004164
-2.1839511 -3.133945 1.3108513
-2.1733036 -3.1348848 1.2944965
-2.1683018 -3.1392946 1.2966423
-2.1648946 -3.1411045 1.313102
-2.1709816 -3.1527889 1.308599
-2.1576025 -3.1513956 1.3121043
-2.1499243 -3.1504915 1.3032483
-2.1619427 -3.1577249 1.3104677
-2.1524191 -3.1714957 1.3033477
-2.1533825 -3.1572254 1.3049345
-2.1427953 -3.1689882 1.2992569
-2.1417689 -3.174495 1.2957016
-2.1370931 -3.1793962 1.3107922
-2.1302671 -3.1852899 1.3071227
-2.1269777 -3.1816752 1.2948121
-2.1281869 -3.1890903 1.3069322
-2.1058867 -3.1932397 1.3029875
-2.1124382 -3.193825 1.2948341
-2.1117663 -3.1893077 1.295929
-2.0982103 -3.1901793 1.2943066
-2.1030633 -3.2048934 1.3039279
-2.0935898 -3.2030149 1.3110425
-2.0876677 -3.2008986 1.2962502
-2.0866506 -3.216399 1.2985518
-2.0692992 -3.2130558 1.3074496
-2.0642543 -3.2153728 1.3119079
-2.067085 -3.2198439 1.2951857
-2.0738566 -3.2153258 1.3008413
-2.0687773 -3.2145987 1.3139708
-2.0625994 -3.2247825 1.3091792
-2.0580397 -3.2242906 1.3126177
-2.0438545 -3.2388003 1.3008726
-2.0425508 -3.2318673 1.3141754
-2.0360355 -3.2284007 1.2949033
-2.0272145 -3.2320704 1.3018932
-2.0294919 -3.2351866 1.3094792
-2.0273068 -3.2456291 1.2955006
-2.0218401 -3.2473431 1.3089404
-2.0107138 -3.2484815 1.3060014
-2.006454 -3.2479498 1.2957664
-2.0069818 -3.2473702 1.3089044
-2.0040674 -3.2571211 1.3104078
-1.9928941 -3.2700884 1.3017129
-1.988414 -3.2610641 1.2993469
-1.9832023 -3.2677464 1.2961675
-1.9909966 -3.2612381 1.3127218
-1.9712011 -3.2770803 1.3016769
-1.9653802 -3.2719955 1.3117549
-1.9661157 -3.280328 1.3035253
-1.9697863 -3.2889483 1.2986518
-1.9636881 -3.2826481 1.297176
-1.9644481 -3.2779889 1.3087609
-1.9437009 -3.2867155 1.3101839
-1.9516448 -3.2955258 1.3034301
-1.9419508 -3.3036911 1.3127863
-1.9354323 -3.3042221 1.3114372
-1.9323558 -3.3095322 1.2970254
-1.9203204 -3.2936003 1.3104719
-1.9182032 -3.3029869 1.2983527
-1.9243119 -3.3006303 1.3003738
-1.9152902 -3.316766 1.3114492
-1.9077406 -3.3182559 1.3099315
-1.9086024 -3.3235967 1.3024284
-1.9080375 -3.3214831 1.3088499
-1.8942226 -3.3142812 1.3098344
-1.8910478 -3.3251703 1.31301
-1.8892184 -3.3175962 1.3135909
-1.8817971 -3.3226037 1.3128126
-1.8809255 -3.3301151 1.3053505
-1.8721695 -3.3283594 1.3029412
-1.8613888 -3.3422103 1.3070858
-1.859529 -3.3331439 1.3124236
-1.8591833 -3.349575 1.2950974
-1.8463372 -3.350081 1.3025548
-1.8470658 -3.3414152 1.299878
-1.6702256 -3.0341761 1.4714203
-1.6672339 -3.0295575 1.4707364
-1.6636581 -3.0421724 1.4676892
-1.6608573 -3.0385747 1.4597684
-1.6455152 -3.0308831 1.4762346
-1.6525793 -3.037077 1.4614744
-1.6354957 -3.0460806 1.4583988
-1.6330709 -3.0394118 1.4615036
-1.6279693 -3.0445738 1.4667078
-1.6354067 -3.055145 1.4631764
-1.625518 -3.0501411 1.4694306
-1.6265347 -3.046386 1.4626427
-1.6082321 -3.0632992 1.4655731
-1.6129737 -3.0616589 1.4744287
-1.6056328 -3.0689268 1.4732971
-1.6018225 -3.0675128 1.4682872
-1.5927693 -3.073272 1.4765832
-1.5867885 -3.0608668 1.4738514
-1.5976998 -3.0676231 1.4682553
-1.5834037 -3.0660839 1.4743795
-1.5726361 -3.0789254 1.4677936
-1.5756111 -3.0770566 1.4672422
-1.5653709 -3.0811617 1.4720516
-1.5721973 -3.0742874 1.4607691
-1.570165 -3.0843546 1.4644802
-1.5692612 -3.0948973 1.4718611
-1.5533642 -3.0806756 1.4757326
-1.5491681 -3.084765 1.4742532
-1.5477006 -3.0840607 1.4682549
-1.5518265 -3.0933583 1.466028
-1.529825 -3.0961897 1.4731851
-1.5344064 -3.1063004 1.4644307
-1.5395361 -3.1104784 1.473785
-1.5198535 -3.1057932 1.4722214
-1.5114504 -3.1033893 1.462792
-1.5193332 -3.1043983 1.4650156
-1.5198321 -3.1138299 1.4636507
-1.5164566 -3.1033883 1.4603798
-1.4945576 -3.1158051 1.4599909
-1.4986539 -3.1166766 1.4724756
-1.5049741 -3.1198783 1.4642944
-1.4841343 -3.1119964 1.4681618
-1.4920459 -3.1135821 1.4700046
-1.4906003 -3.1198261 1.4586797
-1.4707155 -3.1220109 1.4718999
-1.4802572 -3.1364253 1.466246
-1.4675722 -3.1356885 1.4732895
-1.4562495 -3.1359291 1.4728975
-1.4681946 -3.1386261 1.4622056
-1.4605259 -3.1297784 1.472753
-1.4603695 -3.1316123 1.4622033
-1.4483916 -3.136971 1.4616339
-1.4525433 -3.1346087 1.4615712
-1.4348495 -3.1551714 1.4573509
-1.4284776 -3.1402225 1.4730259
-1.428883 -3.1591916 1.4763606
-1.4149392 -3.1498549 1.4625001
-1.4139491 -3.1535771 1.4704609
-1.4133483 -3.1536295 1.4577801
-1.328613 -2.9836559 1.5572225
-1.328384 -2.9845572 1.5556487
-1.3187022 -2.997874 1.5507536
-1.3295871 -2.9997392 1.5502516
-1.3205322 -3.0083101 1.5512121
-1.3156949 -2.9949112 1.5491403
-1.3151799 -3.0063226 1.5501121
-1.3113278 -3.0081983 1.5424274
-1.3013337 -3.0134945 1.5530206
-1.3033762 -3.0026031 1.5455557
-1.2980968 -3.0062163 1.5433075
-1.2945981 -3.0137866 1.5420357
-1.2926706 -3.0158634 1.5493187
-1.2756357 -3.0130167 1.5566022
-1.2791002 -3.0253088 1.5571749
-1.2816017 -3.0169604 1.5530006
-1.2661725 -3.012296 1.5392629
-1.269769 -3.0279808 1.5454921
-1.2610477 -3.0178759 1.5482615
-1.2617308 -3.0340202 1.543753
-1.2498763 -3.0290942 1.557456
-1.2402674 -3.0248816 1.5454077
-1.251928 -3.0229557 1.5530951
-1.2363031 -3.0282118 1.5454364
-1.2333922 -3.0411518 1.5472866
-1.2299063 -3.0408151 1.5392808
-1.2305924 -3.0292737 1.5577286
-1.2250136 -3.0455556 1.5422751
-1.2132033 -3.0373456 1.5387039
-1.2186211 -3.0340507 1.5407602
-1.2085451 -3.0431356 1.5495079
-1.2047637 -3.0468483 1.5442281
-1.1930282 -3.0464609 1.542628
-1.1936029 -3.0546901 1.5575198
-1.2018341 -3.0442529 1.5412136
-1.1882125 -3.0545759 1.54698
-1.1825945 -3.0498343 1.546018
-1.1785264 -3.0637648 1.5504982
-1.1699095 -3.0501392 1.5449065
-1.1648614 -3.0661874 1.5443221
-1.1577549 -3.0564179 1.5563592
-1.1618983 -3.0671282 1.5463839
-1.1513191 -3.0703661 1.5384904
-1.1623379 -3.0584443 1.5440561
-1.1584625 -3.0590217 1.5417416
-1.1508911 -3.0702479 1.5507805
-1.1375508 -3.0801287 1.5462316
-1.1451705 -3.0702164 1.5494167
-1.1283077 -3.0759645 1.547886
-1.1370344 -3.0809441 1.5519598
-1.1263433 -3.0830991 1.5474495
-1.1236129 -3.0736816 1.5538696
-1.1108556 -3.0779715 1.5386865
-1.1059895 -3.0775688 1.5570537
-1.1155555 -3.0775819 1.5564662
-1.1074339 -3.0943165 1.5462692
-1.0902712 -3.0820067 1.5478019
-1.0976553 -3.0816143 1.5408515
-1.0818522 -3.088659 1.5497518
-1.0875776 -3.0887327 1.5552649
-1.0892271 -3.1024199 1.5402098
-1.0753847 -3.097683 1.5561526
-1.0751202 -3.1044979 1.5493801
-1.0700365 -3.0907576 1.5445788
-1.0665836 -3.0908966 1.5413269
-1.0637162 -3.1072295 1.5428967
-1.0510437 -3.1107171 1.5383269
-1.0568364 -3.1059086 1.5556937
-1.0495774 -3.1096189 1.5475543
-1.033416 -3.1033785 1.5408733
-1.0317395 -3.1031137 1.5420316
-1.025116 -3.1133349 1.5494468
-1.0225476 -3.1076219 1.5515615
-1.0267498 -3.1211579 1.5489243
-1.0157512 -3.1155756 1.5476502
-1.0080026 -3.1114624 1.5515393
-1.0186821 -3.1190155 1.5534306
-1.0139296 -3.1167021 1.5416141
-1.011808 -3.1114724 1.5475652
-0.99782413 -3.1144264 1.5412284
-0.99051917 -3.1200509 1.5566219
-0.98205388 -3.1234009 1.5432537
-0.98617142 -3.1285338 1.5570519
-0.98817247 -3.1222219 1.5387615
-0.97280866 -3.1292665 1.5474949
-0.97871697 -3.1329195 1.5417765
-0.96073443 -3.1316113 1.5499343
-0.9608587 -3.1299117 1.5418284
-0.95279753 -3.1304533 1.540369
-0.95878333 -3.1413763 1.5573664
-0.95110404 -3.1293614 1.550144
-0.94802946 -3.13325 1.54097
-0.93832117 -3.1456273 1.5480558
-0.9348129 -3.1443782 1.5428398
-0.92959309 -3.1321402 1.5519594
-0.93563807 -3.1501873 1.5388001
-0.92739958 -3.1346302 1.5483171
-0.9110015 -3.1435781 1.5408957
-0.92270744 -3.1488473 1.5542881
-0.91587096 -3.1444864 1.5381074
-0.91203541 -3.1568327 1.5552851
-0.89542043 -3.1504922 1.5499115
-0.88797766 -3.1588333 1.553492
-0.8934474 -3.1480579 1.5396465
-0.88413131 -3.1564565 1.5393579
-0.88569385 -3.1552951 1.5423352
-0.88041395 -3.1502929 1.542176
-0.86561537 -3.1532915 1.5543694
-0.87823647 -3.1523969 1.5425882
-0.85746336 -3.1690686 1.556456
-0.85286927 -3.1663091 1.5392596
-0.85109586 -3.1713412 1.5496795
-0.85469431 -3.1733382 1.5530281
-0.85471064 -3.1652148 1.5484155
-0.80112171 -2.9956906 1.6378874
-0.79551518 -2.9885724 1.6285461
-0.78692985 -3.0005898 1.6254523
-0.77850211 -3.0022256 1.6205987
-0.77787936 -3.0009017 1.6378722
-0.76903641 -3.0032251 1.6197007
-0.7663241 -3.0053766 1.6255089
-0.76080668 -2.9901786 1.6274995
-0.76486778 -3.0030048 1.6287009
-0.76557887 -3.0002747 1.6192273
-0.75090098 -2.9958336 1.6239772
-0.74797523 -3.0099702 1.6369686
-0.75438923 -2.9997072 1.63906
-0.74389565 -3.005204 1.620627
-0.73825419 -3.0142667 1.6246239
-0.73533767 -2.9986768 1.6273974
-0.73059124 -3.0045667 1.6291133
-0.72003514 -3.0091326 1.6271154
-0.72748709 -3.0019543 1.6333735
-0.71373624 -3.0196838 1.6234382
-0.70945746 -3.0069335 1.6390146
-0.70042741 -3.0154564 1.6215191
-0.69840455 -3.0145948 1.6353453
-0.69428897 -3.0074418 1.6247278
-0.68860489 -3.018851 1.6260947
-0.69892251 -3.0115492 1.6240927
-0.68646538 -3.0237076 1.637236
-0.6922909 -3.0095184 1.626843
-0.68011308 -3.0269907 1.6246517
-0.68167573 -3.0149229 1.6257486
-0.6731723 -3.022789 1.6206077
-0.66909117 -3.0258391 1.6279497
-0.66250426 -3.0310814 1.6371534
-0.66208977 -3.0164249 1.6345042
-0.65229148 -3.0203025 1.6214339
-0.64112502 -3.0187171 1.6366477
-0.65195942 -3.0288951 1.6206794
-0.64964908 -3.0291212 1.6198709
-0.63773048 -3.0213926 1.6225549
-0.62800199 -3.0394516 1.6382651
-0.63717538 -3.0332334 1.6270621
-0.63148826 -3.0271616 1.6337559
-0.61845809 -3.0387316 1.6361482
-0.61622298 -3.0341175 1.6341321
-0.61663574 -3.0439363 1.6291677
-0.61011767 -3.0268214 1.626712
-0.60838461 -3.0447748 1.6349952
-0.60261863 -3.0446532 1.6239641
-0.59765995 -3.0368497 1.6215668
-0.59001607 -3.0435553 1.62201
-0.58666074 -3.0436735 1.6295651
-0.57450736 -3.0423448 1.6240796
-0.5756591 -3.0322275 1.6279058
-0.57441729 -3.0441177 1.6372222
-0.57519048 -3.0406647 1.6375896
-0.56092697 -3.0349388 1.6359358
-0.56911808 -3.0517263 1.6371865
-0.54902476 -3.0469954 1.6194109
-0.55996156 -3.0415545 1.6302849
-0.55329442 -3.0527196 1.6352935
-0.54618305 -3.0447805 1.6210183
-0.5315156 -3.0489404 1.6288999
-0.54233247 -3.0585053 1.6277213
-0.52932203 -3.0510828 1.6354688
-0.52699417 -3.0486896 1.6274798
-0.52429795 -3.0562894 1.6260211
-0.52325451 -3.0563383 1.6285735
-0.52095932 -3.0605528 1.6366495
-0.51643872 -3.0599644 1.6309531
-0.50104308 -3.0569701 1.6348722
-0.50063777 -3.0511267 1.6275051
-0.49450681 -3.0548792 1.6367469
-0.50049317 -3.0537131 1.6371866
-0.48765713 -3.063802 1.6258055
-0.48707259 -3.0558298 1.6375687
-0.47447616 -3.0494287 1.6224771
-0.48333746 -3.0662532 1.6280754
-0.46964541 -3.0650518 1.6301919
-0.46787643 -3.0636008 1.6336241
-0.45180297 -3.0510256 1.6207715
-0.45180953 -3.0623178 1.6344774
-0.45918223 -3.0717528 1.6251398
-0.45731217 -3.0714488 1.6376716
-0.43500149 -3.0625846 1.6208115
-0.44407102 -3.0574124 1.632615
-0.44137648 -3.0639212 1.6315044
-0.4337728 -3.06357 1.6342489
-0.42056999 -3.073806 1.6388677
-0.42524967 -3.0665538 1.6256051
-0.42649645 -3.0675092 1.6255788
-0.42059493 -3.0727534 1.6349154
-0.40098667 -3.0696537 1.6354662
-0.41071513 -3.0689678 1.6369643
-0.40791106 -3.0702562 1.6279641
-0.40196624 -3.0649002 1.6247674
-0.38421723 -3.0611362 1.635687
-0.38757792 -3.0740561 1.6275773
-0.3881934 -3.0780616 1.6298447
-0.38418919 -3.0710361 1.6199718
-0.37344691 -3.0695477 1.6297446
-0.36273021 -3.0664485 1.6348685
-0.36267614 -3.068033 1.6236817
-0.36207047 -3.0836387 1.6337638
-0.35996598 -3.0807335 1.623135
-0.34686103 -3.0761778 1.6384335
-0.35695207 -3.0781682 1.6380613
-0.33612278 -3.0678148 1.6253284
-0.34340253 -3.0823736 1.6291434
-0.32841426 -3.0772257 1.6205311
-0.32329822 -3.0856335 1.6339486
-0.32840863 -3.0876236 1.6310005
-0.32839441 -3.073859 1.6269971
-0.31956649 -3.0837893 1.6279116
-0.3206557 -3.0759161 1.6322483
-0.31237319 -3.0792396 1.6216519
-0.30879155 -3.0769567 1.6295704
-0.30558145 -3.0781476 1.6283413
-0.29510355 -3.0909224 1.6330465
-0.3008101 -3.0730133 1.6233869
-0.29512838 -3.0742936 1.6258005
-0.27602857 -3.08499 1.6266993
-0.27987632 -3.0799787 1.6218317
-0.26772684 -3.0904467 1.6274968
-0.27466241 -3.0863121 1.6214924
-0.27726072 -3.0782032 1.6326153
-0.27045485 -3.0908217 1.626466
-0.25572991 -3.0845399 1.6195648
-0.26223356 -3.0920906 1.6203219
-0.24403149 -3.0896587 1.6194149
-0.25548854 -3.0858567 1.6376487
-0.24453145 -3.0872669 1.6256009
-0.23267509 -3.0968375 1.6389731
-0.22568589 -3.078572 1.62228
-0.23303103 -3.0915558 1.6301186
-0.22638021 -3.0914524 1.6264569
-0.22860599 -3.0888579 1.6305611
-0.21698053 -3.095854 1.6213259
-0.21225587 -3.0936697 1.6249126
-0.20677373 -3.0975995 1.6312978
-0.20219813 -3.0973036 1.6218457
-0.19938836 -3.090368 1.6313378
-0.18862596 -3.0958941 1.6316077
-0.18449095 -3.0987494 1.6304857
-0.17704858 -3.0932686 1.6367161
-0.18176727 -3.0854566 1.6233805
-0.17014739 -3.0841901 1.6329637
-0.17442286 -3.0956185 1.6358691
-0.1679332 -3.086643 1.6212713
-0.15785643 -3.0965064 1.6230496
-0.1613941 -3.0861158 1.625424
-0.15438363 -3.0972373 1.6350281
-0.15788072 -3.1019192 1.6193944
-0.1411076 -3.0867884 1.6211873
-0.14545624 -3.0885389 1.628737
-0.14357409 -3.0993314 1.6243687
-0.13502726 -3.1028278 1.6215308
-0.13689697 -3.0949242 1.6275223
-0.11586092 -3.0848556 1.6227413
-0.1294225 -3.0890353 1.6283426
-0.12120552 -3.1010778 1.6245743
