# .PCD v0.7 - Point Cloud Data file format
VERSION 0.7
FIELDS x y z
SIZE 4 4 4
TYPE F F F
COUNT 1 1 1
WIDTH 1508
HEIGHT 1
VIEWPOINT 0 0 0 1 0 0 0
POINTS 1508
DATA ascii
-10.683206 0.87332249 1.7277523
-10.686819 0.87352902 1.7276248
-10.683724 0.84528816 1.7266799
-10.685258 0.8296361 1.7335975
-10.692384 0.80892366 1.723532
-10.681967 0.80342364 1.7350827
-10.692412 0.78810668 1.7344494
-10.695913 0.76537263 1.7233267
-10.697157 0.75314361 1.7388488
-10.684746 0.73682445 1.7316496
-10.680659 0.72762614 1.7364777
-10.696345 0.71601546 1.7364373
-10.692138 0.70867884 1.7230827
-10.688854 0.68096769 1.7290043
-10.698632 0.66726959 1.7291434
-10.698455 0.64510554 1.7387139
-10.686706 0.63359326 1.7279004
-10.69557 0.61965525 1.7292875
-10.695535 0.60552907 1.7333815
-10.699957 0.58484805 1.7360939
-10.691558 0.58926708 1.7245468
-10.69831 0.55899298 1.7363294
-10.705081 0.5538981 1.7357172
-10.705186 0.5330376 1.7423368
-10.699348 0.5233292 1.7302026
-10.693351 0.51470721 1.7308499
-10.697762 0.49872258 1.7349318
-10.712966 0.474742 1.740024
-10.706762 0.45164269 1.7259393
-10.696443 0.44494689 1.7261239
-10.70339 0.4274554 1.7256793
-10.701864 0.42399633 1.7299132
-10.708534 0.39452931 1.7240062
-10.715796 0.38569975 1.7321935
-10.716417 0.36342928 1.7256283
-10.709152 0.34785706 1.7253979
-10.701219 0.34855357 1.7241409
-10.709182 0.33470538 1.7338619
-10.712032 0.30769962 1.7354435
-10.708946 0.29163033 1.7252897
-10.705655 0.28920987 1.7326059
-10.702787 0.2688913 1.7314253
-10.715665 0.24245724 1.7357405
-10.714429 0.22929537 1.7261901
-10.704984 0.21602532 1.7293338
-10.722084 0.21051292 1.7318704
-10.719393 0.19340554 1.7300694
-10.717938 0.1687852 1.7293868
-10.706741 0.16174406 1.7366655
-10.713943 0.13819738 1.7228427
-10.711276 0.13832991 1.7415679
-10.721273 0.12169705 1.7349432
-10.71243 0.092532806 1.7368537
-10.71925 0.084930129 1.7405722
-10.7156 0.067076363 1.7259908
-10.708785 0.0524063 1.7408677
-10.719413 0.040689658 1.7336082
-10.711821 0.030669384 1.7366998
-10.70489 0.012066589 1.7277219
-10.71066 -0.013537201 1.7301694
-10.710232 -0.016295703 1.7277216
-10.711058 -0.028892715 1.7236135
-10.718487 -0.052508865 1.7253138
-10.703985 -0.062828787 1.7343843
-10.705744 -0.069402881 1.740574
-10.722063 -0.089087486 1.7270669
-10.723484 -0.099345967 1.7368163
-10.712144 -0.12197928 1.7315186
-10.717691 -0.13767001 1.7225916
-10.712196 -0.15913938 1.7230341
-10.704232 -0.16021013 1.7356914
-10.718695 -0.1821572 1.7307249
-10.717245 -0.19160526 1.7371154
-10.714074 -0.20664369 1.7281591
-10.701812 -0.22355399 1.7276015
-10.703339 -0.23691747 1.742332
-10.718352 -0.25185719 1.7417766
-10.703595 -0.27563259 1.7335602
-10.714114 -0.28515208 1.724625
-10.71354 -0.30939353 1.7291923
-10.712502 -0.32590941 1.7276601
-10.698787 -0.3371475 1.739152
-10.710016 -0.34721598 1.7361665
-10.714834 -0.35441446 1.7331129
-10.708589 -0.36967242 1.7281188
-10.702879 -0.38680008 1.7247306
-10.702418 -0.39930457 1.7413716
-10.702492 -0.41743648 1.7292056
-10.71076 -0.44649336 1.7224878
-10.707944 -0.45540217 1.726496
-10.70054 -0.46372041 1.7289548
-10.694646 -0.47879079 1.7351414
-10.69724 -0.50557977 1.726225
-10.702798 -0.5176968 1.7250746
-10.691389 -0.52409822 1.7236302
-10.704953 -0.54534161 1.7400213
-10.701885 -0.56669629 1.7388701
-10.702155 -0.56871778 1.7345487
-10.69457 -0.57962239 1.7361311
-10.693682 -0.60834533 1.7237644
-10.688764 -0.61031932 1.7380384
-10.701367 -0.62707645 1.7321999
-10.687762 -0.64712483 1.7345296
-10.703053 -0.65344983 1.7396982
-10.699474 -0.66910511 1.7334204
-10.697319 -0.69908476 1.7408532
-10.69875 -0.7067768 1.7418841
-10.681314 -0.71554029 1.7358453
-10.688176 -0.73754126 1.7338526
-10.693437 -0.75949734 1.7380863
-10.691042 -0.75740051 1.7352945
-10.694353 -0.78879184 1.7306924
-10.683481 -0.78748459 1.7409879
-10.69026 -0.80239534 1.7399029
-10.671848 -0.8346743 1.7381057
-10.679693 -0.84576583 1.7412708
-10.680085 -0.85927886 1.7316843
-10.679425 -0.87636447 1.7282735
-10.684784 -0.88134414 1.7377994
-10.672113 -0.89263546 1.7403053
-10.675189 -0.9226051 1.739843
-10.681035 -0.936979 1.7229224
-10.671463 -0.94159555 1.7422408
-10.671575 -0.95412517 1.7415786
-10.67275 -0.96939921 1.7235658
20.247938 -4.9847107 0.52280825
20.253714 -4.9474158 0.53004301
20.269865 -4.9306722 0.53511572
20.282564 -4.9005175 0.53013057
20.28475 -4.8589454 0.52877414
20.289404 -4.841722 0.53236634
20.293554 -4.8116393 0.51650113
20.300745 -4.7932987 0.53093398
20.307215 -4.7564058 0.52774996
20.312983 -4.7220449 0.52420282
20.320698 -4.6920137 0.53126848
20.334196 -4.663147 0.52735555
20.33489 -4.6450315 0.53190368
20.340616 -4.6210775 0.51831377
20.341318 -4.5817595 0.51799393
20.360624 -4.5645719 0.52658612
20.363483 -4.5299768 0.51694024
20.370436 -4.494895 0.51730424
20.371782 -4.4800076 0.52622169
20.389906 -4.4459777 0.52115089
20.384441 -4.4108181 0.51775306
20.386003 -4.3887053 0.53485453
20.403614 -4.3524055 0.52169532
20.211483 -4.2955203 0.54776281
20.219913 -4.2659569 0.54109514
20.227985 -4.223475 0.54321152
20.224609 -4.204483 0.55151051
20.231548 -4.1848459 0.54647005
20.238811 -4.1501307 0.54788655
20.254951 -4.1235218 0.55489409
20.245983 -4.0885663 0.54861397
20.253576 -4.0581985 0.55599028
20.258232 -4.0363317 0.55120176
20.26969 -3.9984171 0.5535
20.283516 -3.9780455 0.5571512
20.290636 -3.9555361 0.55506539
20.279833 -3.9222972 0.54374456
20.297289 -3.8879747 0.54382563
20.289665 -3.8722048 0.55037832
20.303417 -3.8260696 0.55528843
20.304138 -3.8146403 0.54689449
20.318539 -3.7813148 0.54060084
20.320276 -3.7489915 0.54789871
20.317186 -3.73083 0.54482764
20.336355 -3.6844208 0.55383706
20.339134 -3.6564319 0.55705678
20.33979 -3.6447473 0.54520863
20.349083 -3.6010675 0.55936861
20.358419 -3.5704334 0.5409767
20.354267 -3.5514283 0.54039049
20.354986 -3.5170448 0.54289651
20.367271 -3.4935632 0.55038357
20.373224 -3.4736071 0.54184198
20.366434 -3.4419653 0.54310292
20.376534 -3.4163392 0.5424065
20.375603 -3.3730781 0.54132521
20.397852 -3.3542676 0.54354781
20.388212 -3.3312287 0.54106224
20.392694 -3.3038802 0.54081583
20.398745 -3.2656698 0.55117249
20.208046 -3.2004476 0.57116205
20.215893 -3.1793606 0.58255899
20.211185 -3.1571894 0.56548929
20.217899 -3.1266358 0.57163203
20.225834 -3.0907714 0.57496458
20.233034 -3.0605865 0.57311553
20.239113 -3.0328612 0.58162755
20.247374 -3.0194442 0.56472254
20.44957 -3.0152225 0.54304492
20.651562 -3.0089922 0.53110886
20.84395 -3.0013394 0.50468004
21.052708 -3.0097582 0.47113034
21.252901 -3.0067611 0.45153794
21.436062 -3.00089 0.43427885
21.645399 -3.0108833 0.40465802
21.838104 -2.997438 0.37698984
22.048994 -3.0016346 0.36880845
22.248428 -3.0012507 0.34579971
22.647833 -3.0050733 0.28415123
22.85244 -3.0004709 0.27263385
23.048796 -3.0036631 0.24845698
23.242411 -2.9983187 0.21499445
23.643148 -3.0182419 0.17944866
23.851021 -3.0098243 0.15145585
24.045319 -2.9923999 0.13093781
-7.656651 5.0004249 1.9955618
-7.6492882 4.9903851 1.9850571
-7.6701145 4.9865212 1.9921753
-7.6595879 4.9783368 1.9805622
-7.6702404 4.9553747 1.9964412
-7.6757269 4.9544992 1.9970533
-7.679822 4.9328766 1.997072
-7.6993809 4.9353428 1.9884331
-7.7090344 4.9149523 1.9897701
-7.7092347 4.9067297 1.9842273
-7.7108073 4.896533 1.9883271
-7.7205691 4.8806586 1.993083
-7.7208204 4.8709016 1.9846811
-7.7339387 4.8586001 1.9788103
-7.7386551 4.8625607 1.9807023
-7.7474771 4.8479342 1.9924536
-7.755672 4.8360963 1.9933267
-7.763833 4.8315692 1.9874201
-7.7606177 4.8042426 1.9918866
-7.7760501 4.803555 1.9789038
-7.7770104 4.7881188 1.9865072
-7.7938557 4.7697306 1.9890285
-7.8059297 4.7778845 1.9925945
-7.8063903 4.7596998 1.9946706
-7.8127069 4.7435622 1.9915279
-7.8171158 4.7453518 1.9845889
-7.8297586 4.7256804 1.9966516
-7.8215127 4.704567 1.9950362
-7.8391585 4.6933718 1.996953
-7.8523221 4.6934323 1.9890498
-7.8584533 4.6792059 1.9965879
-7.856966 4.6747928 1.9966239
-7.8529415 4.664948 1.9957097
-7.8653364 4.6412702 1.9875156
-7.8756394 4.6378884 1.9940985
-7.8890696 4.6166949 1.9933946
-7.8894234 4.6094408 1.983952
-7.8976994 4.5969987 1.9843376
-7.9075751 4.5934629 1.9844792
-7.9155188 4.5832996 1.9956417
-7.9113503 4.5735264 1.9835473
-7.9196281 4.5517459 1.9980179
-7.9278545 4.5404797 1.9936315
-7.9369798 4.543294 1.9965638
-7.9342833 4.522265 1.98712
-7.9449887 4.5142503 1.9874974
-7.9563823 4.51231 1.9916444
-7.9572029 4.4885077 1.9943823
-7.957623 4.4812279 1.9846261
-7.9778852 4.4723873 1.9957572
-7.9869699 4.4540825 1.9881742
-7.9881334 4.4538517 1.9898791
-7.9948101 4.4317312 1.9913952
-7.9858584 4.4268064 1.9868118
-7.9939585 4.4108834 1.9922943
-8.0114861 4.4105449 1.9808656
-8.0086212 4.3850875 1.9786094
-8.021594 4.3850684 1.9836723
-8.0318127 4.3708735 1.9925852
-8.0317726 4.3626437 1.983796
-8.0405855 4.3515425 1.9878496
-8.0369654 4.3454742 1.9828285
-8.0516253 4.3189106 1.9868515
-8.0647526 4.3074651 1.997123
-8.0624475 4.2940698 1.9826535
-8.074645 4.2892809 1.9790363
-8.0782547 4.2734756 1.9811609
-8.0841055 4.2708015 1.9944743
-8.084877 4.2639966 1.9848087
-8.0967197 4.2433038 1.9981382
-8.0973368 4.2398548 1.9915993
-8.113884 4.2260671 1.9902341
-8.1154366 4.2036448 1.9935555
-8.1129494 4.1941042 1.9966898
-8.1201763 4.1928625 1.9976954
-8.1218557 4.1854014 1.9851875
-8.1271372 4.1602926 1.9881582
-8.1302776 4.1552801 1.9797467
-8.140089 4.1354265 1.9958302
-8.1595507 4.1296453 1.9825296
-8.1656656 4.1291466 1.997097
-8.1583042 4.1179838 1.9892013
-8.1722927 4.0911369 1.9902166
-8.1829433 4.0926285 1.9930328
-8.1704435 4.0727296 1.9859567
-8.1769218 4.0569715 1.9827774
-8.1958933 4.0617366 1.9858553
-8.1918774 4.049149 1.9952947
-8.1962566 4.0325232 1.9962626
-8.2045364 4.022193 1.982839
-8.2061014 4.011488 1.9803149
-8.2130823 3.9938695 1.9980346
-8.2279434 3.987972 1.9803215
-8.2217731 3.9771173 1.9955219
-8.23277 3.9644396 1.9822536
-8.2308273 3.9509444 1.984665
-8.2520475 3.9441237 1.9832873
-8.2501745 3.9269488 1.9807764
-8.2588453 3.9110074 1.9931011
-8.2665319 3.9123836 1.9865651
-8.2676268 3.8977766 1.9808013
-8.2712288 3.8817539 1.9889041
-8.2770958 3.8764198 1.9826022
-8.2806587 3.8627896 1.9969463
-8.2890062 3.8436794 1.9901209
-8.2906055 3.8320134 1.9813164
-8.3097763 3.8246121 1.997215
-8.3103094 3.8045535 1.98747
-8.3133373 3.8012772 1.9933227
-8.3240242 3.7957509 1.9920982
-8.3212299 3.7745509 1.9878209
-8.3241844 3.7551534 1.9790827
-8.3390198 3.7552779 1.9965796
-8.3401403 3.7372115 1.9920232
-8.3469 3.7361546 1.9799411
-8.3404694 3.7188389 1.9877847
-8.3428268 3.7076757 1.9798265
-8.3492699 3.7012875 1.9834163
-8.3654413 3.6771636 1.9953438
-8.3757439 3.6676283 1.9933665
-8.3672543 3.6661458 1.9818181
-8.3830252 3.6469524 1.9825084
-8.3875189 3.6381507 1.9949669
-8.3944988 3.6334391 1.9810098
-8.3860188 3.6071615 1.997654
-8.3896046 3.5924928 1.9886476
-8.4053307 3.5806282 1.9801507
-8.4089985 3.5674665 1.9969455
-8.4090595 3.5632629 1.9813031
-8.4171772 3.5538697 1.9878197
-8.4272556 3.5380628 1.984555
-8.4288654 3.5315645 1.9938053
-8.4297695 3.5256371 1.9859694
-8.4381981 3.4977772 1.9851445
-8.440567 3.5034287 1.9897716
-8.4462757 3.4905093 1.9914666
-8.4609747 3.4668627 1.9930407
-8.4641533 3.4645307 1.9932038
-8.470521 3.447103 1.9809207
-8.4725142 3.4265075 1.9910089
-8.4679747 3.4207664 1.9970615
-8.4666834 3.4183316 1.9883943
-8.4761248 3.3998935 1.9855845
-8.4933853 3.3979104 1.986707
-8.4914551 3.3784254 1.9852798
-8.5048809 3.3580825 1.9827386
-8.4965944 3.3478756 1.9883634
-8.5067177 3.3393075 1.9834751
-8.5166616 3.3291736 1.9929851
-8.5188723 3.3218307 1.993732
-8.5109777 3.3037963 1.980577
-8.5170135 3.291805 1.9968331
-8.5317001 3.2751076 1.9865036
-8.5291796 3.2658679 1.9860501
-8.5455208 3.2632613 1.9979774
-8.543272 3.251915 1.981434
-8.5435476 3.2335236 1.9865624
-8.5581818 3.2296615 1.9950082
-8.5576878 3.2004919 1.9852116
-8.567667 3.1937315 1.9799707
-8.5568829 3.1794686 1.9886
-8.5592365 3.1837561 1.9971492
-8.5653181 3.1579263 1.9809185
-8.5817118 3.1591697 1.9873722
-8.5785418 3.1286089 1.9831494
-8.5834284 3.1248167 1.9795169
-8.5848417 3.1052518 1.9894358
-8.6011095 3.0955389 1.987442
-8.5889158 3.09079 1.9882339
-8.6065006 3.0805151 1.9942272
-8.6093102 3.0654612 1.9979256
-8.6034737 3.0524728 1.9978853
-8.6090708 3.0378067 1.9839957
-8.6108818 3.0311329 1.9833359
-8.6262226 3.0119984 1.9841077
-10.674876 1.0054728 1.8154346
-10.675234 0.98586845 1.8168526
-10.685653 0.97431934 1.8205686
-10.678044 0.95927143 1.8115525
-10.689623 0.93092817 1.8042843
-10.675187 0.9240486 1.8139908
-10.677032 0.90726215 1.8027438
-10.678898 0.88911802 1.8088713
-10.694631 0.87338561 1.8203715
-10.691004 0.8665185 1.8047898
-10.686584 0.84429401 1.8015981
-10.693164 0.84307951 1.8137252
-10.698306 0.81279403 1.8092283
-10.699711 0.81144381 1.8046105
-10.690111 0.77982074 1.8065782
-10.687758 0.78391826 1.816597
-10.695679 0.76743466 1.8047618
-10.694825 0.75032985 1.8097166
-10.707824 0.73871416 1.8138748
-10.7093 0.71192771 1.8061036
-10.706338 0.69074243 1.8110471
-10.706547 0.68413657 1.8097169
-10.694608 0.67352808 1.8130438
-10.707144 0.662633 1.8099645
-10.704277 0.64243531 1.8102077
-10.699422 0.62566686 1.8094957
-10.704528 0.60203415 1.8072486
-10.701447 0.60029018 1.8028469
-10.713391 0.58656234 1.8017809
-10.701156 0.5723511 1.8088815
-10.716671 0.54207468 1.809751
-10.707221 0.53254139 1.8189704
-10.719082 0.51587838 1.8125383
-10.707594 0.5075888 1.8101692
-10.719164 0.48305485 1.8025621
-10.71047 0.48424429 1.8131472
-10.722468 0.46117595 1.8150615
-10.716692 0.44201463 1.8101948
-10.715297 0.43171519 1.8065647
-10.714946 0.41443589 1.8036886
-10.707474 0.40240547 1.8055025
-10.719111 0.38056746 1.8127507
-10.721509 0.36759171 1.8183044
-10.710318 0.34680519 1.8105379
-10.721475 0.33512858 1.813208
-10.720218 0.33280522 1.812039
-10.728354 0.319123 1.802774
-10.714557 0.29183495 1.8093207
-10.725604 0.28653935 1.8205421
-10.720261 0.26217026 1.8094591
-10.717772 0.24582823 1.8013213
-10.713449 0.23838292 1.8063219
-10.721857 0.22905369 1.813324
-10.72469 0.21140844 1.8145173
-10.71527 0.18307815 1.8190125
-10.723158 0.17645571 1.8161635
-10.51345 0.15933269 1.8368186
-10.531726 0.13948792 1.8429595
-10.523436 0.12898386 1.8387858
-10.523903 0.10419032 1.8252244
-10.515432 0.10223129 1.830303
-10.515079 0.084920757 1.8429186
-10.529705 0.079506896 1.8411878
-10.517308 0.051543389 1.8367952
-10.523697 0.033263844 1.8390559
-10.525571 0.027338387 1.8296781
-10.530272 0.012597997 1.8409551
-10.516505 -0.00022236966 1.8270946
-10.516577 -0.024575865 1.8374374
-10.520802 -0.02924105 1.8376942
-10.518567 -0.045300927 1.8306998
-10.531233 -0.060893267 1.841103
-10.531263 -0.071017444 1.8408003
-10.533004 -0.088671409 1.8272425
-10.519116 -0.11266182 1.8301134
-10.522947 -0.11849339 1.8417673
-10.516136 -0.12901506 1.8333892
-10.716767 -0.14881235 1.8046929
-10.712493 -0.16595343 1.8085577
-10.717856 -0.18736869 1.8024659
-10.722941 -0.20661949 1.8150223
-10.715 -0.21862726 1.8066947
-10.716634 -0.23077632 1.8029509
-10.718551 -0.24479733 1.8162609
-10.714004 -0.26508299 1.8202882
-10.726564 -0.26937252 1.8131914
-10.727451 -0.28704369 1.81028
-10.716695 -0.30681941 1.8053124
-10.712407 -0.32256019 1.8181878
-10.724235 -0.32392329 1.8046316
-10.722132 -0.35065183 1.806808
-10.707453 -0.36974016 1.8119595
-10.72108 -0.37078515 1.8199444
-10.71843 -0.39408937 1.8088902
-10.722448 -0.41321066 1.8125321
-10.72242 -0.42527807 1.8068653
-10.709467 -0.43863764 1.8185079
-10.719404 -0.46166742 1.8053546
-10.714288 -0.46085739 1.8114398
-10.716275 -0.49234256 1.8111404
-10.711799 -0.50221479 1.8190904
-10.705124 -0.51791757 1.8029294
-10.713278 -0.52777851 1.8206998
-10.713425 -0.53554142 1.8101419
-10.704606 -0.56789619 1.8154376
-10.712124 -0.58081555 1.80364
-10.705288 -0.58139628 1.8134563
-10.706788 -0.61254972 1.8152151
-10.701421 -0.61924338 1.8127555
-10.709948 -0.62860197 1.8137813
-10.698753 -0.65418154 1.8199046
-10.699587 -0.65380579 1.8052937
-10.696562 -0.6823231 1.8157895
-10.695745 -0.69174862 1.813489
-10.705465 -0.71313637 1.8137991
-10.689869 -0.72284454 1.8161544
-10.706049 -0.74653983 1.8128921
-10.692392 -0.75257963 1.8134385
-10.696956 -0.77411723 1.8022521
-10.683958 -0.78506756 1.8166668
-10.689914 -0.80572987 1.8204603
-10.689725 -0.80815405 1.8195868
-10.684127 -0.82850116 1.8051517
-10.688011 -0.84900075 1.8162456
-10.694176 -0.8602106 1.8009048
-10.68001 -0.87683511 1.8108076
-10.683467 -0.89067173 1.8119653
-10.690166 -0.91190422 1.8020321
-10.676297 -0.91877371 1.8055086
-10.673594 -0.93373984 1.8129807
-10.676455 -0.95577669 1.8147347
-10.675503 -0.95876104 1.8090072
-10.675403 -0.97730362 1.8178737
20.28002 -4.9952922 0.66865319
20.282368 -4.9630437 0.67568749
20.289333 -4.93784 0.68103343
20.286163 -4.8973265 0.68747717
20.304113 -4.8647652 0.68762106
20.312088 -4.8396096 0.67582625
20.323502 -4.8130465 0.68399441
20.322348 -4.7906609 0.68505299
20.322906 -4.7686596 0.67805254
20.3377 -4.7279158 0.68743294
20.341318 -4.7028656 0.68812978
20.348204 -4.6824141 0.67277813
20.362085 -4.6419029 0.6743232
20.361273 -4.6114287 0.68806559
20.366863 -4.5898342 0.6860435
20.372559 -4.5670524 0.68084151
20.386419 -4.539607 0.67385787
20.388409 -4.5000262 0.68090558
20.391417 -4.4665556 0.68159091
20.407385 -4.4449229 0.67464679
20.218456 -4.3840876 0.70657742
20.224363 -4.3453631 0.70836157
20.21488 -4.3192692 0.70225656
20.226902 -4.3004608 0.69821596
20.232626 -4.2624936 0.70735127
20.23629 -4.2252245 0.69084078
20.254711 -4.2004476 0.69333923
20.246109 -4.1799951 0.70697337
20.264517 -4.1428084 0.7056241
20.263569 -4.1158881 0.69744456
20.275639 -4.0898538 0.69945467
20.277391 -4.0640087 0.69198048
20.280891 -4.0337043 0.7023825
20.278244 -4.017396 0.70336717
20.291519 -3.9813416 0.69408464
20.293888 -3.9475627 0.69382888
20.299707 -3.9212615 0.71009922
20.307985 -3.8894217 0.69856304
20.309858 -3.864996 0.69594622
20.310343 -3.8472986 0.6919744
20.322609 -3.8032739 0.70575351
20.336843 -3.7831979 0.69708622
20.343565 -3.7452862 0.71042371
20.340649 -3.7156439 0.69176221
20.338678 -3.698312 0.70084023
20.347385 -3.664155 0.69537437
20.355797 -3.6496835 0.70787901
20.360439 -3.6123989 0.70388508
20.373507 -3.5786672 0.69597113
20.363916 -3.5498381 0.69740117
20.370314 -3.5340905 0.69449484
20.390451 -3.4894152 0.7032963
20.381882 -3.4632857 0.70163363
20.386612 -3.4453006 0.70123005
20.392639 -3.4144747 0.709768
20.407703 -3.3800912 0.70406538
20.397264 -3.3624053 0.70442963
20.223133 -3.2930593 0.71587288
20.221079 -3.2680392 0.73042232
20.231073 -3.2375996 0.72537512
20.222456 -3.2057128 0.7276423
20.230894 -3.1785996 0.72614515
20.228094 -3.1449273 0.72233081
20.243593 -3.1313586 0.72804821
20.238647 -3.096555 0.71613127
20.242201 -3.0714386 0.73013109
20.260014 -3.0414751 0.7133432
20.258148 -3.0141599 0.72533345
20.462109 -3.0225589 0.69192493
20.660658 -3.0049653 0.68073696
20.854202 -3.0199487 0.65321052
21.070051 -3.0104156 0.6245656
21.264441 -3.0075641 0.62135518
21.455053 -3.0130572 0.58346945
21.671419 -3.0072982 0.57213724
21.875902 -3.0017488 0.53766537
22.074417 -3.0021119 0.52489483
22.276176 -2.988023 0.49117115
22.469957 -2.9902451 0.46984607
22.869616 -3.020277 0.42415088
23.063307 -3.0107942 0.40536612
23.271706 -3.0058525 0.39524686
23.473692 -2.9869492 0.36655593
23.871891 -3.002846 0.32818717
24.077276 -2.9976552 0.29525
-8.3690691 4.9958849 1.9950967
-8.37115 4.9900293 1.9937192
-8.3698225 4.9880672 1.9968271
-8.3871155 4.9631863 2.0030932
-8.395277 4.9449301 1.9928008
-8.3870077 4.9404154 1.9947019
-8.4119616 4.9285007 1.9863056
-8.4120646 4.9150424 1.9953675
-8.4224396 4.9134765 1.9948554
-8.4204569 4.8911324 1.9840693
-8.424675 4.8822651 1.9883798
-8.4394684 4.8782687 1.9985286
-8.4356232 4.862535 1.9984192
-8.4486542 4.8564277 1.9851424
-8.4554014 4.8290615 1.9853321
-8.4724255 4.8168507 1.9927399
-8.4675322 4.8065562 1.9999756
-8.4710178 4.8030119 1.9855049
-8.485425 4.7959304 2.0012293
-8.5003281 4.7776523 1.9863811
-8.5060005 4.7619605 1.9944459
-8.5073462 4.7582626 1.9903044
-8.518527 4.7451816 2.002229
-8.5098 4.7258248 1.9998549
-8.5343323 4.726459 2.0019331
-8.5386591 4.6967912 1.9836283
-8.5355616 4.6987233 1.9868661
-8.5452118 4.6838584 1.9984063
-8.5493155 4.6612582 1.9947209
-8.5576782 4.6504111 1.9846226
-8.560873 4.6405311 1.9907069
-8.5759859 4.6359286 1.9849774
-8.575223 4.6267519 1.9980597
-8.5825195 4.6128926 1.9836878
-8.5921736 4.6010728 2.0018613
-8.5997324 4.5914831 2.0022881
-8.6055784 4.5715308 1.9965765
-8.6081705 4.5684524 1.9879389
-8.6192055 4.5477762 1.9886494
-8.6139097 4.5452271 1.9904699
-8.6186953 4.5259571 1.9943767
-8.6373787 4.5180306 1.985656
-8.6417751 4.4973063 1.9997432
-8.6530733 4.4957089 1.991964
-8.6587257 4.4708643 1.9843674
-10.693342 0.99823672 1.8954263
-10.695518 0.98992252 1.8823191
-10.683385 0.96537912 1.8981621
-10.699869 0.95614678 1.8853669
-10.695621 0.93854016 1.8820693
-10.689532 0.92246091 1.8915572
-10.699516 0.91399348 1.8851831
-10.698199 0.88740838 1.8901578
-10.702774 0.87578791 1.8856173
-10.695108 0.8647601 1.8883227
-10.695017 0.85249859 1.897114
-10.700081 0.83943021 1.8925261
-10.698231 0.81984341 1.8983318
-10.700517 0.80510062 1.8898438
-10.695577 0.79591227 1.8986899
-10.713914 0.77409899 1.886399
-10.702742 0.76356751 1.8805851
-10.697923 0.73559725 1.8831319
-10.708109 0.72427541 1.8890059
-10.702814 0.7218228 1.8988016
-10.714793 0.70064288 1.8912867
-10.71796 0.67556053 1.8856562
-10.705694 0.67346859 1.8953931
-10.707602 0.65021002 1.8853432
-10.717976 0.63298976 1.8810623
-10.719483 0.61851025 1.889927
-10.713261 0.6162594 1.8832208
-10.712831 0.59986299 1.8835061
-10.709833 0.574296 1.8874329
-10.720942 0.57501775 1.8838719
-10.722233 0.54473382 1.8940971
-10.711018 0.5322355 1.8942074
-10.725412 0.51293492 1.8871944
-10.730049 0.51263785 1.891893
-10.724715 0.48285621 1.8943427
-10.723641 0.47243613 1.8972853
-10.514936 0.46073878 1.9137042
-10.531651 0.43892384 1.9079483
-10.528058 0.42091256 1.9116013
-10.520519 0.41257906 1.9109534
-10.516521 0.38371894 1.9149998
-10.522276 0.38681743 1.9015272
-10.527901 0.35624403 1.9037343
-10.520518 0.34173572 1.9006257
-10.528416 0.33324257 1.9027178
-10.533844 0.32648373 1.909373
-10.536308 0.31032392 1.9076631
-10.523088 0.2980569 1.9188458
-10.535601 0.26996809 1.9067254
-10.524441 0.26998436 1.9009808
-10.533909 0.25454473 1.9010861
-10.53931 0.23387437 1.9190004
-10.538162 0.2080836 1.9010528
-10.534787 0.21015953 1.903309
-10.5345 0.18480076 1.9117848
-10.532101 0.17445698 1.908215
-10.523026 0.1620709 1.9031996
-10.53564 0.14330809 1.9006317
-10.53705 0.13241264 1.90469
-10.530561 0.11303774 1.9034803
-10.529796 0.10453552 1.9015471
-10.528905 0.090952359 1.91366
-10.530079 0.078815676 1.9146992
-10.52918 0.050332654 1.9125317
-10.526004 0.042394709 1.9197234
-10.534332 0.017093912 1.9112893
-10.526209 0.0010855111 1.9051877
-10.523081 -0.0073403833 1.9150419
-10.5425 -0.017001091 1.9087198
-10.537841 -0.040016837 1.917742
-10.53437 -0.042132203 1.9129814
-10.532813 -0.063241944 1.9093572
-10.539123 -0.085431665 1.9083161
-10.524371 -0.086648956 1.9135119
-10.531767 -0.10463762 1.9054897
-10.531951 -0.13092186 1.9068867
-10.540548 -0.12907133 1.9069954
-10.535227 -0.14410149 1.9133983
-10.54003 -0.15858027 1.9048605
-10.531136 -0.18844926 1.9080268
-10.533198 -0.19491817 1.9037977
-10.540001 -0.19992022 1.9131787
-10.530407 -0.23134239 1.9150896
-10.521833 -0.24814545 1.9105027
-10.528044 -0.25249678 1.9026463
-10.522256 -0.27720481 1.9032248
-10.53505 -0.29070351 1.9003725
-10.527716 -0.29909447 1.9172087
-10.533957 -0.31252348 1.9142842
-10.528717 -0.33731264 1.9162085
-10.520289 -0.34443972 1.9063815
-10.53607 -0.35866532 1.9062694
-10.522449 -0.36361361 1.9094518
-10.526896 -0.38032556 1.9105474
-10.515911 -0.4036054 1.9020073
-10.532761 -0.42147529 1.9034743
-10.529012 -0.43253818 1.9061574
-10.72683 -0.44527411 1.8944103
-10.729044 -0.47638017 1.8847009
-10.714161 -0.48270541 1.8849152
-10.717333 -0.50108343 1.8927145
-10.710312 -0.5157432 1.8809998
-10.723381 -0.53730386 1.8990476
-10.713247 -0.54385436 1.8950934
-10.721996 -0.5599817 1.8825687
-10.719266 -0.57354218 1.8868825
-10.715047 -0.58395731 1.8948411
-10.708123 -0.59407932 1.8933593
-10.712173 -0.62707198 1.8957547
-10.705912 -0.6258598 1.8868073
-10.719415 -0.64851838 1.8944634
-10.705098 -0.66487479 1.8824402
-10.702475 -0.67504102 1.8838358
-10.701783 -0.69583464 1.8936592
-10.705024 -0.70616013 1.8823327
-10.700769 -0.71455741 1.8924218
-10.71218 -0.73955947 1.8870709
-10.695611 -0.75848329 1.8865719
-10.700503 -0.7623226 1.8880529
-10.702979 -0.78078693 1.8857177
-10.694381 -0.79366183 1.895694
-10.698106 -0.81314802 1.8842829
-10.693833 -0.83096015 1.8976732
-10.688145 -0.84905046 1.8852361
-10.692612 -0.85137308 1.8974386
-10.688384 -0.87045264 1.8962072
-10.694046 -0.88197535 1.8849359
-10.685039 -0.8979826 1.8897014
-10.696509 -0.91995621 1.8855867
-10.686478 -0.92550057 1.8979653
-10.698761 -0.94356316 1.8924251
-10.681046 -0.96648777 1.8823532
-10.694723 -0.98629761 1.8894219
20.299192 -4.999135 0.8349387
20.292063 -4.9568501 0.83149552
20.297096 -4.93155 0.82392067
20.300858 -4.9131455 0.83976924
20.313309 -4.8669882 0.83455503
20.330486 -4.8535771 0.82230991
20.323509 -4.8114305 0.83946121
20.328871 -4.7828841 0.833489
20.348652 -4.7579622 0.83952928
20.358322 -4.728075 0.84069502
20.355022 -4.6998324 0.82149464
20.355612 -4.6856723 0.83625996
20.372719 -4.6533914 0.82799631
20.38221 -4.6242218 0.82979822
20.387512 -4.5894346 0.82940912
20.387558 -4.5642643 0.83407366
20.395321 -4.5328259 0.83251733
20.400194 -4.5027409 0.83113056
20.204784 -4.436799 0.84703326
20.229588 -4.4108438 0.8436746
20.235516 -4.3747859 0.86015362
20.242205 -4.3446946 0.84237921
20.24362 -4.3240137 0.84846258
20.236732 -4.3003178 0.85528362
20.251608 -4.2577586 0.84845084
20.266054 -4.2415509 0.8583383
20.265125 -4.203939 0.85120523
20.2626 -4.1877718 0.84568971
20.27865 -4.1590219 0.85488933
20.289808 -4.131649 0.84182996
20.277569 -4.1044869 0.85660619
20.281771 -4.0767369 0.8532424
20.288157 -4.0336332 0.84231985
20.300587 -4.0034399 0.84684485
20.299799 -3.9843545 0.84567231
20.312138 -3.9567666 0.85244298
20.314325 -3.9360118 0.84855235
20.32934 -3.9036462 0.85254741
20.3388 -3.8610566 0.85700274
20.33742 -3.8330939 0.86053336
20.342939 -3.8231163 0.84292006
20.343197 -3.7946453 0.84474301
20.36005 -3.7654552 0.86134791
20.365942 -3.7294626 0.85981673
20.356319 -3.6998467 0.84903342
20.365484 -3.6634402 0.85749269
20.38138 -3.6503558 0.85835391
20.373344 -3.6077266 0.84322017
20.389265 -3.581068 0.84230763
20.389601 -3.5611806 0.86098212
20.393429 -3.5211239 0.8612507
20.399603 -3.5061214 0.86159956
20.40756 -3.4795372 0.84274036
20.215954 -3.419085 0.87222135
20.218859 -3.3869317 0.88215226
20.210941 -3.3507669 0.88006961
20.231445 -3.3238199 0.86264414
20.232769 -3.2899818 0.8794136
20.23892 -3.2652574 0.8744002
20.24412 -3.2451913 0.88082582
20.247953 -3.2062531 0.87885284
20.252016 -3.1860559 0.86341995
20.25639 -3.1627769 0.86610198
20.261864 -3.1198115 0.86755139
20.256025 -3.098691 0.87294543
20.26008 -3.0701983 0.86628896
20.262012 -3.0458744 0.87835735
20.266479 -3.0248582 0.87603551
20.484457 -3.011378 0.84945005
20.677462 -3.0167022 0.83468938
20.876934 -3.0221562 0.81061941
21.074472 -3.0074716 0.79849261
21.276615 -3.0122991 0.76138455
21.481476 -3.0154979 0.73897552
21.687822 -3.0083401 0.72941482
21.879597 -3.000895 0.7000683
22.084749 -2.9952445 0.68676108
22.282001 -2.9888146 0.66617966
22.496962 -2.9848354 0.63987666
22.883326 -3.014389 0.60773897
23.078541 -2.998637 0.59058762
23.290466 -3.0058961 0.56725264
23.491045 -2.9915991 0.53766602
23.892641 -3.0180311 0.50214744
24.095291 -2.9935329 0.47200385
-10.699122 1.0062758 1.9665573
-10.689294 0.98514354 1.973552
-10.694773 0.97522509 1.9761416
-10.701476 0.95122474 1.9597111
-10.70685 0.94347531 1.9689288
-10.702384 0.92194247 1.9765099
-10.70024 0.90324336 1.9770585
-10.694831 0.9029361 1.9699249
-10.706441 0.87937677 1.9581137
-10.699978 0.85726744 1.9654576
-10.701394 0.84708381 1.9615599
-10.713861 0.82809955 1.9714761
-10.699311 0.82498598 1.9664216
-10.702152 0.79649776 1.9723166
-10.701403 0.78394318 1.9654137
-10.711414 0.77714181 1.9719315
-10.713823 0.75375098 1.9747052
-10.715664 0.73701417 1.9721287
-10.724616 0.72989261 1.9609516
-10.725359 0.7104376 1.9626255
-10.718738 0.71074921 1.9690778
-10.715993 0.67975599 1.9715096
-10.72331 0.66445285 1.9657931
-10.715662 0.64742929 1.9665552
-10.722097 0.63225484 1.9697312
-10.715415 0.62814724 1.9610758
-10.523438 0.59155732 1.9832999
-10.527408 0.58557194 1.9844611
-10.533933 0.57164967 1.9934752
-10.531613 0.55797929 1.9780099
-10.5276 0.53190476 1.9778334
-10.537114 0.52952838 1.9816421
-10.524177 0.52076632 1.9851276
-10.536934 0.50056422 1.9865705
-10.528909 0.47481704 1.9878213
-10.537687 0.47662202 1.979948
-10.535101 0.4524968 1.9815999
-10.529569 0.44521534 1.9919748
-10.522855 0.43220112 1.983137
-10.527106 0.40227699 1.9953395
-10.526802 0.39711693 1.9961791
-10.526653 0.38317329 1.9893551
-10.542676 0.36287785 1.9884827
-10.535192 0.35051411 1.9821229
-10.526246 0.32684427 1.9847317
-10.536028 0.31504431 1.9838619
-10.533663 0.3064588 1.9935845
-10.529624 0.28401294 1.990744
-10.535191 0.26886809 1.9896084
-10.529574 0.27003828 1.9932686
-10.531735 0.25205833 1.9864895
-10.533036 0.23475175 1.9804884
-10.541141 0.22192731 1.988914
-10.530096 0.19707046 1.9796988
-10.545391 0.18162416 1.9815373
-10.538057 0.17683922 1.9863001
-10.531572 0.15484242 1.9772022
-10.535344 0.13728568 1.9803838
-10.541936 0.13454394 1.9831465
-10.549643 0.11777943 1.9818059
-10.533669 0.099194624 1.9772122
-10.544453 0.079629168 1.9900395
-10.541218 0.072259031 1.9847701
-10.549537 0.056211866 1.989372
-10.54705 0.045127954 1.9932563
-10.542705 0.021616073 1.9870847
-10.533576 0.0048065456 1.9936455
-10.533525 0.0044219811 1.9773792
-10.550271 -0.022378141 1.993101
-10.544233 -0.036729403 1.9867883
-10.539516 -0.054971527 1.9966211
-10.539373 -0.063883528 1.9816189
-10.546381 -0.069466554 1.9939772
-10.538638 -0.083294958 1.985019
-10.546273 -0.11458392 1.9797076
-10.530003 -0.1214949 1.9856153
-10.539884 -0.13926511 1.9894443
-10.543183 -0.15699242 1.9876195
-10.542728 -0.17149517 1.9937257
-10.546532 -0.18001065 1.9802113
-10.536626 -0.20387946 1.9831854
-10.536868 -0.2076952 1.9919783
-10.532091 -0.21863066 1.9899185
-10.534936 -0.24195519 1.9887606
-10.546718 -0.25306678 1.9910439
-10.543791 -0.26808107 1.9811461
-10.534935 -0.29316965 1.9882077
-10.542231 -0.30177167 1.9922713
-10.53133 -0.31015345 1.9965611
-10.534303 -0.32259318 1.9870641
-10.530768 -0.34540349 1.9884267
-10.52424 -0.3487516 1.9807014
-10.528899 -0.36763966 1.9967681
-10.535596 -0.38970941 1.9842373
-10.523431 -0.40391904 1.9953214
-10.528962 -0.41557986 1.9861172
-10.52437 -0.43878421 1.98655
-10.532697 -0.44970304 1.9931056
-10.536939 -0.47016099 1.9860038
-10.53687 -0.47405198 1.9811858
-10.526278 -0.49489039 1.9882805
-10.534303 -0.50970197 1.9867495
-10.530033 -0.50969386 1.981052
-10.529675 -0.53692579 1.9880058
-10.521828 -0.55255562 1.9954698
-10.522876 -0.55430001 1.9859923
-10.533108 -0.57205677 1.988029
-10.721628 -0.61013526 1.9745655
-10.724813 -0.62200743 1.9746597
-10.715081 -0.63447678 1.9655787
-10.710145 -0.65704036 1.9703741
-10.718094 -0.6683355 1.9750718
-10.707552 -0.6760875 1.9744904
-10.722688 -0.68422961 1.9613889
-10.710848 -0.70529264 1.9673685
-10.711523 -0.72819245 1.9663134
-10.721656 -0.74213314 1.9622099
-10.70973 -0.74668193 1.9661064
-10.711948 -0.7752831 1.9731145
-10.714051 -0.7750386 1.9626358
-10.705215 -0.7907663 1.9645747
-10.711562 -0.81537139 1.9701984
-10.71319 -0.83038491 1.9630487
-10.71538 -0.84150428 1.9627342
-10.710649 -0.86177588 1.9763327
-10.699918 -0.86373556 1.9620057
-10.710221 -0.89686078 1.9687114
-10.704607 -0.89911479 1.9658397
-10.695076 -0.92466229 1.9693371
-10.698515 -0.93340892 1.9680476
-10.692412 -0.95443577 1.9659975
-10.70435 -0.96294743 1.9743078
-10.690643 -0.97424608 1.9625684
20.319872 -4.9610519 0.99042934
20.311672 -4.9288964 0.97722191
20.317032 -4.9072237 0.97701371
20.328024 -4.8770885 0.97863752
20.345682 -4.8425946 0.99296272
20.340429 -4.8198457 0.97669411
20.358635 -4.8018332 0.98663062
20.355511 -4.7590361 0.99049032
20.370296 -4.729516 0.98078656
20.373354 -4.7076492 0.97473031
20.384632 -4.6805849 0.98895139
20.387974 -4.6486378 0.98697811
20.398067 -4.6182098 0.97831821
20.407915 -4.6036277 0.99142438
20.205111 -4.5145903 1.0099447
20.210766 -4.5014319 1.0035272
20.220114 -4.476788 1.0067245
20.219358 -4.4419484 1.0043117
20.242422 -4.4189639 1.0030028
20.235744 -4.3795233 0.99513549
20.24297 -4.3553662 1.0058978
20.244377 -4.3343897 1.0001632
20.263773 -4.2898006 0.99640381
20.274467 -4.2618074 0.99876463
20.278231 -4.2487864 0.99809629
20.281174 -4.2164125 1.0023779
20.27766 -4.1809545 1.0030857
20.297306 -4.1524754 1.0104069
20.294498 -4.1271157 1.0124781
20.310343 -4.0945797 1.0057465
20.298279 -4.0809231 0.99491978
20.316938 -4.0519252 0.99680924
20.309824 -4.0095596 0.99501878
20.318913 -3.9824858 0.99294412
20.33032 -3.9575977 0.99560475
20.341019 -3.9356742 1.0023453
20.335962 -3.9031329 0.99624199
20.351572 -3.8767762 1.0103073
20.354464 -3.8390174 1.0014137
20.359386 -3.8111649 0.99672967
20.357538 -3.7810864 0.99736738
20.364824 -3.7580197 0.99866039
20.37396 -3.7276993 0.99396867
20.381266 -3.6938846 1.0079924
20.386456 -3.6742148 0.99853814
20.394268 -3.6493587 1.0026335
20.388781 -3.6150343 1.0108887
20.39715 -3.5905342 0.99711138
20.399546 -3.568537 1.0126964
20.216875 -3.4929163 1.0270284
20.225565 -3.4787881 1.0237284
20.214853 -3.4426506 1.015076
20.225397 -3.4226136 1.0283177
20.231209 -3.3804684 1.0269403
20.231005 -3.3582892 1.0167917
20.241306 -3.3334155 1.0230511
20.235664 -3.2991071 1.0151795
20.258238 -3.281467 1.0233458
20.246994 -3.2464299 1.0250399
20.251297 -3.2228899 1.0198232
20.270594 -3.1955307 1.0205251
20.26655 -3.1637146 1.0291486
20.273815 -3.1261489 1.0295861
20.274281 -3.1075256 1.0239394
20.273331 -3.0738206 1.0122356
20.282194 -3.0544882 1.0171628
20.297276 -3.0254333 1.0281494
20.481371 -3.0275168 1.0092216
20.693676 -3.0248499 0.97706854
20.887714 -3.0218475 0.96018738
21.096577 -3.0234766 0.94239068
21.286177 -3.013037 0.92812902
21.504438 -3.0191808 0.90314585
21.703171 -3.0086663 0.88849294
21.896294 -3.0028708 0.85924584
22.097744 -3.0119426 0.84102577
22.304155 -3.0096228 0.82354921
22.501583 -3.0037823 0.80478805
22.699411 -2.9862547 0.78893673
23.101801 -3.0011587 0.75647587
23.309286 -3.0018101 0.74081582
23.498299 -2.9935949 0.71417028
23.909864 -3.0128751 0.68010062
24.118313 -3.0089664 0.6533066
-11.292414 1.0039397 1.9996924
-11.310707 0.99352562 1.992523
-11.299168 0.98181725 1.9875875
-11.309052 0.96220565 1.988856
-11.297049 0.95166135 1.9998268
-11.298338 0.9234761 1.9889233
-11.311195 0.90637374 1.9904075
-11.310328 0.8903023 1.9926941
-11.302292 0.87460113 1.9856013
-11.307757 0.85801142 1.996272
-11.32056 0.8603363 2.0016832
-11.304949 0.8257494 1.9924736
-11.316484 0.82406151 1.9873503
-11.312935 0.79382622 1.9984123
-11.308094 0.79691005 1.9947286
-11.312261 0.77999824 1.9986602
-11.327309 0.75150049 2.0012918
-11.32085 0.74511808 1.9836557
-11.312083 0.72800028 1.9861244
-11.330387 0.70662218 1.9878109
-11.317998 0.69362527 1.9876313
-11.320175 0.67740035 1.9886757
-11.33154 0.65077806 1.9838445
-11.328007 0.64882278 1.984592
-11.333389 0.63280302 1.9842389
-11.322433 0.61368978 2.0027909
-11.327523 0.60057956 1.9886637
-11.329959 0.57495648 1.983974
-11.330009 0.55910736 1.997988
-11.327569 0.54593933 1.9864466
-11.323421 0.52612317 1.9977324
-11.339429 0.52507013 1.9886189
-11.334371 0.49357063 1.9887097
-11.334122 0.48650131 2.0026734
-11.333103 0.47492424 1.9964465
-11.332416 0.45515576 1.9869368
-11.333154 0.43112746 2.0001485
-11.327996 0.42547083 1.9835701
-11.347507 0.40055004 1.9869765
-11.332982 0.39883375 1.9930497
-11.329976 0.38200849 1.9951429
-11.335663 0.34989476 1.9920202
-11.330441 0.34353691 1.9932359
-11.345104 0.31810385 1.9832214
-11.345783 0.31434307 1.9974698
-11.332667 0.29190141 1.9877906
-11.349038 0.28933099 1.9899247
-11.332175 0.2725046 2.0022447
-11.351869 0.25673267 1.9854875
-11.348134 0.23602913 2.0028579
-11.338304 0.21885264 1.999248
-11.346357 0.19648908 1.99937
-11.337513 0.1798249 1.9889804
-11.347429 0.16895097 1.9890046
-11.347339 0.15783095 2.0011156
-11.352978 0.14023803 1.9866331
-11.348274 0.12666257 1.9854288
-11.341413 0.1103164 1.9832474
-11.342212 0.094621077 2.0011437
-11.339745 0.08298298 1.9941868
-11.339884 0.061475441 1.9859039
-11.343612 0.05219163 1.9911084
-11.347196 0.032008834 1.9955002
-11.341147 0.002142848 1.9848698
-11.335052 -0.0074208113 1.9989715
-11.336824 -0.022433737 1.9913325
-11.353056 -0.032575168 1.9859706
-11.350471 -0.055710923 2.0001154
-11.350044 -0.059520893 1.9944178
-11.351699 -0.080762416 1.9929352
-11.340289 -0.10206497 1.9857984
-11.33714 -0.1070384 1.9852312
-11.348763 -0.13556074 2.0003345
-11.335974 -0.13802156 2.0014253
-11.333793 -0.15439659 1.9888059
-11.337487 -0.17257482 1.997027
-11.348799 -0.18703873 1.99096
-11.345449 -0.21899255 1.9976106
-11.347934 -0.23061767 1.9963044
-11.336094 -0.24401772 1.9896096
-11.345714 -0.26614964 1.997465
-11.342448 -0.26529631 1.9961997
-11.339728 -0.29625311 2.0022645
-11.341883 -0.31462818 2.0017204
-11.342925 -0.33105195 2.000653
-11.336563 -0.33142269 1.9972589
-11.341959 -0.36337939 1.995252
-11.3334 -0.37228388 1.9971418
-11.338167 -0.38399136 1.9832569
-11.344219 -0.40419942 1.9918216
-11.336944 -0.41439056 1.9941038
-11.341791 -0.44170156 1.993088
-11.327881 -0.44669968 1.9969636
-11.327885 -0.47428158 1.9983118
-11.32841 -0.48335636 1.9990832
-11.32998 -0.48654342 1.9953302
-11.334923 -0.5156216 1.9954662
-11.32185 -0.53665787 2.0025427
-11.326865 -0.54300159 1.9937559
-11.325744 -0.55595905 2.0006046
-11.336035 -0.58222491 1.9931047
-11.324022 -0.59394366 1.9941357
-11.333003 -0.61238068 1.9860096
-11.318087 -0.63147122 1.9861416
-11.321799 -0.63175929 1.9930379
-11.324718 -0.65431219 1.9925855
-11.331368 -0.66252398 1.9988921
-11.317861 -0.67840159 1.9999985
-11.317254 -0.70005512 1.9905964
-11.325413 -0.72136945 1.9840709
-11.3267 -0.73377979 1.9871124
-11.315465 -0.75500411 1.9942671
-11.323177 -0.76605803 1.9988153
-11.318994 -0.78306603 2.0001025
-11.314655 -0.80467987 1.9969296
-11.3234 -0.81012803 1.987031
-11.312573 -0.82316357 1.9847462
-11.315418 -0.8436504 2.002408
-11.317136 -0.86451197 1.9942393
-11.308232 -0.87453508 2.0005779
-11.305833 -0.88687098 1.9903262
-11.300369 -0.90901959 1.994669
-11.30773 -0.91994977 1.9837749
-11.310519 -0.94778764 1.9916887
-11.312 -0.95240128 1.9938028
-11.296632 -0.96689415 1.9862813
-11.29114 -0.99171871 2.0015352
20.316504 -4.96701 1.1356225
20.322924 -4.9346199 1.1411451
20.341137 -4.9145427 1.1324507
20.345648 -4.8933043 1.1272244
20.359867 -4.8478632 1.1356523
20.358391 -4.8310642 1.1289506
20.365978 -4.7983599 1.1302099
20.381443 -4.7684631 1.1426528
20.378981 -4.7445459 1.1363978
20.388956 -4.7165079 1.1411116
20.394146 -4.6866336 1.132767
20.389874 -4.6572614 1.1284434
20.216841 -4.592392 1.1536615
20.209255 -4.5542936 1.153886
20.216404 -4.5287795 1.1511538
20.231941 -4.4915066 1.1568129
20.240738 -4.4733691 1.1467594
20.250753 -4.4464531 1.1581765
20.253172 -4.4086452 1.1450751
20.249298 -4.387466 1.1515669
20.270098 -4.3476624 1.1594788
20.262512 -4.3386579 1.1482999
20.270565 -4.2949295 1.1493504
20.285952 -4.265172 1.160289
20.281525 -4.2346115 1.1485227
20.294325 -4.2148209 1.1458015
20.292746 -4.1925011 1.1529813
20.301071 -4.1663928 1.1588314
20.300777 -4.124054 1.1542355
20.307341 -4.1117392 1.1625559
20.320356 -4.0647345 1.1624087
20.321245 -4.0513849 1.1629864
20.330914 -4.0160141 1.1590043
20.341595 -3.9912474 1.1564829
20.343174 -3.9568603 1.156217
20.352947 -3.9355853 1.1474288
20.359961 -3.901763 1.1526388
20.354115 -3.8854473 1.1556274
20.374077 -3.8552208 1.1526169
20.369404 -3.8241854 1.1535755
20.373013 -3.7858489 1.1531847
20.376434 -3.7522998 1.1577816
20.380394 -3.7347169 1.1493796
20.400331 -3.7120497 1.1573666
20.397709 -3.6733596 1.1513553
20.394779 -3.6504133 1.1582258
20.206902 -3.5910311 1.1683611
20.220266 -3.5581083 1.1685603
20.216579 -3.5306208 1.1705697
20.229843 -3.4931645 1.1751912
20.224028 -3.4774187 1.1697179
20.23778 -3.443531 1.1693554
20.23609 -3.4109235 1.17813
20.245958 -3.3835785 1.1811188
20.243776 -3.3640175 1.1743373
20.255541 -3.3325062 1.1820346
20.254139 -3.2978332 1.1657389
20.264988 -3.2747886 1.1741581
20.275995 -3.2403836 1.18185
20.268974 -3.2176287 1.1787766
20.286535 -3.1855657 1.1632203
20.278584 -3.1645851 1.1733166
20.29023 -3.1300902 1.1677781
20.290611 -3.1104832 1.1813359
20.293941 -3.0777769 1.1661994
20.290451 -3.0379829 1.1743121
20.294617 -3.0242305 1.1688292
20.302448 -2.9842284 1.1781162
20.51576 -2.9866376 1.1556833
20.716806 -3.0000377 1.1277175
20.914816 -2.9998076 1.1235209
21.314529 -3.0194547 1.0741609
21.507195 -3.0229967 1.0688331
21.714355 -3.009969 1.0547998
21.91511 -3.0173826 1.0251542
22.120762 -3.0120189 1.0069782
22.314558 -3.0061808 0.99422371
22.522902 -2.9961634 0.97313517
22.720562 -2.9935477 0.95015568
23.111183 -3.0164719 0.91589439
23.314224 -2.996073 0.89911252
23.530937 -2.9940133 0.88956738
23.734003 -3.0001965 0.87449753
24.12727 -3.0048873 0.83207244
-12.302023 0.99772531 1.9952067
-12.313099 0.97225946 2.001061
-12.303502 0.9557429 1.9903098
-12.320898 0.94841492 1.9905735
-12.323247 0.92349565 1.9978518
-12.324193 0.89938712 1.9949511
-12.308992 0.89508933 1.9907285
-12.310874 0.8660838 1.9918066
-12.327761 0.85980695 2.0037208
-12.328905 0.83281356 2.0037732
-12.317644 0.81267267 1.9978633
-12.327551 0.8028149 2.0036888
-12.331579 0.78389037 1.9902006
-12.326335 0.76888162 1.9865896
-12.320803 0.75281179 1.9952657
-12.327969 0.73705971 1.9970419
-12.31801 0.71774781 1.9917306
-12.332252 0.69776988 1.9946257
-12.32539 0.6820972 1.9884576
-12.32659 0.66644835 1.9925113
-12.327714 0.64320409 1.9936411
-12.334723 0.6311729 2.0021317
-12.335884 0.61620891 1.9889176
-12.330508 0.60756123 1.9979163
-12.328719 0.58549362 1.9880683
-12.33823 0.55728424 1.9996927
-12.345941 0.54003257 1.9892311
-12.338939 0.52951592 1.9960188
-12.329018 0.50681257 1.9843625
-12.345241 0.50383645 1.9942871
-12.337385 0.48064014 1.9981989
-12.348376 0.45131379 1.9873117
-12.330853 0.44168296 1.9986944
-12.346519 0.41825953 1.9986643
-12.333163 0.4174324 1.9938024
-12.349631 0.38787782 1.9979683
-12.33445 0.3713721 2.0021207
-12.349707 0.3626039 1.9929957
-12.338152 0.3444683 1.9984076
-12.338229 0.33079723 1.9980845
-12.348357 0.30564448 1.9918073
-12.35455 0.29013988 1.9934469
-12.351605 0.27277395 2.0026996
-12.337255 0.26033273 1.9857737
-12.34291 0.24181496 1.9852662
-12.353402 0.22737272 1.9924505
-12.339705 0.20863041 2.0003762
-12.341831 0.17512643 1.9967815
-12.353059 0.17364852 1.9922997
-12.338849 0.15254036 1.9913961
-12.344939 0.14172669 2.0025892
-12.357283 0.10511925 1.9955283
-12.347962 0.091830976 1.9883523
-12.349365 0.073244564 1.9859864
-12.34767 0.069329858 2.0023546
-12.346457 0.05522503 2.0015328
-12.358038 0.035096023 1.9992214
-12.341667 0.013095304 2.0006592
-12.348867 9.7926146e-05 1.9978724
-12.340526 -0.018484216 1.9912311
-12.353064 -0.042974118 1.9910301
-12.354384 -0.059648924 1.9914758
-12.342741 -0.06686902 1.9958879
-12.33825 -0.095381722 1.998968
-12.356101 -0.10211296 1.9953882
-12.337561 -0.1275702 1.9949583
-12.339817 -0.1445691 1.9916543
-12.34436 -0.16518392 2.0036047
-12.347443 -0.17300931 1.9998124
-12.353287 -0.19252701 1.994693
-12.345749 -0.20464067 2.0023384
-12.338387 -0.23815699 1.990564
-12.350556 -0.24013689 1.9888239
-12.338289 -0.25775638 1.9958256
-12.342917 -0.27338135 1.9933504
-12.351102 -0.29064354 2.002672
-12.339692 -0.31036469 1.9922482
-12.351562 -0.33485618 1.9984632
-12.351458 -0.34268028 1.9941058
-12.335121 -0.37662372 1.9874836
-12.34388 -0.38332781 1.9859999
-12.34497 -0.40299347 1.9882519
-12.33781 -0.41517481 1.9857755
-12.332365 -0.43545988 2.0029304
-12.339895 -0.46076852 2.0017109
-12.329877 -0.47468048 2.0004787
-12.330512 -0.49762565 1.9967749
-12.341547 -0.51290792 1.9858282
-12.346344 -0.52857691 1.9843051
-12.335473 -0.5484249 1.986086
-12.331201 -0.55757123 1.9984092
-12.328388 -0.56837028 1.9883124
-12.343299 -0.59259665 2.0032792
-12.340663 -0.61199021 1.9952049
-12.340847 -0.61954933 1.9990653
-12.322227 -0.63774925 1.9862559
-12.324816 -0.65726835 1.9877428
-12.331083 -0.68853033 1.9911877
-12.328274 -0.70532018 1.9962029
-12.326963 -0.71199518 1.9986086
-12.323849 -0.73517758 1.9891052
-12.328386 -0.75635087 1.9860388
-12.322996 -0.77326322 1.9959811
-12.322616 -0.78839093 2.0037637
-12.330285 -0.80457902 2.0012197
-12.314071 -0.82304716 1.9977072
-12.310641 -0.82502717 1.9919058
-12.325701 -0.85422301 1.9920712
-12.317291 -0.86158139 1.992674
-12.323842 -0.88862526 2.003828
-12.307964 -0.89357376 1.9890244
-12.321566 -0.9241038 1.9902705
-12.318209 -0.93031198 1.9918262
-12.304886 -0.95723152 1.9954743
-12.303757 -0.97293669 2.0001531
-12.305147 -0.99356711 2.0035808
20.334307 -4.9779744 1.2975935
20.349155 -4.9470043 1.2842747
20.344131 -4.9088292 1.2808096
20.359669 -4.8784342 1.2875113
20.366322 -4.8534131 1.2864732
20.378132 -4.8232703 1.2921119
20.371147 -4.8110709 1.2887475
20.385677 -4.7668738 1.2956669
20.383818 -4.7428961 1.2840825
20.406597 -4.7216816 1.2890673
20.218521 -4.642005 1.3092718
20.223249 -4.6194153 1.3156722
20.214621 -4.588738 1.3118508
20.222486 -4.5493698 1.3100182
20.237013 -4.5301571 1.3047907
20.250463 -4.5059037 1.3012811
20.249514 -4.4753633 1.3015357
20.265158 -4.4369802 1.2975434
20.267683 -4.4071069 1.3090756
20.258585 -4.3810639 1.3133594
20.274433 -4.3554244 1.3041097
20.274057 -4.3315248 1.3092399
20.280043 -4.3026838 1.2968287
20.302168 -4.272367 1.315558
20.30242 -4.2538724 1.305263
20.297405 -4.2282381 1.310976
20.308842 -4.189826 1.2989751
20.320494 -4.1620002 1.297094
20.328114 -4.1378412 1.2968146
20.327225 -4.1089334 1.3142974
20.330582 -4.070292 1.309131
20.344648 -4.0581002 1.2995666
20.343805 -4.0259576 1.3105371
20.350512 -3.9976854 1.3035101
20.355907 -3.9551165 1.3066549
20.37097 -3.9434783 1.3071028
20.371706 -3.9062805 1.2976235
20.3804 -3.8832686 1.3076228
20.387173 -3.8584349 1.3134255
20.373627 -3.8202472 1.2997724
20.397526 -3.7844219 1.2963886
20.396217 -3.7602086 1.2968169
20.405304 -3.7424774 1.3010004
20.405321 -3.703639 1.3050605
20.222128 -3.6494949 1.3196734
20.218134 -3.6215534 1.3211265
20.21455 -3.5783582 1.3313584
20.221447 -3.5519097 1.3161762
20.238302 -3.5240898 1.3173937
20.240923 -3.4951775 1.3283575
20.249851 -3.46769 1.3266977
20.255354 -3.4467938 1.3207949
20.261248 -3.4220536 1.3241596
20.251286 -3.3824987 1.3178917
20.265343 -3.3551564 1.3218198
20.257587 -3.3368819 1.3254777
20.271244 -3.3072271 1.3241124
20.275095 -3.2756717 1.3209697
20.283722 -3.2522161 1.3174145
20.293528 -3.2110579 1.3145323
20.294258 -3.1858501 1.3308911
20.293291 -3.1599767 1.319893
20.306379 -3.1330094 1.3253753
20.302794 -3.1007648 1.3221461
20.312899 -3.0791826 1.3179859
20.306894 -3.0500374 1.3238206
20.324509 -3.0118763 1.3310238
20.320717 -2.9944673 1.3214898
20.530968 -3.0018713 1.3107251
20.717703 -2.9834416 1.2928132
20.921597 -2.9882138 1.2717973
21.121887 -2.997848 1.2483368
21.528599 -3.0260236 1.2271323
21.723486 -3.0135465 1.2062294
21.935177 -3.0147367 1.1985723
22.122742 -3.0056663 1.1717178
22.336174 -3.0026772 1.1546761
22.53684 -3.0071347 1.1466892
22.728001 -3.0021813 1.1318169
23.14246 -3.0172184 1.0989491
23.337811 -3.0031593 1.0771016
23.528559 -3.0097678 1.0644684
23.73226 -2.9880414 1.0497279
24.14534 -3.0172403 1.0085363
21.38496 -4.9810987 1.3748673
21.382799 -4.9477835 1.3615694
21.391747 -4.9185615 1.3663744
21.398241 -4.8832769 1.3659748
21.41181 -4.8465538 1.3622397
21.224361 -4.7705626 1.3742757
21.215654 -4.7572169 1.3897507
21.233252 -4.7224779 1.3894737
21.239014 -4.6867666 1.3872322
21.250372 -4.6666813 1.3904121
21.257641 -4.6371303 1.3730025
21.261272 -4.5966682 1.3790729
21.251566 -4.5741463 1.3845206
21.266623 -4.5519757 1.375398
