# .PCD v0.7 - Point Cloud Data file format
VERSION 0.7
FIELDS x y z
SIZE 4 4 4
TYPE F F F
COUNT 1 1 1
WIDTH 1510
HEIGHT 1
VIEWPOINT 0 0 0 1 0 0 0
POINTS 1510
DATA ascii
-6.1354504 3.6061237 2.0115535
-6.1479564 3.6029866 2.0067158
-6.151341 3.5914662 1.99313
-6.1646075 3.5815432 1.9957436
-6.1708717 3.584316 1.9976282
-6.1693349 3.5655878 2.0049672
-6.1748629 3.5576053 1.9981664
-6.1877317 3.5445118 2.0104682
-6.1840558 3.5503504 2.0044909
-6.1791749 3.5395446 1.9937066
-6.2029119 3.5290992 2.0004015
-6.2080188 3.5111611 1.9925549
-6.1979513 3.5148392 2.00179
-6.201458 3.4902391 2.0097117
-6.2223387 3.4843516 2.0090227
-6.2213225 3.4849658 1.9982285
-6.2129555 3.4650047 2.0080822
-6.2313766 3.4571152 1.9934794
-6.2374845 3.4578304 1.9933593
-6.229557 3.448343 2.0110841
-6.2324018 3.4400234 2.0070217
-6.2485394 3.4314892 1.9936854
-6.2525115 3.4179027 1.9926987
-6.2472363 3.405678 1.9957904
-6.2540269 3.3974288 2.0016797
-6.2614946 3.3950396 1.996875
-6.2797446 3.3858492 2.0008078
-6.2681284 3.3830574 2.0055563
-6.2711024 3.3589656 1.9997324
-6.2941847 3.3475966 1.9931397
-6.2795296 3.3581662 2.0069532
-6.2889247 3.3373694 2.0009644
-6.2916441 3.3373592 2.010128
-6.2953377 3.3273711 1.9958125
-6.315927 3.3153269 2.0019996
-6.3106151 3.3005373 1.9945564
-6.3100953 3.2922084 2.0066884
-6.3256307 3.2801936 2.0048003
-6.3164048 3.2698901 2.0075989
-6.3329906 3.261178 2.0078135
-6.3361568 3.2517822 2.0073893
-6.3454971 3.2576399 1.9949661
-6.3408136 3.2454152 2.0113373
-6.3469543 3.2341216 2.0065317
-6.3473983 3.22685 1.9984992
-6.3616428 3.2094908 2.0045009
-6.363318 3.1972384 2.011004
-6.3728485 3.1940262 1.994329
-6.364255 3.1846025 1.9961936
-6.3728504 3.1831434 1.9981956
-6.3812189 3.1630566 1.9996578
-6.3899989 3.158155 1.9958398
-6.3911896 3.1624501 2.0086656
-6.3959966 3.1451058 1.9990726
-6.4055972 3.1318061 2.0110891
-6.4032173 3.1287389 1.9946337
-6.4148235 3.1084602 1.9948196
-6.4199138 3.1031022 2.0006931
-6.4216666 3.0907769 2.0060489
-6.4215426 3.0942829 1.998858
-6.4194036 3.0738347 2.0004985
-6.4357905 3.0690084 2.0061619
-6.4359822 3.0673804 2.0050514
-6.443336 3.0453227 1.9955335
-6.4402699 3.0380287 2.0016589
-6.4451752 3.0374665 1.9936658
-6.4465227 3.0296378 1.9943492
-6.4476724 3.0210454 1.9986359
-10.4191 1.2442601 1.5234519
-10.406518 1.2171338 1.5168598
-10.421107 1.2164392 1.5187988
-10.414036 1.2036386 1.5248967
-10.421281 1.1749138 1.5183581
-10.429615 1.1630908 1.5187588
-10.427447 1.1585766 1.5208685
-10.419134 1.1333877 1.5314252
-10.418794 1.1310687 1.5231681
-10.240807 1.0910883 1.5633461
-10.235427 1.0810294 1.5585138
-10.229097 1.065256 1.5611094
-10.229342 1.0365767 1.5575676
-10.227626 1.0366325 1.5557841
-10.239792 1.0110866 1.5598375
-10.238477 0.99882865 1.5466317
-10.236742 0.99034065 1.5634776
-10.232877 0.97174793 1.549703
-10.238435 0.95505756 1.5481799
-10.25223 0.94095302 1.5619662
-10.253834 0.93372095 1.5599935
-10.24025 0.91429001 1.5565492
-10.24405 0.89606822 1.5587296
-10.251372 0.8809945 1.5552717
-10.260459 0.87516695 1.5605758
-10.245471 0.85204685 1.5479318
-10.263669 0.85203493 1.5611116
-10.245002 0.83724099 1.5500122
-10.260089 0.81822169 1.5565382
-10.256679 0.80671996 1.5632771
-10.259462 0.79490715 1.5571032
-10.264198 0.777951 1.5458193
-10.252359 0.75844729 1.5506364
-10.25832 0.75285405 1.5547044
-10.267717 0.71938789 1.5472711
-10.271791 0.72210228 1.5510457
-10.26849 0.70779133 1.5491378
-10.271988 0.69330108 1.5467674
-10.266565 0.66485697 1.5597104
-10.274597 0.66093582 1.5554861
-10.275869 0.635324 1.5537848
-10.263296 0.62604898 1.5494649
-10.261986 0.60966635 1.5599803
-10.275839 0.60835665 1.5592426
-10.265604 0.57866192 1.5593808
-10.262783 0.56588626 1.5565765
-10.276166 0.55738574 1.5538058
-10.271438 0.54634011 1.5508908
-10.26906 0.52165014 1.553879
-10.273719 0.50984186 1.5472945
-10.282582 0.49765405 1.5494481
-10.075308 0.46977347 1.5846844
-10.07014 0.45347121 1.5898836
-10.074436 0.44414893 1.5881264
-10.079451 0.42587462 1.5910293
-10.084308 0.41121501 1.5755122
-10.071949 0.40394464 1.5858513
-10.082341 0.38215581 1.5795026
-10.075629 0.38347802 1.5828229
-10.085909 0.3608543 1.5886948
-10.082753 0.35006034 1.5767398
-10.077425 0.329395 1.5804054
-10.084846 0.31453836 1.5818553
-10.087049 0.31600574 1.5880704
-10.09099 0.29305965 1.5900996
-10.092009 0.28583819 1.5915581
-10.088524 0.2715371 1.5798362
-10.094681 0.24738574 1.5804163
-10.087167 0.23046914 1.5764101
-10.096313 0.22377551 1.5838721
-10.079567 0.20072041 1.5746331
-10.094756 0.20345752 1.5788224
-10.086261 0.17921638 1.582249
-10.096295 0.17319627 1.5812378
-10.080094 0.14364012 1.5913758
-10.081846 0.13345075 1.5883883
-10.082118 0.12711105 1.5851961
-10.094093 0.11496017 1.5719495
-10.085468 0.090649515 1.5758835
-10.080831 0.077499397 1.5872219
-10.08871 0.06138172 1.5896033
-10.08581 0.050341506 1.5888203
-10.0987 0.048044398 1.5778954
-10.088144 0.015940361 1.5750495
-10.098579 0.020244526 1.5767471
-10.098857 0.0029860158 1.5823553
-10.082103 -0.014376543 1.5757238
-10.088521 -0.023564953 1.5910418
-10.088166 -0.043999162 1.5761497
-10.083858 -0.059685461 1.5822083
-10.088191 -0.083161704 1.5862499
-10.090123 -0.083666839 1.5733525
-10.092819 -0.097011678 1.5722588
-10.08642 -0.11976951 1.5731623
-10.082847 -0.13295148 1.572471
-10.097556 -0.14641951 1.5886225
-10.086638 -0.16316111 1.5815125
-10.082332 -0.16636842 1.5793151
-10.082687 -0.18928814 1.5907844
-10.077916 -0.2079861 1.5806683
-10.087067 -0.21112403 1.5811768
-10.092155 -0.23632047 1.5752807
-10.090121 -0.24435829 1.5901401
-10.089162 -0.26616246 1.5763419
-10.087279 -0.26457885 1.5834615
-10.086068 -0.27790979 1.5912129
-9.8907499 -0.29448357 1.6043285
-9.8804665 -0.31278238 1.6003293
-9.8923616 -0.31170097 1.607509
-9.8927679 -0.3261314 1.6100891
-9.8832712 -0.3500151 1.603629
-9.8932457 -0.35931033 1.60607
-9.8890982 -0.36691466 1.6145701
-9.8900719 -0.39392161 1.6153625
-9.8848238 -0.39942774 1.6118345
-9.8724375 -0.42412421 1.6090709
-9.8722801 -0.43185958 1.6177648
-9.8869944 -0.44974393 1.6019778
-9.8856888 -0.45997456 1.6010895
-9.8771849 -0.47108212 1.6195873
-9.8860807 -0.4931826 1.6080173
-9.8814173 -0.50576752 1.6009674
-9.8742943 -0.51473302 1.6001277
-9.8786516 -0.52521962 1.6060947
-9.8821974 -0.55102557 1.6003686
-9.8692513 -0.56503105 1.6037581
-9.8790503 -0.55948484 1.6132237
-9.8801355 -0.5892778 1.6186154
-9.8769884 -0.59840906 1.607586
-9.874711 -0.619699 1.6192578
-9.8739157 -0.63056749 1.6026368
-9.8646717 -0.6374746 1.6072377
-9.8624582 -0.65797919 1.6166788
-9.8610649 -0.66358131 1.6094381
-9.8736858 -0.67348844 1.610195
-10.069542 -0.7052995 1.5827426
-10.064441 -0.71391195 1.5826445
-10.267344 -0.75904936 1.5585473
-10.267325 -0.76752967 1.5471245
-10.258317 -0.77458775 1.5482099
-10.455042 -0.81717539 1.524217
-10.45092 -0.816239 1.5351193
-10.63956 -0.85000318 1.4913048
-10.641333 -0.86758173 1.5036876
-10.847662 -0.89528453 1.4719486
-10.835855 -0.90600955 1.4642664
-11.040761 -0.94974631 1.4340301
-11.02843 -0.96309888 1.4353486
-11.22941 -0.99515676 1.4145179
-11.224525 -1.0219172 1.4089718
-11.435724 -1.0472912 1.3826157
-11.425671 -1.0717659 1.3798112
-11.621832 -1.0874248 1.3658437
-11.616613 -1.1075917 1.3571852
-11.816074 -1.1572928 1.3242486
-11.822133 -1.1574352 1.3237464
-12.012882 -1.2063506 1.303755
-12.205782 -1.2448314 1.2658359
-12.200308 -1.2485626 1.276942
-12.40458 -1.2895032 1.2489777
-12.3974 -1.3054811 1.2375447
-12.585433 -1.3541191 1.2095981
17.954439 -4.9729743 0.37965015
17.943403 -4.9483333 0.37368098
17.951452 -4.9254479 0.38075733
17.974661 -4.8929768 0.37692448
17.978868 -4.8758502 0.37449542
17.980442 -4.8545704 0.37810084
17.98683 -4.8211222 0.37014171
17.99646 -4.805418 0.37433752
18.002657 -4.7763515 0.38158366
17.810757 -4.7032614 0.40523615
17.824938 -4.6790867 0.3962816
17.82373 -4.6528811 0.40692195
17.836521 -4.6255231 0.39539167
17.836351 -4.601819 0.41126686
17.852316 -4.5807347 0.39919341
17.845816 -4.5448694 0.40331513
17.862886 -4.5293736 0.39579105
17.871964 -4.4909697 0.39886773
17.8652 -4.4730568 0.4058978
17.885649 -4.442245 0.41027614
17.881708 -4.4237995 0.41396475
17.888779 -4.3930731 0.39898553
17.906456 -4.3760338 0.4064821
17.912567 -4.3456063 0.41279134
17.914516 -4.3256235 0.41528443
17.92436 -4.2985144 0.4087337
17.918289 -4.280673 0.41276044
17.92466 -4.2400589 0.41026434
17.934072 -4.2324767 0.40074527
17.930481 -4.1906796 0.39709321
17.951231 -4.1790223 0.40693328
17.955635 -4.1464596 0.40253815
17.965027 -4.1223507 0.4102115
17.961878 -4.0982261 0.40333319
17.965004 -4.0782104 0.4114503
17.970589 -4.0543776 0.40168086
17.989586 -4.0226054 0.40474832
17.992577 -3.9904189 0.40341702
17.993036 -3.9747405 0.40464702
18.003941 -3.9485409 0.4026446
18.011158 -3.9274411 0.40726191
17.814661 -3.8457348 0.42740309
17.827196 -3.8227081 0.43859285
17.827368 -3.8085756 0.42884544
17.820627 -3.7770283 0.43404368
17.84197 -3.7655733 0.43799698
17.833508 -3.7407613 0.42863643
17.848078 -3.6985657 0.42636907
17.841284 -3.6814823 0.43467861
17.855682 -3.6590307 0.42407876
17.868046 -3.6348627 0.42946169
17.86499 -3.5991383 0.4294081
17.874035 -3.5762527 0.4275195
17.874235 -3.5585325 0.43489394
17.884653 -3.5328565 0.42893878
17.880234 -3.511107 0.42955437
17.899733 -3.4830542 0.4300904
17.889837 -3.4656298 0.42792329
17.897638 -3.440166 0.43793336
17.913715 -3.4054325 0.42548183
17.919157 -3.3834317 0.43227789
17.909946 -3.3495462 0.42987081
17.920647 -3.3316419 0.42541471
17.929424 -3.2985289 0.43373704
17.925543 -3.2799547 0.44278696
17.935669 -3.250721 0.42863077
17.946377 -3.2268744 0.43756527
17.937586 -3.1977758 0.43895477
17.946592 -3.1856925 0.44083226
17.945574 -3.1623151 0.43246076
17.95207 -3.1382432 0.44110081
17.965326 -3.1080945 0.43863034
17.956141 -3.0719218 0.42906174
17.962463 -3.0516145 0.42759728
17.977074 -3.039798 0.43969166
17.9807 -3.0024273 0.43599799
18.185476 -3.0114019 0.40311596
18.379242 -3.0131257 0.37429801
18.379019 -2.9977956 0.38052917
18.576115 -2.9996138 0.35708416
18.784891 -2.9987888 0.31265774
18.982359 -3.0085247 0.29332092
19.177406 -3.0112286 0.26509121
19.382935 -3.0113561 0.2320974
19.391352 -2.9902542 0.23384944
19.587563 -2.9998078 0.19988219
19.780125 -3.0035686 0.18436599
19.987854 -2.9926026 0.15400058
20.174818 -3.0055196 0.13331862
-5.6307125 5.010602 2.0094731
-5.6459231 4.9990549 1.9974762
-5.6466141 4.9801474 1.9921591
-5.6570511 4.97434 1.9991487
-5.6478639 4.9804702 1.9935182
-5.6697946 4.9637175 2.0083494
-5.6769547 4.9631844 2.0074956
-5.6755199 4.942946 2.0046885
-5.6920881 4.9325905 2.0010619
-5.6849041 4.9296927 1.99771
-5.6999726 4.9305692 1.9946276
-5.7081285 4.9231925 2.0078771
-5.7082696 4.9020705 2.0101078
-5.7137165 4.8974471 1.9944293
-5.732163 4.8889346 1.9927891
-5.7362285 4.8854051 2.0023143
-5.7454519 4.8816175 1.9992337
-5.7555175 4.8661556 2.0038517
-5.7483797 4.8610053 2.0060606
-5.7648568 4.8499079 1.9933281
-5.7646747 4.8505998 2.009438
-5.7675633 4.8299832 2.0061467
-5.7771916 4.8360605 2.0097182
-5.7845778 4.8235154 1.9966608
-5.787631 4.8193374 2.0030954
-5.7923136 4.7978954 1.9940139
-5.8074594 4.7940211 2.0091677
-5.8056741 4.7868609 1.9968922
-5.8192596 4.7736073 2.0075085
-5.8306251 4.7706342 1.9950789
-5.8347116 4.7545886 1.9914024
-5.8426766 4.7623897 1.9951794
-5.8539219 4.7472854 1.9931138
-5.8615842 4.7315078 2.0065923
-5.8622923 4.7393775 2.0039909
-5.8765545 4.7292547 2.0080557
-5.8798866 4.7106647 1.9963638
-5.8880534 4.7005267 2.0056381
-5.888484 4.7034593 2.0097947
-5.8982873 4.6816702 1.9991232
-5.9005084 4.6824279 2.000561
-5.9063945 4.6818419 1.9979631
-5.9084921 4.656621 2.0084343
-5.9126439 4.6503372 1.9913099
-5.9233055 4.6499324 2.0102468
-5.9365568 4.6418419 2.0072618
-5.9457316 4.6369834 1.9938964
-5.9465871 4.6305118 1.9986122
-5.9581566 4.6101503 1.9944884
-5.9655581 4.6065164 1.9968128
-5.9636188 4.6071796 2.0081415
-5.9802308 4.5884643 2.0071397
-5.9794283 4.5741467 2.009182
-5.9881434 4.5821619 1.9932137
-5.9939713 4.5659881 2.0051236
-6.0008502 4.5630236 1.9972346
-6.0107031 4.5573335 1.9927882
-6.0139093 4.5372262 2.0101795
-6.0123878 4.5319757 1.9955287
-6.0149784 4.5257387 2.0055716
-6.035233 4.507844 2.0046146
-6.024147 4.4997287 1.993288
-6.0340509 4.498795 1.9959986
-6.0419011 4.4955149 1.9950879
-6.0457072 4.4727635 2.0063753
-6.0575924 4.4694781 2.0030799
-6.057354 4.4626727 2.0024848
-6.0615506 4.4589829 2.0101812
-6.0683436 4.4431238 2.0010352
-6.089776 4.4309726 1.9940686
-6.0811534 4.4248528 1.9976326
-6.0934758 4.4160933 2.0015156
-6.0971131 4.4036927 1.9929084
-6.1180277 4.4096928 2.0094726
-6.1198411 4.3981256 1.9917461
-6.1303554 4.3809009 1.999203
-6.1241531 4.3701301 2.0083325
-6.1385336 4.3613667 2.0022588
-6.145206 4.3520017 2.0088215
-6.1410127 4.3473845 1.9917364
-6.1437736 4.3375583 1.9970442
-6.1629581 4.3415656 2.0021138
-6.1582479 4.3280802 2.0033123
-6.1621332 4.3198123 1.9990494
-6.1694422 4.3158517 1.9917663
-6.1744652 4.3074856 1.9958141
-6.1920199 4.2914186 1.9976552
-6.2004323 4.2870555 1.9993049
-6.1949072 4.282093 2.0001709
-6.2028065 4.267385 2.0050092
-6.2077794 4.2559652 2.0086188
-6.2074318 4.2513971 2.0048425
-6.222003 4.2375636 1.9961954
-6.235363 4.2258582 2.0079038
-6.2329741 4.2128448 2.0042832
-6.2378559 4.2207971 2.0009365
-6.2386775 4.1971717 2.0101714
-6.2576466 4.1910977 2.0036998
-6.2549529 4.1965022 2.000931
-6.2713819 4.1799474 1.9921275
-6.2629595 4.1643486 2.0005856
-6.2709155 4.1550136 1.9931656
-6.2826357 4.1570115 2.0006106
-6.2829909 4.1515412 2.0050566
-6.291625 4.1343398 2.005204
-6.3038678 4.1181245 2.0020266
-6.2994447 4.1269426 2.0039544
-6.3057742 4.1026359 2.008548
-6.3185635 4.106853 2.0072935
-6.3141088 4.100461 1.9982396
-6.3184457 4.0882978 2.0023506
-6.334312 4.0739732 2.0058982
-6.3375859 4.0737104 2.0002239
-6.3534026 4.0588627 1.9978671
-6.3447604 4.0411386 2.0071051
-6.3559589 4.0369177 2.0089321
-6.3703222 4.0228529 2.0083892
-6.3627453 4.0281796 1.9923595
-6.3705626 4.0064254 2.0093753
-6.379622 3.9948225 2.0088353
-6.3777223 3.9845667 2.0049758
-6.3916993 3.9841163 1.9956436
-6.4021163 3.9660513 1.9949087
-6.3981953 3.9578168 2.008194
-6.3966188 3.9638588 1.992631
-6.4057913 3.9443247 2.0017304
-6.4131246 3.9360373 2.0056567
-6.4209881 3.9209239 2.0038087
-6.4248686 3.9235785 2.0091138
-6.4317207 3.9027462 1.9917306
-6.4391007 3.9093738 1.9930142
-6.4503274 3.8875718 2.0027781
-6.4508734 3.8808882 2.0034149
-6.4521422 3.8836484 2.0047634
-6.460113 3.8734958 2.0011075
-6.4636345 3.8596683 2.0068786
-6.4780431 3.8439929 1.9933312
-6.4685135 3.845927 1.9936471
-6.4808187 3.8294406 2.0056019
-6.4878068 3.8315496 2.0057163
-6.4921651 3.8117142 2.0014579
-6.4952269 3.8060749 2.0044045
-6.5085125 3.7852993 2.0096824
-6.5011487 3.7886527 2.0067427
-6.512423 3.7694201 2.0026798
-6.5273414 3.7720389 1.9938271
-6.5164752 3.7656083 1.9983436
-6.5191441 3.7540548 1.9938464
-6.5414844 3.7355301 2.0019226
-6.531857 3.7353396 2.0011752
-6.5421023 3.7161 2.0096667
-6.5565934 3.719095 2.0016012
-6.5481248 3.6940882 2.0018497
-6.5543661 3.7017169 1.9945481
-6.5635338 3.6833291 1.9971184
-6.5767517 3.6752694 1.9914187
-6.5788093 3.6633084 2.0084074
-6.5763378 3.6538992 2.0029685
-6.5783505 3.6473575 2.0081387
-6.5922742 3.635638 2.0022588
-6.5869327 3.6388555 2.0062873
-6.5930867 3.6127512 2.0024662
-6.6072931 3.6202722 2.0028007
-6.6012383 3.6066959 1.9999332
-6.6224723 3.589083 2.0078552
-6.6211228 3.5833704 1.9969012
-6.6254601 3.5807056 2.0031774
-10.427546 1.2259028 1.6108633
-10.437037 1.2085732 1.5995922
-10.421338 1.2023915 1.6058142
-10.431498 1.18661 1.6044731
-10.43761 1.1697206 1.6062543
-10.427522 1.1436578 1.6047901
-10.239997 1.1073812 1.625549
-10.232371 1.096442 1.6313839
-10.236804 1.0918465 1.620761
-10.252172 1.0678952 1.636735
-10.241242 1.0615767 1.6268768
-10.244227 1.0474522 1.6342607
-10.238464 1.0306919 1.6300366
-10.246459 1.0254159 1.6246072
-10.255774 0.99565291 1.6368669
-10.243289 0.99758172 1.6376444
-10.252248 0.97153676 1.6380169
-10.246986 0.95465082 1.6217601
-10.25587 0.95484573 1.6352201
-10.255356 0.92116755 1.6190428
-10.258848 0.91989249 1.6308632
-10.252179 0.89708585 1.6228776
-10.258106 0.88147664 1.6324518
-10.268236 0.87928677 1.6310724
-10.263777 0.84917521 1.6342543
-10.267037 0.85292315 1.6336913
-10.2695 0.82906646 1.6214114
-10.27157 0.81180531 1.6265756
-10.269877 0.80697483 1.6262666
-10.274704 0.78395206 1.626613
-10.275689 0.77871096 1.6200198
-10.264832 0.76139343 1.6249572
-10.261942 0.73938346 1.6286243
-10.269458 0.72845685 1.6244423
-10.278332 0.72318429 1.6244912
-10.284004 0.69582552 1.622632
-10.27022 0.68715805 1.6312617
-10.268696 0.67755449 1.6369776
-10.281986 0.65075809 1.6322117
-10.275567 0.64022869 1.6387733
-10.28878 0.62978899 1.6344459
-10.288568 0.61125958 1.6271542
-10.283397 0.59665483 1.6322075
-10.274539 0.59554899 1.6206903
-10.289843 0.56656271 1.6382582
-10.285078 0.55287802 1.6228265
-10.282152 0.53393179 1.6330876
-10.290577 0.53744429 1.628107
-10.095274 0.49887818 1.6572514
-10.082695 0.49760386 1.6636721
-10.083535 0.48398983 1.6540186
-10.088682 0.47144291 1.6602025
-10.081101 0.44490057 1.6461494
-10.088449 0.42802998 1.6653595
-10.087292 0.41664925 1.6499536
-10.088549 0.41080716 1.6552341
-10.085217 0.38864452 1.6559409
-10.091604 0.37879106 1.6545334
-10.102953 0.36696264 1.6586356
-10.091696 0.34839341 1.6555625
-10.093999 0.32964519 1.6529752
-10.085935 0.32639045 1.6519417
-10.091668 0.31133762 1.6584674
-10.091434 0.28953993 1.6622251
-10.09197 0.26948023 1.6487054
-10.087893 0.26872653 1.6634477
-10.098516 0.25184706 1.6501322
-10.088411 0.229103 1.6610689
-10.099695 0.21551365 1.6542835
-10.106857 0.2136649 1.663036
-10.097073 0.1899775 1.6471479
-10.089855 0.17479798 1.6621134
-10.103652 0.17431024 1.6561351
-10.090903 0.15446123 1.6624686
-10.094377 0.13446113 1.6628524
-10.091351 0.118904 1.6565932
-10.093562 0.11307043 1.6475655
-10.10907 0.09766712 1.6499053
-10.093621 0.091286644 1.6527679
-10.104938 0.058031317 1.6478941
-10.107483 0.054828014 1.6534457
-10.105895 0.039089419 1.657931
-10.109324 0.029782061 1.656042
-10.09871 0.013431737 1.6484177
-10.101743 -0.0062038181 1.6549076
-10.104373 -0.022644309 1.6599545
-10.093242 -0.041147418 1.6532825
-10.091119 -0.055028576 1.6653219
-10.106637 -0.053351056 1.6650957
-10.099272 -0.082900196 1.6457293
-10.096762 -0.094923511 1.6572747
-10.10868 -0.10530905 1.6471968
-10.096093 -0.11909127 1.6619269
-10.105375 -0.12224852 1.6544219
-10.102262 -0.14844729 1.6613967
-10.09264 -0.15730371 1.6460464
-10.097951 -0.17507701 1.6463082
-10.089913 -0.19079481 1.646804
-10.089818 -0.2021172 1.6630924
-10.089929 -0.20618168 1.6639465
-10.089385 -0.22786197 1.6468922
-10.097278 -0.24160646 1.6535668
-9.897068 -0.25769022 1.6871324
-9.9002762 -0.26820487 1.685096
-9.8909702 -0.27581158 1.6909748
-9.8946695 -0.29402056 1.6821107
-9.8937006 -0.29778478 1.6895865
-9.8924503 -0.31377622 1.6754574
-9.8906841 -0.32995552 1.6841183
-9.8926115 -0.34654874 1.6828269
-9.8936644 -0.36292234 1.6739668
-9.8917522 -0.36753085 1.6854732
-9.9031467 -0.39045218 1.689767
-9.8875151 -0.39695624 1.6773796
-9.8938999 -0.41454798 1.6912184
-9.8943872 -0.43625256 1.6806806
-9.8837185 -0.43742031 1.6802104
-9.8855553 -0.45778942 1.6775799
-9.8815022 -0.47686401 1.6726006
-9.8887682 -0.47835568 1.6848578
-9.8973064 -0.50141019 1.6745708
-9.8946857 -0.5230819 1.6735035
-9.8805399 -0.53669608 1.6833427
-9.8820801 -0.53524584 1.6805046
-9.875989 -0.56076747 1.6739008
-9.8760395 -0.56738216 1.6794177
-9.8866081 -0.58395404 1.6775913
-9.8776283 -0.6030072 1.6892192
-9.8912592 -0.61867076 1.6755953
-9.8898506 -0.62228382 1.6743011
-9.8761644 -0.63513774 1.6837732
-9.8727474 -0.64609265 1.6853932
-9.8703775 -0.66364199 1.6872177
-9.878149 -0.683492 1.6843101
-10.066468 -0.71211517 1.6631387
-10.063623 -0.72777849 1.6557267
-10.27293 -0.74946594 1.6189984
-10.266335 -0.76864934 1.6235888
-10.268091 -0.78232038 1.6263275
-10.461077 -0.8109234 1.5927052
-10.45769 -0.83154678 1.6065973
-10.662392 -0.84568363 1.5767839
-10.66785 -0.86264324 1.5697868
-10.848997 -0.90489602 1.5501866
-10.855473 -0.92241871 1.5564114
-11.054029 -0.95522785 1.5144931
-11.042462 -0.96384197 1.5261607
-11.238484 -1.0046034 1.4864384
-11.25243 -1.0108167 1.4939542
-11.441005 -1.0517246 1.4761224
-11.439205 -1.0724511 1.4788493
-11.64083 -1.1002452 1.4515194
-11.628323 -1.1162145 1.4486845
-12.411928 -1.2143323 1.328825
-12.419305 -1.2240092 1.3328456
-12.420433 -1.236055 1.3363436
-12.416897 -1.2578822 1.3466679
-12.421669 -1.2796602 1.3293407
-12.41958 -1.2967987 1.3415123
-12.409952 -1.3065588 1.346709
-12.608659 -1.3572563 1.3006043
17.957298 -4.9840631 0.51126111
17.962725 -4.9459462 0.51896226
17.985281 -4.9238672 0.52209789
17.974176 -4.9108677 0.51290911
17.987059 -4.880723 0.50902438
18.003403 -4.848793 0.52065992
17.818609 -4.7719369 0.53442115
17.827808 -4.7465324 0.54182786
17.829145 -4.7333226 0.53681439
17.835644 -4.7035818 0.53969294
17.842564 -4.674582 0.54466766
17.836861 -4.6470952 0.54268801
17.858828 -4.6239562 0.53770626
17.863894 -4.5987902 0.54063326
17.859735 -4.5875764 0.54860449
17.871658 -4.5468168 0.54339576
17.875181 -4.5261879 0.53845066
17.885874 -4.503016 0.53404874
17.883936 -4.4851298 0.53798562
17.896952 -4.4473329 0.54678363
17.912809 -4.4291711 0.53969204
17.913609 -4.4032297 0.53518897
17.912392 -4.3818069 0.54891741
17.926159 -4.3617673 0.54289544
17.922819 -4.3322997 0.54316175
17.927414 -4.2972889 0.53925306
17.946766 -4.2850995 0.53103036
17.941139 -4.248529 0.54102737
17.951075 -4.2201705 0.54394954
17.964911 -4.2050381 0.53969896
17.96751 -4.1802526 0.54863155
17.962984 -4.1608391 0.53851885
17.973919 -4.1287785 0.54483336
17.978548 -4.1090517 0.54618323
17.977119 -4.078732 0.53198797
17.995922 -4.0498481 0.54778212
17.990782 -4.0276084 0.53073609
17.997383 -3.996959 0.54522258
17.82041 -3.9394298 0.5695799
17.819801 -3.9170971 0.55745679
17.834906 -3.8780217 0.56505656
17.838909 -3.8692949 0.56699848
17.832766 -3.8354199 0.57592231
17.832901 -3.8026683 0.55948585
17.854351 -3.7770622 0.5682742
17.861572 -3.7583351 0.56084341
17.864553 -3.7303963 0.57054096
17.870453 -3.7014678 0.56576914
17.870804 -3.6815531 0.57052845
17.868917 -3.6677301 0.57275617
17.874874 -3.6442494 0.56918752
17.888397 -3.6021781 0.56946623
17.883825 -3.5916293 0.55873311
17.888144 -3.5662885 0.57585704
17.89599 -3.5448058 0.57368523
17.91259 -3.5013766 0.5653311
17.901726 -3.4802067 0.55999935
17.920523 -3.4583421 0.55867201
17.914513 -3.4412966 0.57232803
17.933228 -3.4112713 0.5748688
17.934135 -3.3803895 0.57594484
17.931438 -3.3610516 0.57413942
17.928986 -3.3313155 0.55792302
17.935766 -3.3022575 0.56208074
17.939634 -3.290314 0.56274748
17.961296 -3.2666969 0.56186289
17.954569 -3.238837 0.55716079
17.962475 -3.2170367 0.5693289
17.969019 -3.1860678 0.57354158
17.969183 -3.1611714 0.5627718
17.971855 -3.1401196 0.55786937
17.975565 -3.1064808 0.56728393
17.977436 -3.0799768 0.56140697
17.983057 -3.0513408 0.55955386
17.992798 -3.0434484 0.56460363
18.003172 -3.018472 0.56822342
18.188166 -3.017313 0.54809111
18.192928 -2.9999352 0.53125799
18.405451 -2.9924877 0.51376903
18.602242 -3.0087671 0.49610433
18.808313 -3.0062325 0.45441312
18.989534 -3.0238075 0.44127598
19.20022 -3.0232975 0.40955222
19.20923 -2.9902837 0.40792662
19.412241 -3.0021517 0.38253203
19.600348 -3.0073264 0.35700542
19.81212 -3.0066922 0.32007095
20.010363 -3.0049508 0.29512104
20.211817 -3.0099344 0.28422078
20.402382 -2.9974298 0.24309129
20.601883 -2.9982071 0.22999439
20.806292 -2.9971681 0.20426799
21.00416 -3.0048985 0.16344459
21.196901 -3.0072753 0.14884026
21.408052 -3.006151 0.10592882
-6.1624799 5.0174093 1.9994899
-6.1596432 5.0000615 2.0136755
-6.1660924 4.9832749 2.0004892
-6.1689978 4.979239 2.0122509
-6.1721687 4.9828901 2.0016053
-6.1971474 4.964572 2.0049441
-6.1959562 4.9564891 2.0105195
-6.2003241 4.9455986 2.0021055
-6.203567 4.9344025 2.0070107
-6.221169 4.9268279 2.0049036
-6.2327032 4.919775 2.0028317
-6.2356987 4.922523 2.0120239
-6.2444968 4.9057751 2.0130506
-6.2464685 4.8930621 1.9986721
-6.2566667 4.8841071 1.9965855
-6.2574983 4.87709 2.0048308
-6.2549787 4.8781691 2.0136526
-6.266871 4.8617725 2.0002537
-6.2871656 4.8490133 2.0043378
-6.2825432 4.845521 2.009536
-6.300015 4.8373504 1.9963795
-6.2995467 4.8330278 2.0146792
-6.3098736 4.8267398 2.0049481
-6.3191619 4.8052993 2.0112314
-6.3228159 4.8004684 1.9972963
-6.3285446 4.7816014 2.00509
-6.3260155 4.7920375 2.002718
-6.3346519 4.7773514 2.0127144
-6.3366752 4.7691298 1.9987264
-6.3546019 4.7522774 2.0100296
-6.3673177 4.7446871 2.0019555
-6.373178 4.744287 1.9983619
-6.3807263 4.7202702 1.9972923
-6.3779931 4.7136621 2.0036037
-6.3889637 4.7100854 2.0139151
-6.3938575 4.7074528 2.0141995
-6.390945 4.6940098 2.0137696
-6.4103918 4.6785784 2.0075123
-6.4198298 4.6677594 2.0019016
-6.4232435 4.665637 2.0083158
-6.4153414 4.6574097 1.996026
-6.4355006 4.6499205 2.0122325
-6.4392409 4.6414695 2.0133269
-6.4440384 4.6223254 1.9967277
-6.442512 4.618772 2.0054753
-6.4506617 4.6168742 2.0005226
-6.4585142 4.604425 2.0110688
-6.466784 4.5990529 2.0151346
-6.4812984 4.590754 1.9973412
-6.481411 4.5855403 2.0063946
-6.4950967 4.5747156 1.9961988
-6.5010591 4.5502052 2.0075011
-6.4908028 4.5484161 1.9993489
-6.4994392 4.5482783 2.0010581
-6.504662 4.5361032 2.0082281
-6.5211248 4.5222025 2.0025234
-6.5225277 4.5068598 2.0134017
-6.533371 4.5096464 2.0079491
-6.5401363 4.5043044 2.003248
-6.544682 4.4852233 2.0023923
-6.5601616 4.478817 1.9997798
-6.5658245 4.472796 2.001734
-6.5601721 4.4633665 2.0109849
-6.5626588 4.4516234 2.0091925
-6.5834236 4.4409676 2.0043285
-6.5770059 4.440146 2.0146756
-6.5962796 4.4242063 1.9988015
-6.5846624 4.4036951 2.0148435
-6.598485 4.402678 2.0146821
-6.5969958 4.4033608 2.0045867
-6.6163492 4.3747983 1.997241
-6.6183023 4.3667936 2.0130391
-6.618288 4.3706498 2.0085814
-10.433672 1.2287848 1.6751431
-10.4418 1.2164575 1.6866591
-10.434772 1.1967238 1.686553
-10.437377 1.1838791 1.6797154
-10.238626 1.1469421 1.7066923
-10.240992 1.1244551 1.6967679
-10.243499 1.1095817 1.6967605
-10.256082 1.1014664 1.6974326
-10.255989 1.0974966 1.6993511
-10.260079 1.0796269 1.6943848
-10.248608 1.0571079 1.7062507
-10.264133 1.0481473 1.7003746
-10.248124 1.0278811 1.7093527
-10.2522 1.0266566 1.7000761
-10.263095 1.0085993 1.7103146
-10.252101 0.98975152 1.7123853
-10.271012 0.96995175 1.713904
-10.26991 0.95910472 1.7016309
-10.268116 0.94986475 1.6997138
-10.264383 0.93803006 1.7142549
-10.265597 0.91914296 1.7006067
-10.274925 0.90618473 1.71233
-10.270109 0.89067137 1.698121
-10.276295 0.87249684 1.6970234
-10.271737 0.86482352 1.7122065
-10.27692 0.84951913 1.7028816
-10.280014 0.83665943 1.7080988
-10.281568 0.82623696 1.6968125
-10.275375 0.79892397 1.7106317
-10.271079 0.79663879 1.7069637
-10.272223 0.77441525 1.6987575
-10.286994 0.76411927 1.7119441
-10.290022 0.73987478 1.70397
-10.287239 0.73065984 1.7121755
-10.285533 0.70719796 1.7070639
-10.288625 0.69972759 1.7010056
-10.281021 0.69031954 1.6964468
-10.288179 0.68049246 1.6958264
-10.286605 0.65797335 1.7022556
-10.29119 0.64084518 1.7007637
-10.279425 0.62364894 1.7114137
-10.295844 0.61273646 1.7061349
-10.299057 0.5998311 1.7109799
-10.290225 0.59072387 1.7009801
-10.293166 0.56431723 1.7018896
-10.301199 0.55579436 1.7097015
-10.097118 0.52556622 1.7275887
-10.095715 0.51965487 1.7249149
-10.094912 0.49623331 1.7340987
-10.107659 0.48912087 1.7205322
-10.101879 0.47464943 1.7241488
-10.105429 0.4646129 1.7312331
-10.094238 0.45219791 1.7197938
-10.098183 0.42943028 1.7336298
-10.092108 0.42451569 1.7354431
-10.105103 0.41234252 1.7231184
-10.110267 0.38685241 1.7252158
-10.102633 0.38348666 1.7355121
-10.097652 0.36162499 1.7364982
-10.10347 0.3476966 1.7244843
-10.102833 0.34020957 1.7321122
-10.09856 0.32981399 1.7238177
-10.107183 0.31123099 1.7372233
-10.107226 0.28930575 1.7219772
-10.113413 0.27403837 1.7359332
-10.097767 0.2663385 1.7318337
-10.114426 0.25401804 1.7363623
-10.108968 0.2298549 1.7316443
-10.113194 0.2311753 1.7391844
-10.116414 0.20716308 1.7269164
-10.111628 0.20425184 1.7212827
-10.099195 0.18605809 1.7393751
-10.115036 0.15966628 1.733007
-10.117452 0.15363705 1.7388365
-10.115094 0.1418065 1.7235222
-10.098761 0.12598796 1.734632
-10.106507 0.11385681 1.727546
-10.109705 0.087510362 1.7304218
-10.117601 0.07724499 1.7287434
-10.117938 0.064046882 1.7371787
-10.110523 0.055902105 1.7368289
-10.108722 0.040438544 1.7324121
-10.108809 0.02936176 1.7357304
-10.115244 0.016077371 1.7271466
-10.115829 0.0053392947 1.7208599
-10.11171 -0.0088963853 1.7328824
-10.116461 -0.030729214 1.7269018
-10.108277 -0.03563052 1.7287029
-10.117199 -0.068318315 1.7343669
-10.10778 -0.0812525 1.7209615
-10.109904 -0.086700909 1.7335397
-10.11236 -0.11029727 1.7247831
-10.099213 -0.11394913 1.7390785
-10.102727 -0.12402462 1.7342182
-10.114805 -0.1346942 1.7327487
-10.113151 -0.16127212 1.7311723
-10.099454 -0.17264852 1.7218918
-10.111718 -0.19590946 1.7218385
-10.102161 -0.20817909 1.723226
-9.9085522 -0.20672196 1.7509168
-9.9067039 -0.23165344 1.7621783
-9.9122581 -0.23918636 1.7639714
-9.9065495 -0.25373757 1.7562405
-9.9065256 -0.27198875 1.7525617
-9.9113436 -0.2825236 1.7523406
-9.8976107 -0.29162884 1.7596685
-9.9054356 -0.30728191 1.7497466
-9.9025211 -0.31546345 1.7506901
-9.899641 -0.33437237 1.75349
-9.8953543 -0.35834453 1.7474586
-9.9084663 -0.36078548 1.7503438
-9.9102983 -0.3691169 1.7595438
-9.9103165 -0.3920953 1.7480397
-9.8980474 -0.39542529 1.7521312
-9.9094372 -0.42396706 1.7595339
-9.9010286 -0.43919012 1.7516768
-9.9052734 -0.44267082 1.7620116
-9.8994207 -0.46368971 1.7580093
-9.8926048 -0.48230007 1.7489418
-9.9029703 -0.49711433 1.749745
-9.8993473 -0.50555086 1.7619497
-9.8928194 -0.51634806 1.7596645
-9.8970728 -0.52771294 1.7482418
-9.8928108 -0.54737622 1.7473291
-9.904438 -0.55901688 1.7517139
-9.8886442 -0.5628559 1.754714
-9.9006872 -0.59156549 1.748071
-9.8823757 -0.59506738 1.7542458
-9.8880472 -0.612418 1.7556459
-9.8827677 -0.62081754 1.7560666
-9.8966656 -0.64629728 1.7618846
-9.8983393 -0.64597207 1.7507381
-9.8822784 -0.67064172 1.7620587
-9.8776217 -0.67181045 1.7475468
-10.091774 -0.69948518 1.7301147
-10.083587 -0.7183426 1.7277812
-10.270255 -0.74471295 1.7054565
-10.28565 -0.75923538 1.6985654
-10.274851 -0.78028703 1.7081487
-10.480444 -0.8124153 1.6780472
-10.467762 -0.82413334 1.6813978
-10.66701 -0.85447228 1.6537858
-10.659593 -0.87392908 1.6604334
-10.858558 -0.90626687 1.634622
-10.854266 -0.9195056 1.6341608
-11.059954 -0.94270515 1.6038254
-11.050253 -0.9588685 1.600971
-11.255373 -0.98918736 1.5728506
-11.249711 -1.0123862 1.5831521
-11.452021 -1.0427173 1.5460585
-11.441697 -1.0635557 1.5569935
-11.645527 -1.1058393 1.5231482
-11.634285 -1.1234065 1.5298653
17.984789 -4.9759884 0.65691549
17.987371 -4.9516644 0.64473164
17.989458 -4.9366469 0.64166558
18.006283 -4.9132695 0.65789115
17.808752 -4.8266907 0.68204856
17.819569 -4.8081827 0.67362505
17.820652 -4.7758384 0.66883564
17.829718 -4.7546501 0.67920685
17.849682 -4.7412672 0.68208319
17.840876 -4.6981926 0.68366283
17.858753 -4.6787786 0.68146431
17.862467 -4.6637278 0.67849451
17.873962 -4.6335011 0.66543716
17.882357 -4.6133242 0.67064255
17.886942 -4.5860529 0.66524559
17.890539 -4.5546975 0.67348999
17.885679 -4.5289564 0.66920269
17.895994 -4.5008149 0.6812185
17.916647 -4.4793372 0.6817227
17.920141 -4.4532599 0.68039793
17.925179 -4.4358664 0.67357421
17.927984 -4.4012833 0.67687953
17.927784 -4.3816957 0.66548049
17.934492 -4.3601694 0.66931778
17.946369 -4.3404784 0.67547739
17.952816 -4.303575 0.66803437
17.947472 -4.2778831 0.68136507
17.957806 -4.2481914 0.67786157
17.960119 -4.2241287 0.67085081
17.982903 -4.2028193 0.66492385
17.984327 -4.1826839 0.67138863
17.978891 -4.1659203 0.66742527
17.996727 -4.135498 0.67803025
18.003128 -4.1044755 0.66513371
17.819853 -4.043653 0.69200063
17.816118 -4.0066857 0.70561665
17.824907 -3.9810648 0.69987154
17.826992 -3.9710782 0.69875628
17.825539 -3.9447095 0.69663328
17.83704 -3.9214554 0.69074112
17.842579 -3.8826399 0.69989824
17.854549 -3.8550873 0.7007243
17.86252 -3.8354919 0.70686936
17.861061 -3.8152533 0.69892609
17.866673 -3.790534 0.70269251
17.874004 -3.7551742 0.69856972
17.87492 -3.7366173 0.69520313
17.890053 -3.7215326 0.69695085
17.884037 -3.6934235 0.70018691
17.895864 -3.659301 0.70178944
17.901764 -3.645092 0.69731182
17.896786 -3.6043317 0.6954838
17.912598 -3.5809836 0.70834041
17.91452 -3.5644429 0.69651753
17.908466 -3.547606 0.7044884
17.926142 -3.5087152 0.70288599
17.919661 -3.4941545 0.69490004
17.929777 -3.4696693 0.69705123
17.941608 -3.4363749 0.70235646
17.936638 -3.416394 0.69682217
17.953238 -3.3956192 0.70052755
17.945324 -3.3648932 0.7000168
17.955545 -3.34339 0.69787067
17.958591 -3.3049648 0.70727479
17.969778 -3.2975605 0.70851845
17.968901 -3.2574112 0.70364845
17.966385 -3.2286394 0.70832783
17.975849 -3.2146118 0.69247431
17.987431 -3.1935811 0.70489049
17.98428 -3.1623106 0.6922558
17.995562 -3.1391985 0.6953578
17.990513 -3.1087222 0.7041409
18.004919 -3.0927095 0.70937568
17.997143 -3.0583043 0.70797783
17.803104 -3.004204 0.73402894
18.02154 -3.0218136 0.70494014
18.21516 -3.0259385 0.67954582
18.217749 -2.9922593 0.66820467
18.420261 -3.0035086 0.64769524
18.615242 -3.0018027 0.63336003
18.817642 -3.0126753 0.59703469
19.023195 -3.0124211 0.56607729
19.021591 -2.990613 0.57112712
19.22122 -2.9915464 0.54035252
19.419497 -2.9946053 0.52542639
19.618763 -2.9985464 0.50088346
19.814096 -3.0082388 0.47965592
20.029188 -2.9990039 0.44669014
20.232983 -3.0066943 0.42908362
20.421419 -2.9988942 0.39923906
20.620672 -3.0082381 0.36402494
20.828749 -3.0116239 0.35401511
21.031015 -3.000268 0.31927267
21.218369 -3.0089359 0.30771449
21.420095 -2.9990253 0.27666169
21.632038 -3.0095942 0.24467894
-10.448923 1.2337755 1.7476277
-10.454264 1.2183975 1.7470127
-10.456971 1.1896226 1.7503494
-10.25717 1.1622373 1.7743404
-10.254094 1.1502413 1.7732286
-10.264771 1.1333749 1.7897564
-10.248727 1.1184086 1.7831185
-10.267673 1.1013893 1.7856569
-10.257854 1.0807282 1.7755784
-10.266561 1.0787657 1.7812642
-10.272423 1.0703645 1.7770278
-10.272357 1.0383104 1.772012
-10.272885 1.0252174 1.7728221
-10.270057 1.0162168 1.7830049
-10.266876 1.0118885 1.7755216
-10.264787 0.99846107 1.785504
-10.26615 0.98263371 1.7748544
-10.274132 0.96939605 1.7815218
-10.279553 0.9474948 1.7818669
-10.275035 0.9383834 1.7745901
-10.28481 0.92488599 1.7732549
-10.278802 0.91291165 1.7742103
-10.277789 0.88184547 1.7764195
-10.275946 0.87502402 1.783977
-10.2839 0.85277998 1.7815571
-10.279318 0.85400158 1.7800623
-10.284733 0.83521658 1.777095
-10.280777 0.80978709 1.7752464
-10.290134 0.80025172 1.7858551
-10.279126 0.79653186 1.7817125
-10.295375 0.78431332 1.7784345
-10.292938 0.75935984 1.7775459
-10.289527 0.73665553 1.7799568
-10.283886 0.7370106 1.7699133
-10.290667 0.71060783 1.7719948
-10.299849 0.70996392 1.7896684
-10.290504 0.68506134 1.7829293
-10.304108 0.66525048 1.7851344
-10.299539 0.65719885 1.7721796
-10.304341 0.6412515 1.7698818
-10.293267 0.63013172 1.789744
-10.30545 0.62250417 1.7790326
-10.298502 0.59932446 1.7799983
-10.110838 0.57169783 1.7993603
-10.111466 0.56966668 1.8030454
-10.109994 0.53943008 1.8004721
-10.110828 0.53949356 1.8073834
-10.098382 0.52688956 1.808872
-10.103711 0.49976972 1.7966986
-10.101974 0.48874262 1.8029686
-10.102517 0.46966574 1.8125111
-10.103177 0.45926112 1.8088192
-10.114529 0.45664027 1.7963421
-10.104895 0.44421402 1.801738
-10.119538 0.41193894 1.7992226
-10.110476 0.4018966 1.8005917
-10.103968 0.39176062 1.7961462
-10.110529 0.37479186 1.8132197
-10.115582 0.3731955 1.7972975
-10.112787 0.35401678 1.8044732
-10.103703 0.3349579 1.8066978
-10.105058 0.3158811 1.8126448
-10.110085 0.30607495 1.8100988
-10.107568 0.28650519 1.8092549
-10.119637 0.27287546 1.8102654
-10.1142 0.2688708 1.7953639
-10.107375 0.25191805 1.8044574
-10.124975 0.22892843 1.8107139
-10.125483 0.22139059 1.8095064
-10.121893 0.21713117 1.8032534
-10.111107 0.20242026 1.8120754
-10.118077 0.18680027 1.7959549
-10.119081 0.16657938 1.8041635
-10.12261 0.1492805 1.8069378
-10.126964 0.14029957 1.8102187
-10.110288 0.11712124 1.8036315
-10.108493 0.10111457 1.7942289
-10.117584 0.087834068 1.7959744
-10.1204 0.07435336 1.8043202
-10.124404 0.064750217 1.8025451
-10.114641 0.046200354 1.800198
-10.116035 0.04092852 1.7963701
-10.113531 0.034881711 1.8064611
-10.122799 0.0055138087 1.8133931
-10.109273 -0.0080189621 1.8054844
-10.112445 -0.024706008 1.8085378
-10.122186 -0.03944885 1.8097253
-10.121308 -0.04315399 1.8117731
-10.118667 -0.069564939 1.7944813
-10.127659 -0.079889104 1.8017274
-10.118406 -0.080379471 1.8045651
-10.111482 -0.10221407 1.7962723
-10.108364 -0.12151329 1.796074
-10.115137 -0.13006862 1.8006494
-10.114958 -0.1451056 1.8058335
-10.122667 -0.1633434 1.808472
-9.90874 -0.16778298 1.8341675
-9.9121742 -0.17472187 1.8266406
-9.9135418 -0.19910575 1.8268441
-9.9121819 -0.21258883 1.8308644
-9.9235563 -0.21694621 1.8285353
-9.9120731 -0.23452495 1.8185123
-9.908864 -0.24915281 1.8233306
-9.9258337 -0.27073881 1.8337338
-9.9182081 -0.27235091 1.82324
-9.9053802 -0.30189779 1.8286481
-9.909893 -0.31632605 1.8201698
-9.9123507 -0.31444815 1.8186144
-9.9223156 -0.33421633 1.8265365
-9.9120569 -0.35292235 1.8348365
-9.9177589 -0.36331999 1.8326396
-9.9057713 -0.38257164 1.8267241
-9.9037867 -0.39897007 1.8200403
-9.9169645 -0.41271341 1.8256296
-9.9197206 -0.41922629 1.8234653
-9.9129505 -0.43332461 1.8256122
-9.900753 -0.45236984 1.8271883
-9.9170141 -0.45432493 1.8244989
-9.9148121 -0.46671668 1.8358974
-9.9046679 -0.48934156 1.8224455
-9.9062042 -0.49817926 1.8324506
-9.9099188 -0.51555878 1.8370582
-9.8995295 -0.53150314 1.8191205
-9.8958044 -0.54119402 1.8212919
-9.9064703 -0.55422825 1.8308022
-9.8992815 -0.56109947 1.820065
-9.9099274 -0.57639974 1.8241327
-9.8989763 -0.60860723 1.8200942
-9.8906965 -0.6192773 1.8175122
-9.8909979 -0.62048787 1.8261524
-9.9047327 -0.64393896 1.8198013
-9.888443 -0.65182734 1.829916
-9.8875265 -0.67006856 1.8179305
-9.9045277 -0.68534642 1.8300972
-10.097432 -0.70618266 1.7994134
-10.082693 -0.72679573 1.7993579
-10.098672 -0.73887336 1.7978419
-10.288597 -0.77578038 1.7742987
-10.284486 -0.7906009 1.7775813
-10.480927 -0.80209434 1.7498313
-10.490697 -0.83300167 1.7561237
-10.684743 -0.86458141 1.7247031
-10.670685 -0.88040948 1.7325321
-10.866492 -0.91079271 1.7152561
-10.872188 -0.92063749 1.7087433
-10.864887 -0.93675643 1.7157224
-11.075452 -0.96731472 1.6810691
-11.069655 -0.97366488 1.6822102
-11.261503 -1.0149776 1.6592493
-11.252242 -1.03815 1.6583228
-11.464779 -1.0707787 1.6374811
-11.650949 -1.1012344 1.6157548
-11.647129 -1.1203177 1.6167825
17.992306 -4.9945421 0.79090279
17.804319 -4.9054451 0.80207831
17.821129 -4.8835177 0.80867094
17.824883 -4.8556433 0.81732607
17.837606 -4.8433366 0.81509805
17.831438 -4.8064837 0.80500287
17.845932 -4.7818007 0.80747449
17.859465 -4.7533808 0.81158721
17.855778 -4.73493 0.80006409
17.873989 -4.7142119 0.80574298
17.873194 -4.6833963 0.80947596
17.874531 -4.6561022 0.80428219
17.883347 -4.6388412 0.8161552
17.898724 -4.6046348 0.81103319
17.902718 -4.5844774 0.81333822
17.904451 -4.557229 0.80760759
17.916054 -4.5421915 0.80166137
17.910093 -4.5202913 0.81922799
17.928209 -4.4887118 0.8103283
17.934769 -4.4655213 0.81722081
17.926971 -4.4296918 0.80999333
17.942873 -4.4190578 0.80511588
17.953545 -4.3861022 0.8125459
17.956057 -4.3642325 0.80921972
17.953409 -4.3447938 0.80107898
17.973032 -4.3100142 0.81520623
17.96689 -4.2899885 0.81938159
17.974768 -4.2622457 0.80045885
17.980175 -4.2426724 0.80810827
17.996649 -4.2027926 0.81393242
17.999979 -4.1769266 0.81056148
17.996048 -4.1613421 0.81279135
17.813675 -4.0966592 0.82659322
17.812164 -4.0604224 0.8335557
17.827291 -4.0329099 0.83489782
17.834244 -4.0118165 0.82595223
17.835289 -3.9828737 0.83195627
17.840473 -3.9720268 0.84061903
17.846703 -3.9417095 0.82376224
17.860544 -3.9208219 0.84168458
17.860176 -3.8824711 0.84036356
17.856403 -3.8738849 0.82950962
17.874825 -3.8399408 0.83363956
17.883354 -3.8132086 0.82914317
17.878811 -3.797015 0.82728803
17.895576 -3.7595 0.84164697
17.88336 -3.7465372 0.84006208
17.897114 -3.7139509 0.82442933
17.899496 -3.7006638 0.83421123
17.904985 -3.6590269 0.83997065
17.908363 -3.6432157 0.83916289
17.910383 -3.6166015 0.84201586
17.921516 -3.5969541 0.83388001
17.936743 -3.5741305 0.82753575
17.927441 -3.5411682 0.83243728
17.936247 -3.5167248 0.82989818
17.939377 -3.4897463 0.83535916
17.940886 -3.4742289 0.82843643
17.94673 -3.4415092 0.82982332
17.962318 -3.4084446 0.82786274
17.963633 -3.3971126 0.8367216
17.964104 -3.3688345 0.82719588
17.967392 -3.3344638 0.83231151
17.982512 -3.309871 0.8352378
17.971249 -3.2995524 0.82610661
17.984856 -3.2653635 0.83639181
17.995886 -3.232945 0.82862169
17.992344 -3.2238817 0.83132875
18.001842 -3.1938071 0.841708
17.992695 -3.1729386 0.84009778
17.805929 -3.1012695 0.84841728
17.823561 -3.0883763 0.85628921
17.811632 -3.056885 0.85345775
17.824785 -3.0349317 0.8501386
17.820829 -3.0088603 0.85205102
18.023561 -3.0066514 0.83940065
18.236635 -3.0174153 0.81406909
18.226049 -3.0033567 0.8163529
18.434126 -2.9963403 0.77994066
18.632635 -3.0023715 0.75927812
18.829588 -3.0234103 0.73091203
19.031252 -3.0105982 0.71058136
19.04467 -3.0024948 0.72053653
19.23143 -2.9961898 0.68391681
19.434921 -2.9975169 0.6684925
19.640369 -2.9956076 0.64327693
19.836872 -3.0001762 0.61474442
20.031748 -2.9989932 0.59483027
20.248949 -3.0093508 0.56854701
20.433439 -3.02087 0.54229403
20.640968 -3.0151608 0.52051026
20.843828 -3.0075622 0.49649328
21.050055 -3.0102017 0.47401509
21.246275 -3.0059111 0.46196333
21.44957 -2.9980094 0.43215188
21.641136 -3.0045838 0.40726349
-10.456363 1.2318375 1.8255482
-10.263124 1.1988977 1.8619361
-10.267235 1.1766753 1.8634491
-10.251884 1.170014 1.8582908
-10.257143 1.1475761 1.8602508
-10.256446 1.1265525 1.8617294
-10.267743 1.1209754 1.8625362
-10.272967 1.1118019 1.8609581
-10.264618 1.0827475 1.8546802
-10.272559 1.0774363 1.8624954
-10.274285 1.0704062 1.8552932
-10.273257 1.0408441 1.852487
-10.278028 1.0288093 1.8617958
-10.281265 1.0137442 1.8587831
-10.26964 1.0150173 1.8476744
-10.276035 0.99856526 1.8498862
-10.280932 0.97237402 1.8608675
-10.285002 0.96249676 1.8570237
-10.290629 0.94248652 1.8584763
-10.282516 0.93603283 1.8489704
-10.286566 0.90933061 1.8467892
-10.277799 0.90511447 1.849403
-10.291818 0.89756596 1.8543409
-10.296507 0.86819804 1.8585746
-10.284189 0.85185254 1.8584443
-10.282961 0.8504895 1.8562268
-10.2995 0.82558751 1.8621849
-10.285038 0.81795347 1.8526343
-10.294399 0.80600923 1.8574439
-10.302288 0.78347689 1.8501723
-10.299663 0.77817178 1.8505725
-10.299198 0.76289153 1.8611325
-10.2961 0.75483006 1.8585216
-10.308043 0.72329623 1.8609221
-10.295733 0.7252773 1.8613582
-10.303534 0.70966464 1.8548138
-10.293531 0.69867015 1.857752
-10.297551 0.6832751 1.8474419
-10.311101 0.65963572 1.8595753
-10.299821 0.64920467 1.8635652
-10.315793 0.62247604 1.8566407
-10.311344 0.61726874 1.848828
-10.117879 0.5848062 1.8695538
-10.105425 0.57308412 1.8709342
-10.110551 0.55466878 1.8686923
-10.115222 0.54943001 1.8852353
-10.106417 0.53515035 1.885183
-10.114654 0.51778775 1.8841361
-10.113181 0.50779176 1.8738515
-10.119555 0.48997203 1.8675389
-10.12192 0.47705692 1.8689018
-10.111189 0.46944669 1.879463
-10.108252 0.4577013 1.8833586
-10.126775 0.43920991 1.8696629
-10.123898 0.41637301 1.8716836
-10.123242 0.40962678 1.8825985
-10.126025 0.39242691 1.8733675
-10.12884 0.38771158 1.8809091
-10.112682 0.36517078 1.8725905
-10.126789 0.3569378 1.8805892
-10.127189 0.32700264 1.8698107
-10.126206 0.32844087 1.8855606
-10.114642 0.31343979 1.8837049
-10.119164 0.30051878 1.8774983
-10.11736 0.27105841 1.8825961
-10.133516 0.26281661 1.8750899
-10.118738 0.25233647 1.8845267
-10.133171 0.23956579 1.8833919
-10.120043 0.22345759 1.8738606
-10.115213 0.21372737 1.8702414
-10.122365 0.20406251 1.8708329
-10.120275 0.17582603 1.8870089
-10.122416 0.1595791 1.8823309
-10.126393 0.15921734 1.8788794
-10.116557 0.14104503 1.8801157
-10.121604 0.12708296 1.8872589
-10.134136 0.10824602 1.878071
-10.117212 0.095303386 1.8702621
-10.121404 0.075796589 1.8804951
-10.135107 0.061407134 1.8751483
-10.132409 0.060133707 1.8742875
-10.1291 0.041197769 1.8793415
-10.129595 0.020349318 1.8823
-10.134748 0.015732646 1.8790488
-10.123333 0.001141154 1.8717773
-10.130662 -0.018327288 1.8846962
-10.130829 -0.030178901 1.8729308
-10.120163 -0.044976834 1.8823755
-10.117287 -0.063855901 1.8864664
-10.124157 -0.076347321 1.870321
-10.136354 -0.08607024 1.8870554
-10.129394 -0.092433177 1.8790071
-10.117358 -0.11926004 1.8842639
-9.9236012 -0.12847219 1.9012637
-9.9318228 -0.14875692 1.895619
-9.9272976 -0.15639876 1.9046593
-9.9298334 -0.16425456 1.8960012
-9.9241152 -0.18151212 1.9066986
-9.9289331 -0.19598033 1.8926699
-9.9296408 -0.2174262 1.9003029
-9.9264746 -0.23119651 1.8923658
-9.9265547 -0.23815197 1.8922184
-9.9346638 -0.25323862 1.8993964
-9.9174967 -0.27349779 1.9087579
-9.9255171 -0.28218079 1.8917091
-9.9191618 -0.28655902 1.9008926
-9.923748 -0.31371358 1.8960941
-9.9169722 -0.31540987 1.9079114
-9.9194794 -0.34220314 1.8991337
-9.9159966 -0.35000247 1.9027827
-9.924861 -0.3549532 1.9065336
-9.9216442 -0.38032094 1.8972008
-9.9185543 -0.39415389 1.9066528
-9.9282675 -0.41119534 1.8897163
-9.9285994 -0.41665182 1.8979671
-9.9259605 -0.43616802 1.8957093
-9.9141197 -0.44070357 1.900166
-9.9070578 -0.45891649 1.8967949
-9.9081593 -0.48010945 1.9004984
-9.9180183 -0.49831104 1.8902696
-9.9242096 -0.50588828 1.9089566
-9.9066305 -0.51077837 1.8961416
-9.9183655 -0.53312856 1.9033586
-9.9206285 -0.54576075 1.9073983
-9.9198084 -0.55931348 1.8998449
-9.9107189 -0.57083547 1.9066378
-9.9038677 -0.59114325 1.9027568
-9.9125404 -0.60503531 1.8945236
-9.9045639 -0.62069428 1.8989575
-9.9128656 -0.62689793 1.8990486
-9.911377 -0.63999718 1.9054203
-9.9111814 -0.65624106 1.900759
-9.9037819 -0.66496235 1.9076033
-9.9091454 -0.676709 1.8956703
-10.108711 -0.70254058 1.881832
-10.09753 -0.726237 1.8725308
-10.099537 -0.74390221 1.8767734
-10.303605 -0.76603287 1.8587679
-10.297665 -0.78636992 1.861159
-10.485429 -0.81139332 1.828988
-10.494903 -0.82059491 1.8397709
-10.696096 -0.86657774 1.805949
-10.683796 -0.87031335 1.8194563
-10.882698 -0.89698142 1.7928536
-10.875421 -0.90959227 1.7905902
-10.879754 -0.93203598 1.7787473
-11.071364 -0.97496235 1.7611482
-11.080689 -0.98764324 1.7726924
-11.263739 -1.0134736 1.7360824
-11.266403 -1.032305 1.74655
-11.476907 -1.0603136 1.7202723
-11.656552 -1.0931319 1.6987331
-11.669895 -1.1163204 1.6906008
17.804644 -4.9724765 0.95233005
17.825777 -4.9305897 0.95167565
17.824612 -4.9143343 0.94378495
17.83157 -4.8930111 0.94561607
17.843102 -4.8623786 0.95024639
17.846142 -4.8382354 0.94252002
17.854742 -4.8181901 0.95171481
17.853777 -4.7922082 0.94719982
17.868706 -4.769506 0.94471574
17.884266 -4.7416992 0.93534207
17.87166 -4.715281 0.93700254
17.895765 -4.6946473 0.93568802
17.899183 -4.6620617 0.94575733
17.894674 -4.6493673 0.95226824
17.911961 -4.6119571 0.94452107
17.913843 -4.5982862 0.93601692
17.927965 -4.5627584 0.94264799
17.931248 -4.5349064 0.95034212
17.929979 -4.5188017 0.93580979
17.946192 -4.4937768 0.94414622
17.952995 -4.4679642 0.9539538
17.941423 -4.4446168 0.9394387
17.948503 -4.4243889 0.95254356
17.965618 -4.3951712 0.95336819
17.969208 -4.3551331 0.94661975
17.985016 -4.339644 0.94854963
17.972286 -4.3164301 0.94100553
17.986151 -4.2962966 0.93630284
17.987675 -4.2637591 0.94268554
17.994631 -4.2413015 0.94906485
17.816385 -4.1728754 0.95842612
17.821352 -4.1479349 0.96388257
17.83177 -4.1221018 0.96451247
17.835257 -4.0853076 0.96929681
17.839535 -4.0710406 0.96904778
17.837029 -4.047049 0.95920777
17.856417 -4.0218363 0.967493
17.848228 -3.9887717 0.97081435
17.855301 -3.960161 0.96156758
17.868721 -3.9505367 0.96966469
17.868486 -3.9115624 0.97564375
17.875372 -3.8934305 0.96170342
17.88768 -3.8706563 0.96872777
17.880581 -3.8501348 0.96767026
