# .PCD v0.7 - Point Cloud Data file format
VERSION 0.7
FIELDS x y z
SIZE 4 4 4
TYPE F F F
COUNT 1 1 1
WIDTH 1528
HEIGHT 1
VIEWPOINT 0 0 0 1 0 0 0
POINTS 1528
DATA ascii
-1.0893066 -4.897006 1.6796329
-1.0972058 -4.8996224 1.6955912
-1.0828038 -4.9033427 1.6823809
10.854326 2.9433355 0.1288714
10.856242 2.9611073 0.13657293
10.847788 2.9741623 0.12908053
10.653724 2.9403946 0.18883422
10.657707 2.9410903 0.18704578
10.661835 2.9700794 0.181097
10.649612 2.9705119 0.18215737
10.448995 2.9357584 0.23334742
10.449093 2.9651725 0.23039475
10.443734 2.9715936 0.23949167
10.444797 2.9905074 0.2313038
10.254468 2.9420245 0.2952455
10.258165 2.9623573 0.28759786
10.254351 2.9796216 0.28237453
10.240765 2.9849582 0.28297898
10.059402 2.9440825 0.32721424
10.058116 2.9693058 0.32752141
10.03787 2.9846284 0.33059391
10.039291 2.9841492 0.32849604
9.8520784 2.9469423 0.38774469
9.8396826 2.9701664 0.3818301
9.8390789 2.9734921 0.38627601
9.8328943 2.984621 0.37675354
9.6536932 2.939537 0.43970388
9.6346788 2.9612782 0.44419709
9.6362495 2.9717915 0.4279806
9.6325321 2.9851279 0.44296908
9.4440727 2.9447896 0.48877153
9.443779 2.9673207 0.49058378
9.4413681 2.9724684 0.47667563
9.4286842 2.9893301 0.49225557
9.4300671 2.9897175 0.477431
9.2312527 2.9492202 0.52951485
9.2276049 2.9576292 0.52981561
9.2373848 2.9711308 0.53840345
9.2316408 2.9903295 0.54405606
9.2296619 3.0099561 0.52960241
9.0384436 2.9501824 0.58843589
9.0277996 2.9740951 0.58712363
9.0189505 2.9797177 0.57779223
9.0161762 2.9967949 0.5921613
9.0289631 2.9994121 0.59376252
9.0069084 3.0120151 0.58056509
9.0074158 3.0250814 0.58289069
9.0082064 3.0520573 0.58583772
9.1810932 3.1196253 0.52560484
9.1760025 3.1274464 0.54163414
9.1764402 3.152442 0.5251627
9.1661892 3.1509106 0.54000413
9.1746082 3.1646643 0.52787423
9.1736774 3.179795 0.54023337
9.167099 3.1918826 0.54262722
9.1621027 3.2061026 0.52504748
9.1438923 3.2250347 0.5279634
9.1479883 3.2289793 0.52529031
9.1350145 3.2465248 0.53543699
9.1312943 3.2633233 0.54059565
9.1235847 3.2649214 0.53794682
9.1193867 3.2806485 0.54096973
9.1300125 3.2891922 0.52495551
9.1284895 3.3012211 0.53128743
9.1193085 3.331104 0.53692853
9.112504 3.3404427 0.54401731
9.1081018 3.356039 0.5372721
9.1065979 3.3602192 0.54171193
9.1024027 3.3759298 0.53094375
9.0883369 3.3924422 0.544227
9.0794115 3.4057856 0.5263676
9.0878201 3.4194884 0.53150082
9.0792341 3.4283924 0.5324496
9.0746155 3.4403675 0.53270561
9.0763121 3.4477725 0.53012949
9.0636311 3.4730017 0.54418308
9.0580215 3.4784749 0.54113096
9.0456495 3.4871082 0.52956313
9.0576992 3.4962287 0.5410167
9.0389633 3.5159826 0.53629994
9.033493 3.5315289 0.53225058
9.0301466 3.5402186 0.52923471
9.0319147 3.5450745 0.54245991
9.0146141 3.5700824 0.5350039
9.0175524 3.5815744 0.5423035
9.0178967 3.5851915 0.54218942
9.1922474 3.679857 0.48540846
9.1834574 3.6954074 0.49413568
9.1830816 3.707866 0.4793607
9.1741419 3.7064648 0.49172401
9.1604681 3.7244866 0.48702469
9.1627264 3.7440722 0.47841299
9.1619511 3.750355 0.4820621
9.1543827 3.7642834 0.478131
9.1393414 3.7661135 0.49311054
9.1515818 3.7932692 0.47913268
9.1436892 3.799804 0.47541818
9.1285028 3.8226659 0.49444252
9.1220255 3.830287 0.49312112
9.1207561 3.8341205 0.47760114
9.1118317 3.8494501 0.48731306
9.1181908 3.8722265 0.48382786
9.0959196 3.8794332 0.49384981
9.0972805 3.8842957 0.48503193
9.0946922 3.899358 0.48528329
9.0870657 3.9119198 0.47993678
9.0854435 3.9218667 0.48837891
9.0800896 3.9419219 0.48694417
9.0737419 3.9608128 0.48039904
9.0660553 3.963764 0.48496366
9.0628319 3.983139 0.49214143
9.0493021 3.9942389 0.48938638
9.052269 4.008451 0.48113665
9.0452404 4.0094252 0.48505551
9.029377 4.0332303 0.49135035
9.0337467 4.0348454 0.47752813
9.032752 4.0602927 0.48098162
9.0201826 4.0658579 0.49182683
9.0061607 4.0705657 0.48890698
9.1820459 4.1731415 0.42678618
9.1858969 4.1782165 0.44090414
9.1769075 4.1953039 0.43348897
9.1651449 4.2009187 0.42766115
9.1651144 4.2250829 0.43019038
9.1489849 4.2389779 0.44391516
9.159133 4.2428555 0.42665353
9.1354408 4.2713695 0.44224569
9.1351843 4.2729611 0.43081734
9.1257553 4.2861962 0.43151852
9.1333885 4.3045297 0.44217783
9.1283875 4.3125262 0.445104
9.117487 4.3173628 0.43231755
9.119153 4.3362851 0.43235385
9.0949736 4.3610435 0.44377029
9.0933056 4.355556 0.43630627
9.0853443 4.3861179 0.43995261
9.0801039 4.3989072 0.43935362
9.0704384 4.397377 0.4275957
9.0693264 4.4123721 0.43633059
9.0688982 4.4209738 0.43066478
9.0591116 4.4305644 0.44026944
9.0522337 4.4552622 0.44199359
9.0525513 4.4676514 0.42993104
9.0328884 4.481905 0.42992601
9.0446234 4.4805522 0.43174151
9.0288773 4.4973168 0.43143541
9.0167599 4.5149384 0.43124333
9.1972322 4.6158915 0.38735035
9.1926012 4.6352234 0.39529899
9.1766872 4.640276 0.37919962
9.1750889 4.6617093 0.38005009
9.1630783 4.6624489 0.39296606
9.1527739 4.6697083 0.3856481
9.1503887 4.6835246 0.37996897
9.1479807 4.6953135 0.38033062
9.1473713 4.7176108 0.38485983
9.1264372 4.7340631 0.39442164
9.1252928 4.744072 0.38547337
9.1097422 4.7558784 0.38304394
9.1021223 4.7582178 0.39286348
9.0983858 4.7854242 0.39132139
9.0954819 4.7871027 0.37773329
9.0854759 4.8049769 0.37862825
9.0881348 4.8269839 0.38057178
9.0850964 4.8331199 0.38154569
9.0624018 4.8451991 0.39206788
9.0642195 4.862916 0.3863025
9.0555801 4.8660784 0.37781477
9.0579758 4.8802972 0.38841194
9.0379248 4.8935213 0.3886362
9.0276747 4.9096508 0.38336393
9.0358658 4.9295368 0.38707611
9.0304499 4.926095 0.39597794
-3.0053346 -2.9961989 1.9215744
-3.0161173 -3.0065427 1.9116101
-2.9993768 -2.9988205 1.9186922
-3.0056496 -3.0004182 1.9283932
-2.9999588 -3.0119948 1.9171453
-3.0035102 -3.0242646 1.9269718
-2.998734 -3.0200493 1.9196591
-2.9775181 -3.0177484 1.9230878
-2.9751227 -3.0292287 1.9227234
-2.9697821 -3.0263193 1.9156872
-2.979562 -3.0305147 1.923053
-2.964643 -3.0296836 1.924296
-2.9596825 -3.0363083 1.9174764
-2.967634 -3.0534084 1.9132686
-2.9658787 -3.0490258 1.9216874
-2.9553657 -3.0524089 1.922034
-2.9550204 -3.0552356 1.9307877
-2.941982 -3.0610723 1.9260281
-2.945509 -3.0687454 1.9139681
-2.9293947 -3.0753152 1.9289914
-2.920311 -3.0759084 1.9239873
-2.9238555 -3.0858316 1.9239764
-2.9261515 -3.0950491 1.921497
-2.9152613 -3.0964789 1.9260676
-2.9085734 -3.1004198 1.9191649
-2.9134607 -3.09812 1.9130174
-2.8979957 -3.0997529 1.9281753
-2.8937714 -3.1126311 1.9216229
-2.8943012 -3.1133258 1.9115176
-2.8868852 -3.1222017 1.9189568
-2.8844402 -3.1262949 1.929911
-2.8869936 -3.1182392 1.9150445
-2.8695524 -3.116792 1.9150566
-2.8745852 -3.1287725 1.9177291
-2.7441611 -2.9954915 1.9700489
-2.731714 -2.9941423 1.9792426
-2.7254093 -3.0016637 1.9708754
-2.7239411 -3.0093019 1.973696
-2.7290204 -3.0018165 1.9798818
-2.7241993 -3.0112679 1.9612454
-2.7119339 -3.0226321 1.9625638
-2.7087088 -3.0209138 1.9759793
-2.700345 -3.0261235 1.9748777
-2.6919639 -3.020741 1.965825
-2.7009048 -3.0201955 1.971179
-2.6870246 -3.0313895 1.9617169
-2.6839457 -3.0404706 1.9685621
-2.6892288 -3.0322809 1.9715921
-2.6716857 -3.0533731 1.9659243
-2.6679518 -3.0538521 1.9746163
-2.6628492 -3.046279 1.9757491
-2.6764228 -3.0596993 1.9623997
-2.6565759 -3.0489798 1.967634
-2.657825 -3.0541079 1.9620383
-2.6481218 -3.0724115 1.9607698
-2.6530595 -3.0610747 1.9720829
-2.647454 -3.0709038 1.9780846
-2.6349981 -3.070266 1.9760396
-2.6395071 -3.0763409 1.9766605
-2.6296787 -3.0829425 1.9605541
-2.6311533 -3.0887072 1.9757669
-2.6314898 -3.0923166 1.9612993
-2.6251705 -3.1003554 1.9612854
-2.6136119 -3.0939248 1.9798712
-2.6076438 -3.102078 1.9638753
-2.6029394 -3.0994604 1.9629325
-2.6069164 -3.1155345 1.9758704
-2.604887 -3.1234548 1.9731501
-2.584897 -3.1201916 1.9680531
-2.5842814 -3.1314127 1.9800465
-2.579767 -3.1284258 1.969961
-2.5800347 -3.1300983 1.979946
-2.5747652 -3.1297796 1.9655662
-2.5695045 -3.1422353 1.9612845
-2.5656528 -3.1330612 1.9725115
-2.5577922 -3.1435256 1.9700116
-2.5508692 -3.1423156 1.9750873
-2.5510032 -3.1434298 1.9758861
-2.5538526 -3.1489124 1.9635855
-2.5417941 -3.158143 1.9636952
-2.5377371 -3.167228 1.9704168
-2.5437605 -3.1609542 1.979085
-2.5397942 -3.1737897 1.9716849
-2.5302026 -3.1657481 1.9754361
-2.524888 -3.1782441 1.9719621
-2.5083413 -3.1872728 1.9616181
-2.5142894 -3.1737773 1.9760724
-2.515157 -3.1848199 1.9729952
-2.4952209 -3.183121 1.9680113
-2.5075805 -3.1937768 1.9773668
-2.4998257 -3.2047949 1.9612011
-2.4853442 -3.20626 1.9748666
-2.4821897 -3.2081873 1.979248
-2.4864304 -3.2049568 1.9752163
-2.4869149 -3.2008502 1.9622276
-2.4708688 -3.2046404 1.9637431
-2.4651618 -3.2188272 1.9622804
-2.4649954 -3.2183352 1.9732953
-2.4679017 -3.2223649 1.9695238
-2.4557869 -3.2232177 1.978604
-2.4543118 -3.2407837 1.9801679
-2.4489977 -3.2283409 1.963762
-2.4500134 -3.2372215 1.968918
-2.4466426 -3.2348254 1.9607873
-2.427299 -3.2374012 1.9802396
-2.4209392 -3.2484233 1.9793723
-2.4330592 -3.2582357 1.967782
-2.4266372 -3.2523835 1.9801418
-2.4091954 -3.2539444 1.971923
-2.4155207 -3.2679024 1.9662967
-2.412761 -3.2649016 1.9665432
-2.4084325 -3.2611079 1.962665
-2.4005053 -3.2628558 1.9733324
-2.3874173 -3.2657638 1.9698157
-2.3824556 -3.2738636 1.9671367
-2.3780365 -3.2801437 1.9768428
-2.3744805 -3.2830892 1.9801373
-2.3825097 -3.2841625 1.9726785
-2.3781748 -3.2923484 1.9670469
-2.3620539 -3.2914188 1.970839
-2.3515549 -3.2922933 1.9610074
-2.3608043 -3.2934079 1.9783382
-2.3539276 -3.3111687 1.977284
-2.3363791 -3.3004196 1.9766778
-2.3423424 -3.3092914 1.9713216
-2.3309801 -3.3183315 1.9630284
-2.3299072 -3.3084073 1.9751267
-2.3255353 -3.3311093 1.9694824
-2.3286176 -3.3340776 1.9789762
-2.317327 -3.3255308 1.9727174
-2.3222396 -3.3310957 1.9688952
-2.3169794 -3.3305252 1.967263
-2.294384 -3.3476977 1.9711684
-2.2928381 -3.3319459 1.9691147
-2.291894 -3.3467863 1.9614747
-2.2963016 -3.3548982 1.9680735
-2.2889979 -3.346575 1.9678687
-2.2895913 -3.3585227 1.968228
-2.2758245 -3.3581998 1.9688783
-2.2725596 -3.351238 1.9613283
-2.2755492 -3.3538451 1.97146
-2.2623563 -3.3758531 1.9654021
-2.2507913 -3.3599305 1.965405
-2.2553165 -3.3671322 1.9643866
-2.2418909 -3.3780639 1.971748
-2.2361012 -3.378082 1.9742115
-2.2437079 -3.3754797 1.9682051
-2.2315152 -3.3781586 1.973452
-2.2189589 -3.3917627 1.9622159
-2.2257478 -3.3867986 1.9611292
-2.2200825 -3.3895252 1.9606162
-2.2042809 -3.4037645 1.9612699
-2.2145331 -3.3911483 1.9610138
-2.204778 -3.4077721 1.9767172
-2.1960371 -3.415689 1.9646437
-2.1999302 -3.402539 1.9757
-2.1813557 -3.4217234 1.9725002
-2.1887834 -3.4134471 1.9697564
-2.1709597 -3.4173508 1.9765365
-2.1843681 -3.4127839 1.9714023
-2.1788588 -3.4272966 1.9666567
-2.1738582 -3.430757 1.9707801
-2.1681998 -3.4292233 1.9706212
-2.1627932 -3.4426925 1.9769337
-2.1416788 -3.4321828 1.9784178
-2.1526339 -3.4503331 1.9761335
-2.1325283 -3.4346797 1.9777397
-2.1356184 -3.4512291 1.9706906
-2.1414483 -3.4547341 1.9627997
-2.1204937 -3.4564312 1.9625305
-2.1246691 -3.457407 1.9707969
-2.1135859 -3.4581745 1.9786446
-2.1183753 -3.4580798 1.9710609
-2.1033194 -3.4573791 1.9730363
-2.1019468 -3.4603691 1.9685428
-2.099086 -3.4791231 1.9689139
-2.0985057 -3.4825847 1.9679464
-2.0963147 -3.473954 1.9734309
-2.0811689 -3.4759746 1.9784048
-2.07391 -3.4818666 1.9646693
-2.066916 -3.4767637 1.9729394
-2.0716517 -3.4854121 1.9634162
-2.0685356 -3.4836881 1.9769553
-2.0529993 -3.4917505 1.9741558
-2.0554833 -3.5032868 1.9713204
-2.0424571 -3.4968133 1.9726783
-2.0490556 -3.4946139 1.9735149
-2.0366175 -3.5150824 1.965916
-2.038691 -3.5052681 1.9792234
-2.0357866 -3.5130615 1.9695588
-2.0266137 -3.5187325 1.9679103
-2.0291669 -3.514014 1.9605198
-2.0212393 -3.5110586 1.9777529
-2.0197685 -3.5174499 1.9698164
-2.0010934 -3.5312128 1.9732295
-2.0052497 -3.5368404 1.9659956
-1.9880441 -3.533962 1.9638332
-1.989998 -3.5435448 1.9640677
-1.9795469 -3.5401042 1.9769753
-1.9757847 -3.5386667 1.9649409
-1.981683 -3.5329673 1.9700806
-1.9692261 -3.5347364 1.9627768
-1.9641558 -3.5534968 1.9612595
-1.9618485 -3.5557094 1.9761751
-1.9474738 -3.544174 1.9801452
-1.9496821 -3.5617259 1.9612981
-1.9391208 -3.5670071 1.9681331
-1.9507179 -3.5591807 1.968182
-1.9420767 -3.5658462 1.974461
-1.9405241 -3.5736957 1.9649605
-1.9310021 -3.5723939 1.9639353
-1.9163367 -3.5635896 1.96391
-1.9089712 -3.5746729 1.9678864
-1.9031193 -3.5684111 1.9724053
-1.902348 -3.5727403 1.9712079
-1.897603 -3.5842476 1.9751997
-1.8917013 -3.5901668 1.9766448
-1.8989609 -3.5926604 1.9686433
-1.886168 -3.5914938 1.976697
-1.8870924 -3.5937595 1.9796145
-1.8775135 -3.5914917 1.9665402
-1.8689562 -3.599551 1.9649698
-1.8604205 -3.6052411 1.9750082
-1.8679045 -3.6100788 1.9739943
-1.8508662 -3.5991492 1.9713296
-1.8550217 -3.6084819 1.9798292
-1.8551817 -3.6169238 1.9650741
-1.8338931 -3.6176403 1.9704828
-1.8406022 -3.6105824 1.9797086
-1.839254 -3.6094708 1.9693122
-1.8349848 -3.6238062 1.9638199
-1.8237863 -3.614614 1.9728976
-1.8141546 -3.6219192 1.9789079
-1.814481 -3.6217453 1.9626955
-1.7958177 -3.6295736 1.9800211
-1.7998158 -3.6266015 1.9706154
-1.7953106 -3.6288371 1.9753618
-1.785557 -3.6348355 1.9619789
-1.7903912 -3.6325977 1.9782339
-1.7859961 -3.6540706 1.9781736
-1.7719939 -3.6563363 1.9663436
-1.7634805 -3.6524692 1.9662647
-1.7658859 -3.6440396 1.9614323
-1.7622776 -3.6610093 1.9793185
-1.7548782 -3.6643922 1.9719139
-1.7501497 -3.656853 1.9700121
-1.7348236 -3.6698918 1.9683979
-1.7347476 -3.6582642 1.9633015
-1.7280512 -3.6765611 1.962952
-1.7250962 -3.6755569 1.9636316
-1.7221984 -3.665648 1.9645405
-1.711127 -3.6723266 1.9718043
-1.7201312 -3.6865149 1.969978
-1.7139643 -3.6822026 1.9736556
-1.7099081 -3.6756022 1.9764166
-1.6932529 -3.689388 1.9691762
-1.6984965 -3.6929657 1.9713488
-1.6853508 -3.6815891 1.9675938
-1.6772982 -3.6886411 1.9679797
-1.6695918 -3.6978662 1.9718003
-1.6812024 -3.6893251 1.9679533
-1.671901 -3.6948478 1.9798441
-1.6553324 -3.6945133 1.9799554
-1.660587 -3.6931536 1.9667809
-1.6421605 -3.7128828 1.9626014
-1.64097 -3.7011054 1.9670236
-1.6470166 -3.699723 1.9702481
-1.6308875 -3.7103503 1.9672223
-1.63851 -3.7180834 1.9795104
-1.6257435 -3.7232718 1.964932
-1.6291531 -3.7252357 1.9612459
-1.6164066 -3.7230666 1.9743813
-1.6117661 -3.7295003 1.9701884
-1.6070112 -3.7263634 1.9696847
-1.5954275 -3.7299783 1.9717743
-1.5880203 -3.7375836 1.9679567
-1.5961878 -3.7364202 1.9678291
-1.5811276 -3.7443151 1.979375
-1.5690902 -3.7450237 1.9654814
-1.5647615 -3.7381599 1.9686855
-1.5750082 -3.7399027 1.9722046
-1.5689379 -3.7340996 1.9801646
-1.5497291 -3.7488596 1.9639552
-1.5547103 -3.7440715 1.9731399
-1.540192 -3.7529097 1.9609596
-1.5435811 -3.7595537 1.9634165
-1.5307848 -3.7595811 1.969272
-1.538113 -3.7497678 1.9694605
-1.5338924 -3.7531395 1.9711611
-1.5235623 -3.7574079 1.9619391
-1.5100253 -3.7571514 1.9731801
-1.512966 -3.7560563 1.972423
-1.5079439 -3.760987 1.9790971
-1.4991281 -3.7761366 1.9727436
-1.5011249 -3.7620089 1.9797287
-1.495299 -3.7765138 1.9622394
-1.4870132 -3.7834694 1.9668846
-1.472869 -3.7830031 1.9634979
-1.4785334 -3.7835689 1.9788871
-1.4624943 -3.7790604 1.9721479
-1.4556743 -3.7862737 1.9677979
-1.4576105 -3.7816894 1.9666684
-1.4603009 -3.7973478 1.9627261
-1.4363143 -3.789458 1.965745
-1.4386784 -3.7888358 1.9649949
-1.4340545 -3.7876608 1.9718357
-1.4269172 -3.8034768 1.9738096
-1.4151318 -3.7904279 1.9783309
-1.4267303 -3.8083258 1.9643602
-1.4229369 -3.7954695 1.9769644
-1.4058799 -3.8010812 1.9644142
-1.4131701 -3.81392 1.9784999
-1.401587 -3.814743 1.9789715
-1.3939434 -3.8168759 1.9693696
-1.3832784 -3.8066723 1.9624195
-1.3733606 -3.8171473 1.9786661
-1.3765993 -3.8057897 1.9611113
-1.3778615 -3.8079548 1.9786127
-1.3745996 -3.827029 1.980216
-1.3653058 -3.8276231 1.9766679
-1.3634051 -3.8164766 1.9694929
-1.3540519 -3.8179393 1.9714566
-1.3506105 -3.8331404 1.9745673
-1.3466947 -3.8260226 1.9775075
-1.3323781 -3.8335669 1.9726063
-1.3250092 -3.8365233 1.979178
-1.321391 -3.8280509 1.9790473
-1.3153248 -3.8461761 1.9786843
-1.3117548 -3.8463776 1.9611725
-1.306579 -3.8426259 1.9649842
-1.3049486 -3.8423169 1.9618529
-1.2904906 -3.8380008 1.9791619
-1.2940664 -3.8555915 1.963165
-1.2945291 -3.8546181 1.976174
-1.272049 -3.844682 1.9635191
-1.2744676 -3.8527336 1.9697808
-1.270312 -3.8625259 1.9663801
-1.2662846 -3.851614 1.9667122
-1.2626176 -3.8624964 1.9686935
-1.2564601 -3.8535697 1.9762694
-1.2464883 -3.8683822 1.9659897
-1.2396455 -3.8541088 1.9618541
-1.235491 -3.8687859 1.961948
-1.227331 -3.8693025 1.9648284
-1.2261598 -3.8727188 1.9794501
-1.2176409 -3.8639359 1.9678184
-1.222858 -3.8763821 1.9681845
-1.2114733 -3.8701878 1.9612454
-1.1997541 -3.8657162 1.9651992
-1.2060515 -3.8804793 1.9798473
-1.1847705 -3.8706651 1.9614431
-1.1937668 -3.879405 1.9790649
-1.1868964 -3.88939 1.963755
-1.1799299 -3.876617 1.9696658
-1.1700805 -3.8880768 1.9738903
-1.1656071 -3.8764243 1.9686202
-1.1527632 -3.8953981 1.9726189
-1.1595509 -3.8883986 1.9645191
-1.1532754 -3.8950939 1.9625907
-1.1430438 -3.8935027 1.9675914
-1.1381619 -3.8960493 1.9640909
-1.1316819 -3.893013 1.9735276
-1.1275779 -3.8885295 1.9746486
-1.1187816 -3.9025049 1.9702047
-1.1240723 -3.8920591 1.9759552
-1.1051363 -3.9025698 1.9750048
-1.1114682 -3.9056692 1.9767196
-1.0937992 -3.900991 1.9670655
-1.1042278 -3.9154744 1.9723397
-1.0965827 -3.9051652 1.9608216
-1.0839347 -3.915416 1.9683658
-1.1266593 -4.0913343 1.9110433
-1.1278102 -4.101963 1.9293017
-1.1278378 -4.1092429 1.9151706
-1.1123072 -4.107264 1.9130635
-1.1110239 -4.1118011 1.9220163
-1.1106888 -4.1081247 1.9294326
-1.0886366 -4.1122355 1.9230825
-1.0962366 -4.1122341 1.9237968
-1.07856 -4.1100483 1.9163603
-1.1219233 -4.3080187 1.8707014
-1.1279548 -4.2950325 1.8668571
-1.1218026 -4.3089252 1.8739736
-1.1173897 -4.3085752 1.8753915
-1.1071059 -4.2984266 1.8803618
-1.0989269 -4.3127289 1.8623604
-1.1017929 -4.3124328 1.8695928
-1.0772406 -4.3158226 1.8742634
-1.0790361 -4.3125534 1.880477
-1.1272813 -4.5052996 1.8209056
-1.1155324 -4.509747 1.8217341
-1.099936 -4.5062342 1.817135
-1.1081818 -4.5025797 1.8202212
-1.089309 -4.5005255 1.8252268
-1.0890161 -4.5142021 1.8219419
-1.0837507 -4.5057168 1.8259071
-1.1218115 -4.6945181 1.7822087
-1.1070479 -4.6964507 1.7661599
-1.1076113 -4.706202 1.7749075
-1.1019591 -4.7030578 1.7803767
-1.106372 -4.7144547 1.7629746
-1.0899543 -4.716547 1.7706525
-1.0781333 -4.7131801 1.7635435
-1.1267076 -4.9060712 1.7305344
-1.106527 -4.8961935 1.7148936
-1.109629 -4.9073515 1.7292699
-1.1087637 -4.8975453 1.7247692
-1.1020906 -4.8995438 1.7199136
-1.0914642 -4.9086757 1.7268751
11.282777 2.9399188 0.13214028
11.287304 2.947257 0.11584707
11.277696 2.9777217 0.12095547
11.082164 2.9305201 0.18052213
11.086172 2.9444213 0.16679524
11.077619 2.9641502 0.17038748
11.075893 2.972832 0.17992035
10.886079 2.9556124 0.22350994
10.866864 2.9660838 0.22097699
10.866747 2.9793212 0.21434295
10.67555 2.9319041 0.27420157
10.668781 2.9642682 0.27757379
10.665699 2.9711385 0.27567828
10.667705 2.9943085 0.26044378
10.47426 2.95311 0.31173825
10.474051 2.9596751 0.31922212
10.477413 2.9686475 0.31994045
10.2836 2.946125 0.36672089
10.272033 2.9614811 0.36071223
10.277911 2.9608462 0.37277266
10.257136 2.9803607 0.37367472
10.081726 2.9429142 0.42013198
10.076132 2.9605329 0.41048357
10.068622 2.9642959 0.40912113
10.065858 2.985683 0.40414795
9.8802013 2.935637 0.45921519
9.8681669 2.9481511 0.46056277
9.8568325 2.9776874 0.45803636
9.8641729 2.979749 0.45653269
9.8654842 2.9918032 0.46006674
9.6731472 2.9505877 0.5168801
9.6674633 2.9608715 0.50813425
9.6601305 2.9896576 0.50295722
9.6631298 2.9950509 0.5074988
9.4593773 2.9441531 0.5674755
9.4560852 2.9552407 0.55061716
9.4597549 2.9783928 0.55250567
9.4447536 2.9943275 0.55016911
9.4472084 3.001739 0.55613869
9.263176 2.9556618 0.60849905
9.2477064 2.965811 0.61444139
9.2409449 2.974391 0.59718835
9.2454205 2.9997718 0.61524838
9.0600681 2.9523168 0.65332103
9.0439558 2.9703827 0.65661156
9.0397158 2.9692659 0.65779281
9.0386 2.9959469 0.64893502
9.0393553 2.9917731 0.66282666
9.037756 3.0142181 0.65095013
9.022109 3.0217783 0.65877914
9.0307178 3.0379879 0.64384788
9.0252523 3.0515733 0.64459252
9.0225153 3.0537889 0.65781999
9.0178213 3.0794575 0.65068877
9.0030956 3.0931208 0.64899492
9.0116425 3.1066687 0.65356117
9.184866 3.1665728 0.60410464
9.1856136 3.188318 0.60594952
9.180234 3.1926415 0.59763396
9.1629601 3.2055125 0.60427898
9.1734982 3.231205 0.61453962
9.1690865 3.2356613 0.60579783
9.1654015 3.2616282 0.60668963
9.1549263 3.2671657 0.60067403
9.1573019 3.2822599 0.59575152
9.1379662 3.2902014 0.61181289
9.1431789 3.3121715 0.61189044
9.1270037 3.3193121 0.60090512
9.1326551 3.325515 0.6014412
9.1299744 3.3389037 0.60205257
9.1139202 3.347307 0.61556697
9.1081085 3.3757937 0.60075438
9.1135378 3.3851085 0.5991317
9.0998411 3.3884788 0.61027604
9.100111 3.3987732 0.60375041
9.0954409 3.4142981 0.61240852
9.0868139 3.4396195 0.61028516
9.0982466 3.4533675 0.60255742
9.0786772 3.4573872 0.60829395
9.0796251 3.4633625 0.61468697
9.0811672 3.4779387 0.59675765
9.0762062 3.4913766 0.61459589
9.0564146 3.5149341 0.60903633
9.0549831 3.5295029 0.61414099
9.0646782 3.5290675 0.5968408
9.0478306 3.5487056 0.60237265
9.0396223 3.5644784 0.60053974
9.0492735 3.5764632 0.59977549
9.0311794 3.5736747 0.610358
9.0388041 3.5966492 0.61424989
9.0328045 3.6059978 0.60005867
9.0288582 3.6152351 0.60665274
9.0227318 3.6295483 0.60415846
9.1910267 3.7200363 0.55550766
9.184309 3.7326515 0.561876
9.180274 3.7533386 0.5552572
9.1817522 3.7507555 0.55179274
9.1613798 3.762779 0.54770166
9.1602249 3.7816811 0.54821771
9.1496353 3.7931983 0.5591107
9.162919 3.8037241 0.56676185
9.1419945 3.8153284 0.5510667
9.147645 3.8258498 0.55710834
9.130785 3.8497288 0.54834706
9.1333418 3.8520699 0.55938745
9.1222496 3.8755729 0.55830866
9.1245213 3.8857698 0.56184775
9.1233101 3.9008274 0.56461853
9.1179895 3.9199815 0.55350709
9.1131687 3.9138148 0.56113589
9.0992222 3.9262187 0.56652063
9.0929089 3.9430025 0.55074751
9.0908833 3.9707599 0.55274105
9.0748816 3.9669967 0.56586623
9.0701008 3.9911487 0.54859263
9.0763435 3.9895842 0.56208974
9.0614882 4.0156841 0.55305874
9.0701551 4.0259843 0.56636804
9.0615759 4.0363936 0.56612176
9.0418663 4.0474277 0.56700659
9.0497684 4.0699801 0.54760098
9.0430384 4.0717015 0.55229223
9.0405169 4.0968971 0.5520618
9.0199718 4.091608 0.55539668
9.0125332 4.1070733 0.55021983
9.0078049 4.1343331 0.55082244
9.1930122 4.213244 0.51679027
9.1726017 4.2257209 0.50850451
9.1654816 4.2352233 0.51799542
9.1580982 4.2506399 0.50589585
9.1715813 4.2795992 0.50373179
9.1656408 4.2874861 0.51068014
9.1443739 4.2985272 0.51022285
9.1428585 4.3147163 0.51188356
9.14466 4.3291783 0.51642442
9.1412678 4.3246403 0.51564813
9.1184597 4.3545985 0.50027847
9.1296883 4.3500218 0.50457847
9.1126137 4.3642206 0.5055818
9.1050119 4.3769474 0.50921077
9.1052933 4.3890877 0.50901645
9.1033926 4.4012351 0.50393474
9.0884218 4.4180818 0.51712835
9.0929775 4.4393969 0.51375359
9.079175 4.4485154 0.51209182
9.0698957 4.4602599 0.51315093
9.059823 4.4752336 0.51143581
9.0543633 4.4874907 0.51242042
9.0531855 4.4887452 0.51488805
9.0529928 4.5084882 0.51737559
9.0364122 4.5146203 0.51930487
9.0396194 4.5449767 0.50069213
9.0177279 4.5465064 0.50624472
9.0290117 4.5587521 0.5004397
9.1900625 4.671144 0.46300235
9.1761522 4.672925 0.45274088
9.1832838 4.6908464 0.46480632
9.1686811 4.7095394 0.45649078
9.1550465 4.7133036 0.45680049
9.1638603 4.7231417 0.46423271
9.1551447 4.7426834 0.46518505
9.1483402 4.7517343 0.46389109
9.1429062 4.7652121 0.45153272
9.1230059 4.7763109 0.45883459
9.1172829 4.7816558 0.45818201
9.1221914 4.7995849 0.46650118
9.1168213 4.8111572 0.45994198
9.1034975 4.8346581 0.45928466
9.1018419 4.8310719 0.46960944
9.0804777 4.8628654 0.45699987
9.0865278 4.8725276 0.47116849
9.073513 4.8819866 0.46163347
9.059186 4.8926301 0.45283139
9.0524836 4.9100103 0.46239236
9.0530653 4.9083228 0.46457174
9.0529766 4.9382162 0.45196313
9.0411892 4.9494295 0.4582192
-3.0203507 -2.9913149 1.9496922
-3.0326014 -2.9849827 1.9500018
-3.0264132 -3.0080252 1.9429286
-3.0157869 -3.008007 1.9588429
-3.0184016 -3.0156112 1.9558002
-3.0015979 -3.0062304 1.950345
-2.9953122 -3.0076137 1.9615791
-2.999248 -3.0280268 1.9582736
-2.9929233 -3.0193033 1.9525378
-2.9970448 -3.031733 1.9485195
-2.9964478 -3.0370054 1.9578217
-2.9845996 -3.0387154 1.9576964
-2.972436 -3.0384297 1.9587636
-2.96734 -3.0517159 1.9440776
-2.9663239 -3.051821 1.9460105
-2.9683444 -3.0593324 1.9615412
-2.9558144 -3.0647745 1.9598999
-2.9520445 -3.0583742 1.9620507
-2.9515743 -3.0698769 1.9571245
-2.9568343 -3.0697348 1.943962
-2.9461067 -3.0732348 1.9497145
-2.9460711 -3.0691321 1.9579388
-2.9261551 -3.077117 1.9506245
-2.9251661 -3.0842624 1.9541938
-2.9188576 -3.0946546 1.9618217
-2.9306102 -3.091336 1.9460958
-2.9268265 -3.0997617 1.9490798
-2.9046783 -3.1086977 1.9426099
-2.9003737 -3.1014493 1.9487772
-2.9009895 -3.1037524 1.9592205
-2.8947623 -3.1196256 1.9502916
-2.9027767 -3.1197662 1.9495875
-2.8825612 -3.1242998 1.9450142
-2.8896544 -3.1321588 1.9574051
-2.8931727 -3.1380298 1.9435077
-2.7577364 -2.9970024 2.0051131
-2.749541 -2.9993167 1.994298
-2.7383566 -3.0038209 1.9986326
-2.7336364 -3.008364 1.994295
-2.7227437 -3.0178721 1.9917277
-2.7214022 -3.0055075 1.9973547
-2.7289844 -3.0055182 2.0069025
-2.7172654 -3.0096793 1.9959719
-2.7101142 -3.0253055 2.0012312
-2.710567 -3.0288274 2.0046625
-2.7049117 -3.0326171 2.010181
-2.7057326 -3.0324004 1.9972324
-2.6973629 -3.0451934 2.0036213
-2.6846538 -3.037466 2.0093031
-2.6962767 -3.043051 2.0093067
-2.6904616 -3.0515046 2.0054986
-2.6790142 -3.0517561 2.0054982
-2.678014 -3.0645096 2.0051486
-2.6679389 -3.0543385 1.9929793
-2.6725996 -3.0688515 2.0010886
-2.6538236 -3.0619462 2.0092025
-2.649524 -3.0801036 2.0013216
-2.6581676 -3.0741394 2.0044303
-2.6404171 -3.0797184 1.9990432
-2.6369796 -3.0811782 1.9918419
-2.6335337 -3.0810862 1.9999516
-2.6338906 -3.0938153 1.9915687
-2.6342425 -3.0898182 1.994185
-2.634939 -3.1000249 1.9907194
-2.6277997 -3.0991764 1.9964817
-2.612546 -3.1038413 1.9928842
-2.6091731 -3.108501 1.9948578
-2.6136761 -3.1061041 2.0065188
-2.6150653 -3.1102619 1.9963177
-2.6018364 -3.1152923 2.0083675
-2.5958037 -3.121192 2.004214
-2.6016564 -3.1317692 1.9910301
-2.5958867 -3.1270239 2.0055363
-2.5874958 -3.127306 1.9935222
-2.5825653 -3.1447845 2.0060372
-2.5718677 -3.1513505 1.9975621
-2.5647624 -3.1388898 2.0080955
-2.5756783 -3.1552832 2.004688
-2.5549283 -3.1574221 2.0007794
-2.5643744 -3.1506937 1.9954903
-2.5617657 -3.1622992 2.0079455
-2.5433054 -3.164129 1.9934618
-2.5380242 -3.1645658 2.0073552
-2.5382316 -3.1609936 2.0045922
-2.5304484 -3.1768775 2.0079701
-2.5301449 -3.1864557 2.0083959
-2.518312 -3.1733253 2.0048897
-2.5159404 -3.175513 2.0085912
-2.5169716 -3.1813576 1.9937487
-2.5219064 -3.2010603 2.0092235
-2.5121253 -3.2025712 1.9966755
-2.5098839 -3.1900434 2.0058742
-2.5021214 -3.1966615 1.9982065
-2.5004609 -3.2079191 1.9976752
-2.4815586 -3.2158301 2.0048177
-2.4792731 -3.2078795 2.005934
-2.476557 -3.2125425 2.0037258
-2.4773424 -3.219286 2.0028694
-2.4744213 -3.2315168 1.9997014
-2.4663379 -3.2331443 2.0003576
-2.462775 -3.2294571 2.0030236
-2.4517553 -3.2279999 2.0017316
-2.4515319 -3.2432568 1.9973297
-2.4589715 -3.241334 2.005172
-2.4469376 -3.2449946 2.0085988
-2.4477563 -3.2508609 2.0034654
-2.427454 -3.2585068 1.9971521
-2.4293551 -3.2514386 2.0075719
-2.4321079 -3.2659552 2.0092313
-2.4180238 -3.2568984 1.9927273
-2.4232788 -3.2687938 2.0033684
-2.405863 -3.2741895 1.9989179
-2.4097345 -3.2638865 2.002656
-2.3980033 -3.2655525 1.9917557
-2.3984251 -3.2797189 2.000627
-2.3954155 -3.2792432 2.0070584
-2.3975344 -3.2830091 2.0092638
-2.385962 -3.2932248 2.0019505
-2.383965 -3.2907467 2.0035279
-2.3803041 -3.2987428 1.9975628
-2.3731425 -3.2965565 2.0030966
-2.3753352 -3.301522 2.0066226
-2.3619738 -3.2949314 2.0038333
-2.3648696 -3.3011868 2.002753
-2.3586609 -3.3124456 1.9908752
-2.3435764 -3.3052812 2.0028355
-2.342056 -3.3248265 1.9943855
-2.3383257 -3.3173954 1.9990695
-2.3419039 -3.3325679 2.0095747
-2.3239005 -3.3286846 1.9954203
-2.3318572 -3.3222494 2.0067825
-2.314276 -3.3426213 1.996503
-2.313164 -3.3342507 1.9961313
-2.3148367 -3.3333995 1.9928151
-2.317585 -3.3509681 2.0015445
-2.3122067 -3.3380852 2.0007362
-2.2948639 -3.3483191 2.003674
-2.2859664 -3.3594646 1.9973276
-2.2923806 -3.3588352 1.9990872
-2.288285 -3.3648534 2.0080023
-2.2783391 -3.3634844 2.0066178
-2.2770264 -3.369194 2.0081203
-2.2659891 -3.3784566 2.001246
-2.2753191 -3.3740613 1.9984684
-2.2679608 -3.3770883 2.0013616
-2.2518685 -3.3794155 2.000371
-2.2565801 -3.3890827 1.9923724
-2.2383497 -3.3945396 1.996448
-2.2464612 -3.3911026 2.0043662
-2.2328086 -3.3882663 2.0094726
-2.2302368 -3.4001849 1.9991484
-2.2290449 -3.3954964 2.0063078
-2.226346 -3.40448 2.0073915
-2.2105174 -3.4075079 1.9960505
-2.2174618 -3.407896 2.0048563
-2.2015088 -3.4169149 1.9945021
-2.206542 -3.4153728 1.9976412
-2.1995695 -3.4203322 1.9984772
-2.1885171 -3.4181392 2.0058975
-2.1895423 -3.4270344 1.9992948
-2.1854565 -3.4181025 2.0039072
-2.1716909 -3.4327281 1.9963357
-2.1707616 -3.4294086 2.0029011
-2.1687446 -3.4350185 2.0095527
-2.1580639 -3.4323354 1.9989237
-2.1585734 -3.4384658 2.0023766
-2.1494327 -3.4344006 1.9904653
-2.1571488 -3.448138 1.9966823
-2.1440246 -3.4556026 2.0081728
-2.143476 -3.4488766 1.9938424
-2.1295259 -3.462853 1.9915111
-2.130959 -3.4678559 1.9976149
-2.1199596 -3.4567266 2.010092
-2.1223907 -3.4683809 2.0000062
-2.118166 -3.4741602 1.9956443
-2.1045661 -3.4652581 2.0081859
-2.1075094 -3.4720292 2.0078197
-2.1023595 -3.4713342 1.9967362
-2.0909886 -3.482337 2.0012016
-2.0881233 -3.4776177 1.9954002
-2.0795841 -3.4837787 1.9986224
-2.0733721 -3.4962077 1.9998349
-2.0810523 -3.482476 1.9951632
-2.0762513 -3.4960184 2.001817
-2.061532 -3.4901834 2.0056646
-2.0711706 -3.4955997 2.0013807
-2.0682635 -3.5088148 1.9932851
-2.0457189 -3.5017395 2.0088372
-2.0542533 -3.508157 1.996332
-2.0383186 -3.516577 1.9914856
-2.0481811 -3.5213296 2.0034101
-2.0348175 -3.5247462 2.0058312
-2.0202374 -3.5207231 2.0049026
-2.0303249 -3.516783 1.9933434
-2.0137548 -3.5230119 1.9905242
-2.0133331 -3.5237713 2.0051868
-2.0171914 -3.5265203 2.0095258
-2.0091414 -3.5316246 2.0038242
-2.0055354 -3.5301676 1.9945827
-1.9944304 -3.5376842 1.999792
-1.9881682 -3.5399756 2.0031126
-1.9899774 -3.5538197 2.0058734
-1.9693615 -3.5580039 1.9955075
-1.9696705 -3.5572 1.9919249
-1.9615349 -3.5447538 2.0049498
-1.9562145 -3.5568182 2.0000448
-1.9562278 -3.557677 1.9952135
-1.9518983 -3.5554256 2.0080934
-1.9532665 -3.5745125 2.005239
-1.9438723 -3.5674419 1.9976698
-1.9492651 -3.579061 1.9906042
-1.9313337 -3.5774448 1.9924824
-1.9306374 -3.5801723 1.9929575
-1.9203032 -3.588172 1.9970106
-1.9135479 -3.5730033 1.9962769
-1.9137639 -3.5774856 2.0062389
-1.9188811 -3.5869558 1.9980955
-1.908826 -3.5970755 1.9949497
-1.9058871 -3.5935459 1.9954566
-1.8857991 -3.5856085 2.0057662
-1.8932763 -3.5880542 2.0071824
-1.8878156 -3.5975623 1.992933
-1.880473 -3.6113722 1.9986676
-1.8726517 -3.5998492 1.9991069
-1.8607734 -3.6065764 1.9974122
-1.8696253 -3.6185286 1.9939258
-1.8685116 -3.620611 2.0036526
-1.8555374 -3.6176546 2.0059361
-1.8457055 -3.6167798 1.9944185
-1.8353631 -3.6208408 1.9935007
-1.8347075 -3.6174068 1.9927926
-1.8326322 -3.6335437 2.0052247
-1.8248025 -3.627373 2.0064883
-1.8312347 -3.6384199 2.001909
-1.817224 -3.6426308 1.9932296
-1.8049045 -3.6407399 1.9952184
-1.8160678 -3.6427848 1.9977379
-1.7975007 -3.6369092 2.0058198
-1.7966467 -3.6462586 1.9973754
-1.7873068 -3.6503263 2.0074618
-1.7788811 -3.6588025 2.003567
-1.79116 -3.6502714 2.0061128
-1.7710032 -3.658982 1.9974002
-1.7695795 -3.6592 2.0002041
-1.7727315 -3.6504858 2.0013537
-1.7645595 -3.6545341 2.0069432
-1.7543952 -3.6548314 1.9930303
-1.761708 -3.6616509 2.0075281
-1.7409356 -3.6727092 1.9952044
-1.7486041 -3.6795239 2.001334
-1.7461827 -3.6830127 2.0015011
-1.7276528 -3.6838837 1.9927058
-1.7265736 -3.6697047 1.9976995
-1.7142036 -3.6792123 2.0049677
-1.7190262 -3.6769857 2.0034351
-1.7026961 -3.6917043 2.0003324
-1.7007729 -3.6813791 1.9994031
-1.6927594 -3.683491 1.994118
-1.6902447 -3.6899576 2.000231
-1.7000505 -3.689224 2.0019789
-1.6837232 -3.6912034 2.0026801
-1.6872257 -3.6997905 2.0049453
-1.6795201 -3.7124395 2.0038176
-1.6668175 -3.6978631 1.9956026
-1.6668435 -3.7132573 1.9920278
-1.6683986 -3.7174726 1.9961407
-1.6530534 -3.7049193 1.9929777
-1.6586341 -3.7095103 2.0100949
-1.6494967 -3.716748 2.0031297
-1.634243 -3.718956 1.9992757
-1.6372384 -3.7300048 1.9958125
-1.6195294 -3.7297273 2.006125
-1.6195518 -3.7269187 2.0061443
-1.6206989 -3.7365851 2.0030885
-1.6100578 -3.7314587 2.0069797
-1.6029882 -3.7330716 2.0089896
-1.5918027 -3.7445269 2.0058794
-1.6037769 -3.7467537 2.0004978
-1.5986309 -3.7450371 1.9901907
-1.580447 -3.733264 1.9999804
-1.5861139 -3.7496867 2.0010192
-1.575241 -3.7536042 2.004626
-1.5740523 -3.7427509 1.9933244
-1.5728414 -3.7582548 1.9946322
-1.5546832 -3.7483306 2.0033352
-1.5526309 -3.7565534 1.9926863
-1.5485656 -3.75881 1.9928362
-1.5476073 -3.7582633 1.9930061
-1.5320276 -3.7577965 1.9971319
-1.526752 -3.7643747 1.9952629
-1.5316836 -3.7618518 1.9991956
-1.5155734 -3.7736912 2.0014284
-1.5158536 -3.7695799 1.9967247
-1.5074323 -3.7694988 1.9987199
-1.4977002 -3.776504 1.9928347
-1.4992623 -3.7667043 2.0009148
-1.4914702 -3.7780895 2.0089192
-1.4835254 -3.7737699 1.9996436
-1.4954077 -3.7791271 1.9930009
-1.4831612 -3.7844682 2.0019386
-1.4727809 -3.7800033 1.9955508
-1.4784651 -3.7846937 1.9994677
-1.4619133 -3.7949328 2.0096326
-1.4500625 -3.8020222 2.0020075
-1.4562136 -3.8046536 2.0094993
-1.4482471 -3.7941248 2.0089056
-1.4521976 -3.801084 1.9990336
-1.4481409 -3.8053815 1.995581
-1.433357 -3.8068478 2.0088637
-1.425213 -3.8013566 1.9988902
-1.4281284 -3.8107769 1.9954592
-1.417429 -3.8111763 2.009408
-1.4028097 -3.8203218 1.9951804
-1.398023 -3.802917 1.9959189
-1.4008584 -3.8169668 1.9960738
-1.3961992 -3.8083563 2.0087984
-1.3921311 -3.8090055 1.9965966
-1.3779323 -3.8109102 2.0021229
-1.3871833 -3.8233457 2.0082016
-1.383149 -3.8329546 2.0017824
-1.3690854 -3.8307996 2.007946
-1.3584502 -3.8232684 1.9957062
-1.3538636 -3.8264437 1.9963096
-1.3435018 -3.8301611 1.9962988
-1.3523989 -3.8420455 2.0042119
-1.3411384 -3.834605 2.0027015
-1.3371508 -3.8284335 2.0025005
-1.3253622 -3.8334026 2.0023463
-1.3280447 -3.8329654 1.9917003
-1.3246459 -3.8338389 1.9933815
-1.3076638 -3.8459969 1.9991466
-1.3045155 -3.85287 1.9943644
-1.3136042 -3.8405099 2.0083206
-1.3020872 -3.8431435 2.0004659
-1.2905784 -3.860033 2.0026255
-1.2911539 -3.851023 1.9941171
-1.2732373 -3.8633893 1.9936643
-1.2755193 -3.8493333 2.0101185
-1.2779529 -3.8633287 2.0088789
-1.2710299 -3.859297 2.0086269
-1.2624233 -3.8636577 1.9980711
-1.2480491 -3.8702466 2.0024884
-1.2584546 -3.8713038 2.0011048
-1.2349014 -3.8662257 1.9989189
-1.2392006 -3.8750231 2.0016673
-1.2413378 -3.8697834 1.9952419
-1.2319808 -3.8720164 1.9982589
-1.2230742 -3.8819234 1.9971333
-1.2177111 -3.8796587 2.0038056
-1.2135851 -3.8758681 1.9962956
-1.2097087 -3.8888705 2.0062037
-1.1963857 -3.8729005 1.9912939
-1.1986431 -3.8927405 1.9970905
-1.1822817 -3.8944345 2.0097208
-1.1881039 -3.8858368 1.995302
-1.1711755 -3.884788 2.0078638
-1.1806701 -3.8997967 1.9999257
-1.1671453 -3.8913152 2.0038061
-1.1547439 -3.90289 1.9916694
-1.1556679 -3.8957598 2.0050337
-1.1440996 -3.8901772 2.0070987
-1.1426209 -3.896698 2.0068288
-1.1360497 -3.8909044 2.0084066
-1.1436799 -3.8941805 2.0099707
-1.1386774 -3.9087119 2.0018048
-1.1280915 -3.9117506 1.9963527
-1.1249416 -3.9097216 1.9975493
-1.1097276 -3.8996079 2.0088768
-1.1106309 -3.9025354 1.990272
-1.1036687 -3.9118316 2.0004315
-1.10334 -3.9150066 1.9978007
-1.1009442 -3.9221523 1.9902685
-1.0788162 -3.9081781 2.0101411
-1.0751082 -3.9272881 2.008342
-1.1215425 -4.1139712 1.9455211
-1.1241707 -4.108479 1.9493371
-1.1122489 -4.1052971 1.956763
-1.1191283 -4.1123633 1.9558762
-1.0946779 -4.1057968 1.9536277
-1.0888302 -4.1177354 1.9436412
-1.0928209 -4.1148138 1.9520303
-1.0794401 -4.1149673 1.9548167
-1.0735897 -4.1184664 1.9531125
-1.1172173 -4.3114872 1.9057394
-1.1130267 -4.3170252 1.9084096
-1.1035682 -4.3109317 1.8981564
-1.1102917 -4.3186593 1.9126616
-1.109587 -4.3190107 1.9016688
-1.0897669 -4.3206592 1.8988024
-1.0921932 -4.3222089 1.9055499
-1.0846039 -4.3135009 1.896763
-1.1158762 -4.5054598 1.8612719
-1.1168441 -4.5090952 1.8518968
-1.1195141 -4.5127625 1.8587756
-1.1014683 -4.5182614 1.8616972
-1.1007503 -4.5203252 1.8522846
-1.0902833 -4.5151386 1.8567083
-1.085309 -4.5152755 1.8623356
-1.1167356 -4.7103701 1.799775
-1.1253525 -4.7052398 1.8052897
-1.1072199 -4.718554 1.8010428
-1.097872 -4.7219243 1.8146529
-1.0959264 -4.712564 1.8062067
-1.0833538 -4.7121778 1.8156633
-1.0839001 -4.7200513 1.8011827
-1.1250862 -4.9026971 1.7581043
-1.1118551 -4.9120646 1.7498426
-1.1141982 -4.90277 1.762979
-1.1109117 -4.9058056 1.7512941
-1.102097 -4.9240384 1.7663202
-1.0877656 -4.9107199 1.7696034
-1.0776789 -4.914638 1.7510781
11.715636 2.9342165 0.11702155
11.71454 2.9509587 0.10828906
11.695624 2.9587178 0.11803663
11.514728 2.9372487 0.16311119
11.496567 2.940424 0.16004628
11.498086 2.9621758 0.16093026
11.49761 2.9683392 0.17082906
11.294817 2.9514344 0.21424688
11.308316 2.9576149 0.21634336
11.289221 2.9733827 0.21181013
11.094463 2.9355178 0.25575027
11.100705 2.9500508 0.25343382
11.098193 2.9697692 0.26254991
10.897589 2.9307535 0.30837995
10.90326 2.9478598 0.29466668
10.885844 2.970587 0.30665898
10.889292 2.976963 0.30877411
10.695084 2.9414139 0.35350573
10.705212 2.9547162 0.34198534
10.697414 2.9730458 0.35047242
10.497747 2.9364924 0.4016839
10.502723 2.9623148 0.40527567
10.48536 2.969744 0.3931053
10.497094 2.9885275 0.396909
10.30095 2.9437301 0.44927865
10.298168 2.9587126 0.44250807
10.287358 2.9812763 0.44691819
10.278644 2.9813201 0.45210239
10.101254 2.9412091 0.48233351
10.07912 2.9515519 0.48931152
10.085453 2.9736898 0.49712375
10.076311 2.9848959 0.4961153
9.8843288 2.9474254 0.53456521
9.8866472 2.9609914 0.53050053
9.8727503 2.969589 0.54035598
9.8845367 2.9795051 0.53083485
9.6834335 2.9462628 0.57619083
9.6928997 2.9646554 0.58057696
9.6875324 2.9765391 0.58489716
9.6657104 2.9903932 0.58548516
9.6708469 2.9947047 0.57414168
9.478076 2.9562521 0.62660736
9.4700603 2.9739013 0.63630706
9.4738092 2.9779747 0.62578112
9.4734745 2.9922755 0.63006693
9.2776012 2.9437039 0.67715526
9.277647 2.962837 0.66702938
9.2763643 2.9755402 0.68178737
9.259449 2.9869981 0.67492604
9.2668362 3.0007751 0.66842163
9.0698318 2.9637535 0.71940398
9.0665121 2.9636788 0.72954845
9.0689735 2.9797051 0.72412169
9.0611162 2.9836156 0.7295534
9.0627165 3.0113456 0.71607703
9.048584 3.0127509 0.71962917
9.0548563 3.0383101 0.72937584
9.0509853 3.0467126 0.71889317
9.0418539 3.0623446 0.72694141
9.0258446 3.0695262 0.71584558
9.0233126 3.0888453 0.7149086
9.0250788 3.0889585 0.72124559
9.0169725 3.1156652 0.73096329
9.0234213 3.1186645 0.73195189
9.0152845 3.1274309 0.72803676
9.0136528 3.1462502 0.73289883
9.1791296 3.2197561 0.68403137
9.1906729 3.2296548 0.6776166
9.1717157 3.2546599 0.67422342
9.180788 3.26791 0.6854074
9.1787472 3.2629008 0.68331212
9.1757517 3.2839484 0.66873759
9.1590748 3.3011968 0.66828316
9.1520987 3.3092194 0.67824769
9.1460924 3.3134477 0.68440431
9.1561537 3.3404055 0.67681181
9.1510592 3.3536448 0.68595082
9.1437454 3.3629127 0.67217606
9.1300001 3.3777258 0.67060041
9.132843 3.3861327 0.6694752
9.126852 3.3970375 0.67054754
9.1187487 3.409503 0.67988026
9.1160526 3.4298666 0.67368078
9.1128845 3.4278455 0.68272954
9.0996628 3.4444287 0.68323898
9.0925808 3.4557006 0.67794496
9.097888 3.4665234 0.67313558
9.0923157 3.4946964 0.68484545
9.0929518 3.4938045 0.67862672
9.0719948 3.5204546 0.66807961
9.0698948 3.525831 0.67570865
9.0688496 3.5478377 0.68308127
9.0571194 3.5519006 0.6781019
9.0591717 3.5575652 0.67839277
9.0502548 3.574796 0.68256462
9.0418301 3.5897493 0.68531305
9.0480938 3.5948331 0.68619579
9.049531 3.6191859 0.68256956
9.0426598 3.6290333 0.68537635
9.0295525 3.6427994 0.68216503
9.0258808 3.659359 0.67166835
9.0298195 3.6597846 0.67052388
9.0211143 3.6734085 0.6807946
9.007412 3.6940315 0.68408906
9.1938925 3.7845595 0.62531382
9.184514 3.7980385 0.6355316
9.177866 3.8027806 0.63821316
9.1720839 3.8139763 0.63263464
9.1626568 3.8233354 0.62429756
9.1560192 3.8446391 0.63712764
9.1461525 3.8473403 0.6339255
9.145771 3.8590684 0.63856417
9.144227 3.8871953 0.62424922
9.1329365 3.8867419 0.63798678
9.1249218 3.8979993 0.63583189
9.1247816 3.925139 0.63434893
9.1148405 3.9309094 0.62480825
9.107564 3.9361935 0.63367081
9.1146908 3.9573648 0.63910747
9.1134624 3.9772303 0.63307029
9.1050472 3.9725783 0.63696432
9.0934114 3.9929125 0.63982356
9.0863972 3.9970882 0.63805467
9.0850496 4.0153761 0.62308496
9.0774221 4.0310702 0.62663257
9.0676222 4.052063 0.62458748
9.0563221 4.0485706 0.63558817
9.0554638 4.0632758 0.63915581
9.0634499 4.0905995 0.63118535
9.0568542 4.1022048 0.63037848
9.0442047 4.1109219 0.63222569
9.0354319 4.1135483 0.62172067
9.0295 4.1347222 0.62271273
9.0217819 4.14013 0.62932187
9.0190763 4.1635079 0.63896257
9.1964464 4.2442741 0.59027398
9.1750946 4.2580471 0.5921126
9.1847248 4.2766118 0.57601708
9.177906 4.2888312 0.57461387
9.1630983 4.3001413 0.59219247
9.1674652 4.3245053 0.58587235
9.1536627 4.3258171 0.589571
9.1493368 4.3469357 0.58184445
9.1459846 4.3460927 0.58693379
9.1292238 4.3683181 0.58281773
9.1220865 4.3771596 0.58532012
9.1329098 4.3905721 0.58878171
9.1255531 4.3995557 0.57800275
9.1020832 4.4276786 0.5866459
9.0971928 4.42697 0.57381052
9.0898628 4.4366236 0.59255886
9.0961952 4.4584856 0.57984704
9.0862083 4.4620519 0.57549059
9.0884771 4.4883142 0.57753599
9.0758181 4.4838815 0.58906019
9.0590248 4.498394 0.57668757
9.0647163 4.509831 0.58499759
9.0538521 4.5400295 0.58957034
9.0521908 4.5528951 0.58955353
9.039156 4.5470238 0.57612437
9.033267 4.5599947 0.57965332
9.0261097 4.5854874 0.59235787
9.0262222 4.5872011 0.57595068
9.1951838 4.6858187 0.54646981
9.1928263 4.7098508 0.54656208
9.1819763 4.72335 0.5285154
9.1787348 4.7288189 0.52926224
9.1637859 4.7497182 0.52757365
9.1533918 4.7552695 0.54612499
9.1429634 4.774116 0.54618865
9.1390877 4.7934222 0.54661548
9.1387234 4.7919364 0.53993624
9.1310453 4.8169465 0.54238045
9.1269426 4.8240962 0.5424509
9.1200075 4.8354311 0.53373981
9.1131477 4.8424749 0.54572332
9.108223 4.8528557 0.53038001
9.1040268 4.8748827 0.54314989
9.0981255 4.8931289 0.52869421
9.0907574 4.907578 0.54031718
9.0834351 4.9047999 0.53848779
9.0765219 4.9283242 0.54242325
9.062911 4.9308548 0.53862906
-3.0337191 -2.9909813 1.9917778
-3.0273063 -3.0038381 1.9769424
-3.0360637 -3.0059311 1.9828974
-3.0355499 -3.0123203 1.9760267
-3.0294528 -3.006845 1.9911722
-3.0147529 -3.0152075 1.9743998
-3.0198925 -3.0189867 1.9865179
-3.0116377 -3.0203588 1.9855406
-3.0060987 -3.0328429 1.975831
-2.9973533 -3.0235486 1.9907312
-2.9914575 -3.0325882 1.9814646
-2.9887636 -3.0394032 1.9835954
-2.9808991 -3.0391695 1.9878809
-2.9870737 -3.0426221 1.9900198
-2.9801133 -3.0441835 1.9818704
-2.9780016 -3.0552566 1.989589
-2.9726565 -3.055687 1.9777529
-2.9751875 -3.0720863 1.9887633
-2.9586897 -3.0671761 1.9915025
-2.951896 -3.0777555 1.9877429
-2.9501963 -3.0666804 1.9791445
-2.9577572 -3.0771582 1.9879261
-2.943182 -3.0840244 1.9811305
-2.944315 -3.0813241 1.9750656
-2.9433036 -3.0959277 1.9916164
-2.9304359 -3.0926902 1.9812652
-2.9298439 -3.1083834 1.9746488
-2.921082 -3.1108897 1.9757925
-2.9213042 -3.101186 1.9859998
-2.9187815 -3.1089821 1.9897747
-2.9200125 -3.1193779 1.9887661
-2.9098365 -3.1216395 1.9814149
-2.9108729 -3.1336367 1.9913266
-2.8986995 -3.1310837 1.9880619
-2.8925853 -3.1318414 1.9743105
-2.8899145 -3.1440597 1.987908
-2.8775892 -3.1400194 1.989917
-2.8718748 -3.1515572 1.9735188
-2.885011 -3.1476622 1.9909172
-2.8679342 -3.1455953 1.9846063
-2.8670769 -3.1491163 1.9919806
-2.8672228 -3.1668234 1.9811676
-2.8547142 -3.169935 1.982426
-2.8522882 -3.1652467 1.9902999
-2.8531215 -3.1788237 1.9814724
-2.8477004 -3.1741147 1.9844768
-2.8486764 -3.1814711 1.9755653
-2.8276379 -3.1875093 1.9791541
-2.8229918 -3.1910856 1.9906697
-2.8209419 -3.2019928 1.9882777
-2.8251975 -3.1964557 1.9863842
-2.8220732 -3.195483 1.9907967
-2.8097565 -3.2064261 1.9761046
-2.8161757 -3.1993732 1.9901017
-2.7947156 -3.2175889 1.9745166
-2.8020775 -3.2148244 1.9876291
-2.7864294 -3.2174828 1.9773672
-2.7996874 -3.2235546 1.985043
-2.7893512 -3.2294381 1.9931126
-2.7874939 -3.2377348 1.9742385
-2.7680233 -3.2347558 1.9848589
-2.7704406 -3.2331266 1.9804029
-2.76844 -3.2436604 1.9889488
-2.761126 -3.2450988 1.9884862
-2.7598097 -3.2495677 1.97374
-2.7540729 -3.2458947 1.9856843
-2.7552183 -3.2510755 1.9788899
-2.7466204 -3.2540212 1.9899372
-2.7503412 -3.2711434 1.9790082
-2.7459869 -3.2709262 1.9836831
-2.7405014 -3.2757618 1.9752316
-2.7243903 -3.2875435 1.9922973
-2.7127297 -3.2818592 1.982711
-2.712518 -3.2934005 1.9755616
-2.7127635 -3.2881706 1.9878125
-2.7077501 -3.3017542 1.9875993
-2.7107868 -3.3010392 1.9860616
-2.7006128 -3.2962875 1.9854281
-2.6993861 -3.299823 1.9915161
-2.6890833 -3.3035765 1.9816586
-2.6941001 -3.3064218 1.9907962
-2.6875632 -3.3177385 1.9919765
-2.6839554 -3.3219826 1.9826592
-2.6699288 -3.3306084 1.9856122
-2.6630461 -3.3240783 1.9776003
-2.6639075 -3.3371384 1.9798037
-2.6649768 -3.3378448 1.9865142
-2.6475787 -3.3329914 1.9817623
-2.650809 -3.351531 1.977254
-2.6479459 -3.344393 1.9927654
-2.6349354 -3.3469019 1.989198
-2.6327817 -3.3475096 1.9780737
-2.6294429 -3.3491502 1.9864589
-2.615416 -3.3614101 1.9899653
-2.6184311 -3.3714387 1.9837424
-2.609453 -3.3669848 1.9881933
-2.6182663 -3.3682623 1.9756655
-2.600364 -3.3768082 1.9917119
-2.6072087 -3.3732564 1.992933
-2.5985563 -3.3915188 1.9850003
-2.5943875 -3.3814528 1.9782598
-2.5937812 -3.3939207 1.9746065
-2.5842938 -3.3877423 1.9930009
-2.5864165 -3.392235 1.9828171
-2.5650275 -3.4044456 1.9862797
-2.5698566 -3.4123862 1.9778647
-2.5702295 -3.4138532 1.9918344
-2.5631256 -3.4021361 1.9809134
-2.5599701 -3.4219871 1.9771929
-2.5555882 -3.4179139 1.9788523
-2.5391345 -3.4144056 1.9742132
-2.5294161 -3.4350293 1.9807352
-2.5433459 -3.4309096 1.9770576
-2.5388765 -3.433661 1.9925032
-2.524586 -3.4397771 1.979347
-2.5268278 -3.4354811 1.9818527
-2.5174797 -3.4363217 1.9864872
-2.5141571 -3.4548271 1.9864277
-2.5017505 -3.4549506 1.9900997
-2.4930596 -3.4554713 1.9814205
-2.5027041 -3.4643216 1.9798186
-2.4969831 -3.4682424 1.9811552
-2.4847353 -3.4708867 1.9901673
-2.47616 -3.4738603 1.9799768
-2.4721344 -3.4673469 1.9872123
-2.4812601 -3.4678836 1.9822793
-2.4678752 -3.4838858 1.9800345
-2.469851 -3.4813836 1.9828063
-2.4518814 -3.491298 1.9889698
-2.4502351 -3.4973495 1.9781212
-2.4372633 -3.4978788 1.9819238
-2.4458885 -3.4975247 1.9853008
-2.4331725 -3.4897654 1.9895216
-2.4314394 -3.4982786 1.9742504
-2.4198921 -3.5076187 1.9889674
-2.4211047 -3.5109417 1.9866155
-2.4272451 -3.5057421 1.9917226
-2.415626 -3.5073853 1.9827862
-2.4012303 -3.5159307 1.9873828
-2.4006662 -3.5277061 1.9893686
-2.3909464 -3.5313914 1.974259
-2.397419 -3.5285878 1.9829305
-2.3805099 -3.5379589 1.9827813
-2.3793752 -3.5304928 1.9775324
-2.3735073 -3.5363801 1.9863498
-2.3729174 -3.5483847 1.9752438
-2.374675 -3.55144 1.9927303
-2.371321 -3.5477908 1.9919596
-2.3568988 -3.5546651 1.9860225
-2.3578751 -3.5658994 1.9916819
-2.3568611 -3.5523427 1.9770217
-2.3509521 -3.5701919 1.9885234
-2.3363671 -3.5760701 1.9740052
-2.3419266 -3.5657566 1.9902977
-2.3327305 -3.5745225 1.9840407
-2.3147125 -3.5676508 1.9891098
-2.3277957 -3.5874934 1.9744474
-2.3033881 -3.5889435 1.9867511
-2.2997468 -3.5809371 1.9754903
-2.3020377 -3.5988779 1.9762982
-2.2986648 -3.6007798 1.973959
-2.2899477 -3.6017525 1.9770596
-2.2897246 -3.5931244 1.977564
-2.2840149 -3.5950449 1.991657
-2.2820084 -3.6127629 1.9802524
-2.2662544 -3.6174607 1.9789807
-2.2654266 -3.6202445 1.9811203
-2.2592571 -3.6236279 1.9850572
-2.2607794 -3.6083813 1.9802407
-2.2535579 -3.6204422 1.9807166
-2.2455244 -3.6341507 1.9825168
-2.2398255 -3.6241672 1.9865632
-2.2310216 -3.6389902 1.9824499
-2.241709 -3.6331377 1.9796211
