# .PCD v0.7 - Point Cloud Data file format
VERSION 0.7
FIELDS x y z
SIZE 4 4 4
TYPE F F F
COUNT 1 1 1
WIDTH 1501
HEIGHT 1
VIEWPOINT 0 0 0 1 0 0 0
POINTS 1501
DATA ascii
-2.8777926 -3.4227824 1.3118696
-2.8812075 -3.4303172 1.3258123
-2.8720803 -3.4297552 1.3184519
-2.863415 -3.4486666 1.3254466
-2.8560545 -3.4477732 1.3203055
-2.8545384 -3.4416645 1.3155361
-2.8619618 -3.4492667 1.3128413
-2.8481238 -3.4459257 1.3274405
-2.8423855 -3.458149 1.3277128
-2.8355861 -3.4677958 1.3283269
-2.8384788 -3.47648 1.3228014
-2.8319788 -3.4733741 1.3137771
-2.8315306 -3.4659419 1.329344
-2.8184373 -3.4746509 1.3300223
-2.8183439 -3.4808114 1.3156098
-2.803386 -3.4902735 1.3113152
-2.8131919 -3.491982 1.3234209
-2.8056872 -3.5046816 1.3228631
-2.8035779 -3.4964771 1.3140711
-2.7811909 -3.5063133 1.3196141
-2.7781842 -3.5038877 1.3204484
-2.7806976 -3.5198128 1.3283572
-2.7722297 -3.5201466 1.32766
-2.7681894 -3.512249 1.322209
-2.7634656 -3.5291257 1.3145456
-2.7531488 -3.5359173 1.3213618
-2.7471213 -3.5373936 1.3104037
-2.7489827 -3.5362494 1.3106738
-2.7513964 -3.5378852 1.3230692
-2.7425969 -3.5420289 1.3295426
-2.7282488 -3.5480664 1.3223491
-2.7330613 -3.541523 1.3231306
-2.7299595 -3.5514233 1.327472
-2.7275496 -3.5622001 1.3235974
-2.7105854 -3.5531752 1.3267262
-2.7212791 -3.5587611 1.3269361
-2.7051516 -3.5632524 1.3295358
-2.6999767 -3.5745432 1.3171388
-2.6945267 -3.5731916 1.3269582
-2.6966755 -3.5879896 1.316479
-2.6923461 -3.5733941 1.3238008
-2.6752048 -3.5885706 1.3214973
-2.6772766 -3.5856104 1.313118
-2.6750019 -3.5852108 1.3177795
-2.6565967 -3.592823 1.3152764
-2.6550572 -3.5961099 1.310991
-2.6533027 -3.6082554 1.3260112
-2.6489432 -3.6002181 1.31353
-2.6369755 -3.6117272 1.3261831
-2.6351836 -3.6103876 1.327814
-2.6438653 -3.6297259 1.3278092
-2.6252203 -3.6169357 1.3163896
-2.6288736 -3.6312354 1.3116847
-2.6209011 -3.6282835 1.3111271
-2.6082618 -3.6319547 1.3266981
-2.6181207 -3.6391201 1.3227158
-2.6122596 -3.6495697 1.3103144
-2.5913734 -3.6407039 1.32967
-2.6029634 -3.6449199 1.3212289
-2.5818951 -3.6523981 1.3178326
-2.579191 -3.6536176 1.3187964
-2.5764863 -3.6612568 1.3162416
-2.5651965 -3.6576192 1.3230714
-2.5786064 -3.6710839 1.3165301
-2.5725689 -3.6769896 1.3299876
-2.5509553 -3.677839 1.3199426
-2.553319 -3.677918 1.3231037
-2.5480793 -3.6822059 1.3187791
-2.5434787 -3.6831844 1.3138802
-2.5473146 -3.6882 1.3251374
-2.5345416 -3.695622 1.3188022
-2.5207999 -3.7054553 1.3284478
-2.529608 -3.7091191 1.3253441
-2.5115814 -3.7113185 1.3123814
-2.5200911 -3.7126112 1.3171117
-2.5151384 -3.7174263 1.3245839
-2.5002258 -3.7097459 1.3155614
-2.5021472 -3.7219713 1.3258281
-2.4883881 -3.7147472 1.318686
-2.4795234 -3.7165143 1.330091
-2.4793963 -3.7306693 1.3176293
-2.4855998 -3.7362483 1.3188827
-2.4621527 -3.7358057 1.3200132
-2.4618046 -3.7425122 1.3224778
-2.4544141 -3.7429087 1.3271762
-2.4622889 -3.7435379 1.3105789
-2.4426863 -3.7544446 1.3251741
-2.4521015 -3.7524679 1.3110486
-2.4312453 -3.7619321 1.3276447
-2.4375265 -3.7677367 1.3259637
-2.4323978 -3.7586238 1.3136108
-2.4197261 -3.7609291 1.3191545
-2.4257963 -3.7650065 1.328609
-2.4107313 -3.7739601 1.3148181
-2.413197 -3.7807527 1.3240845
-2.4109592 -3.7806535 1.3161681
-2.4053144 -3.7861905 1.3207841
-2.3850694 -3.7863863 1.3108085
-2.3789456 -3.7909741 1.3147931
-2.3762207 -3.787096 1.3163904
-2.3751721 -3.8033473 1.3105102
-2.366472 -3.7921894 1.3257271
-2.3722236 -3.8123689 1.3202615
-2.368516 -3.8027554 1.32923
-2.3585944 -3.8008842 1.3147862
-2.3594022 -3.822057 1.3238146
-2.3481214 -3.8228707 1.3106716
-2.3322203 -3.8287306 1.3206908
-2.3262901 -3.8137619 1.3294728
-2.3363707 -3.8213685 1.3254761
-2.3248494 -3.8332314 1.328564
-2.3192039 -3.8417039 1.3261385
-2.318337 -3.8412416 1.3268543
-2.3029311 -3.8423905 1.3204974
-2.298552 -3.8389416 1.3193178
-2.2886124 -3.8416281 1.3202642
-2.2896399 -3.8583665 1.323688
-2.2838058 -3.8445408 1.3245358
-2.2879481 -3.8501265 1.3236288
-2.283304 -3.8511393 1.3183839
-2.2626522 -3.8659816 1.3245375
-2.258908 -3.8605337 1.3254727
-2.2575848 -3.8595786 1.3301164
-2.2555413 -3.868582 1.3168501
-2.2398503 -3.8785758 1.3102643
-2.2453346 -3.8840029 1.3242159
-2.2298679 -3.8758357 1.3246455
-2.2309732 -3.8872166 1.3221097
-2.2312264 -3.8881269 1.3171893
-2.2123821 -3.8897843 1.3144501
-2.2187784 -3.8961856 1.320055
-2.2190168 -3.904243 1.3142865
-2.1983156 -3.8963816 1.312644
-2.1929665 -3.911886 1.3251617
-2.2008793 -3.8971126 1.3108419
-2.1953738 -3.9132416 1.3142432
-2.1759121 -3.9193261 1.3289529
-2.1760166 -3.9119427 1.3154148
-2.1786528 -3.910243 1.324092
-2.1662049 -3.9151347 1.3142301
-2.1564922 -3.9318624 1.3210773
-2.1611702 -3.9342723 1.3229702
-2.1516128 -3.9214294 1.3158196
-2.1436934 -3.9286902 1.3162524
-2.1432521 -3.9293206 1.3145385
-2.1371264 -3.9299064 1.3197681
-2.1275954 -3.9364963 1.3219779
-2.1233504 -3.9486606 1.3146284
-2.1126394 -3.9489348 1.3120278
-2.1132472 -3.9422398 1.3275775
-2.1037126 -3.951314 1.3294338
-2.1073265 -3.9505534 1.3119066
-2.0890436 -3.9657261 1.310241
-2.1853497 -4.1239939 1.2539188
-2.1735454 -4.1219225 1.2503767
-2.1634505 -4.1392283 1.2492445
-2.1681218 -4.1325107 1.2445104
-2.1505792 -4.1470599 1.2505926
-2.1403818 -4.1364136 1.2593729
-2.1327808 -4.1518946 1.2578136
-2.1296258 -4.1433649 1.250137
-2.1246104 -4.1439776 1.2461705
-2.1171181 -4.1518397 1.2499731
-2.1112871 -4.1541014 1.2439612
-2.111367 -4.17033 1.2430691
-2.114985 -4.16224 1.2479109
-2.0997307 -4.1646013 1.2425023
-2.0892067 -4.1752038 1.2455689
-2.1765535 -4.348712 1.1718903
-2.1709249 -4.3332143 1.1761456
-2.1668515 -4.3403583 1.1719301
-2.1504507 -4.3482876 1.1700935
-2.1580119 -4.3545294 1.1833786
-2.1417663 -4.3607492 1.1773772
-2.1315284 -4.3528624 1.1781142
-2.1221786 -4.3544106 1.1699004
-2.1279826 -4.3665261 1.1822765
-2.1191912 -4.3739433 1.1869926
-2.1073289 -4.3705792 1.1884496
-2.0987341 -4.3676543 1.1884477
-2.1058798 -4.3667278 1.1843368
-2.0972369 -4.3754759 1.1753231
-2.171097 -4.5467887 1.1126784
-2.1707616 -4.5591292 1.1172305
-2.1564231 -4.5473204 1.1126707
-2.1413436 -4.5522537 1.1095552
-2.1344733 -4.5690875 1.1173083
-2.1352229 -4.5632305 1.1006198
-2.1312523 -4.5716162 1.1102622
-2.1258204 -4.5775161 1.105788
-2.1203864 -4.5766745 1.1051903
-2.1190591 -4.573307 1.1187857
-2.1067412 -4.5892506 1.1129245
-2.106657 -4.5912194 1.117759
-2.0820162 -4.5852156 1.1174304
-2.159523 -4.7608614 1.0447803
-2.1623116 -4.7657595 1.0287132
-2.1573429 -4.7577848 1.0415043
-2.1490586 -4.7722216 1.0289017
-2.1311274 -4.7676125 1.0333828
-2.1376665 -4.7839594 1.0416796
-2.124799 -4.7853737 1.0363092
-2.1183319 -4.7808685 1.0379518
-2.117722 -4.7826815 1.0405729
-2.1122735 -4.7862606 1.0321363
-2.0871491 -4.7961659 1.0413431
-2.15923 -4.9670439 0.95827335
-2.152168 -4.968183 0.97660488
-2.1523108 -4.9676991 0.9635098
-2.145052 -4.9759493 0.9780246
-2.1333079 -4.9774079 0.95918381
-2.1332629 -4.972672 0.96191108
-2.1185839 -4.9881473 0.97211623
-2.1222584 -4.9896936 0.96347177
-2.1033075 -4.9924779 0.97420216
-6.0372787 -2.998611 0.5246886
-6.0319343 -2.9971125 0.52877402
-6.042367 -3.0066674 0.52535552
-6.0218554 -3.0117378 0.52922934
-6.0307293 -3.0207753 0.51943505
-6.0177894 -3.0445747 0.52826297
-6.0095425 -3.0471668 0.52498758
-6.0202808 -3.0598519 0.53435344
-6.0116673 -3.0527639 0.51681942
-6.0013719 -3.0656602 0.53127617
-5.8397293 -2.9925072 0.58565795
-5.8255033 -3.0037539 0.60094929
-5.8271804 -3.0096393 0.59512848
-5.8122649 -3.0192306 0.59267402
-5.8134637 -3.0219254 0.58961278
-5.8044457 -3.0359218 0.59117699
-5.8065886 -3.0459244 0.59856802
-5.8119955 -3.05093 0.60168701
-5.8080254 -3.0515988 0.60030079
-5.8015776 -3.0662603 0.59441948
-5.800662 -3.0705376 0.58430344
-5.6287689 -2.9964437 0.66013402
-5.6073179 -2.996336 0.66919202
-5.6116772 -3.0055268 0.65680289
-5.6184797 -3.0201428 0.6698572
-5.6083326 -3.0299783 0.65704763
-5.5966105 -3.0262051 0.66236198
-5.597486 -3.0320988 0.67079109
-5.595232 -3.0582933 0.66666615
-5.5943532 -3.0623229 0.65598834
-5.5793447 -3.0697305 0.66913581
-5.5744414 -3.0751719 0.65613693
-5.5827341 -3.0833554 0.67110533
-5.3978391 -2.9890032 0.73377353
-5.4095683 -2.9965382 0.74063611
-5.3882327 -3.018152 0.72550505
-5.3996959 -3.0122805 0.7219829
-5.3858347 -3.0315325 0.74039704
-5.3835335 -3.0327895 0.74044049
-5.3853464 -3.037437 0.72427237
-5.3778272 -3.0513566 0.72850847
-5.3771496 -3.0646644 0.73510927
-5.3694606 -3.0705669 0.74132651
-5.3667927 -3.0800064 0.73859113
-5.3504829 -3.0853715 0.7358796
-5.1847315 -2.9997723 0.80814439
-5.1968012 -3.003463 0.80479062
-5.1923823 -2.9975209 0.80972588
-5.1895394 -3.0135164 0.80093968
-5.1666431 -3.0155747 0.7950353
-5.1799045 -3.0343733 0.80273467
-5.16892 -3.0367651 0.80464363
-5.1713243 -3.0357485 0.8081615
-5.1675014 -3.0563555 0.80974549
-5.1464038 -3.064955 0.79346383
-5.1480079 -3.0746844 0.79643887
-5.1463737 -3.0806746 0.80298358
-5.1480837 -3.0864477 0.8027252
-5.1448483 -3.09359 0.79372001
-4.9696856 -3.0050621 0.87893671
-4.961256 -3.0107989 0.86355448
-4.9651179 -3.0097933 0.87301159
-4.967061 -3.0154445 0.87071031
-4.9454765 -3.0215354 0.8750211
-4.9422984 -3.0308011 0.87794566
-4.9553919 -3.0459533 0.87834805
-4.9455013 -3.0437641 0.85996145
-4.9290557 -3.0475876 0.86299676
-4.9328594 -3.0524886 0.86607903
-4.9256582 -3.0672529 0.86787689
-4.9222684 -3.077785 0.87089068
-4.9142509 -3.0763857 0.86185694
-4.9167666 -3.081146 0.87411296
-4.7627969 -2.9884298 0.93625051
-4.7434239 -2.9966676 0.94701439
-4.741117 -3.0022449 0.92954946
-4.7383986 -3.0221868 0.9411909
-4.7340574 -3.0299482 0.93592024
-4.7266717 -3.0257876 0.93265414
-4.7361946 -3.0387104 0.94152313
-4.7239103 -3.032537 0.94675338
-4.7286029 -3.0426493 0.94027036
-4.7223201 -3.0595906 0.9359085
-4.7037721 -3.0656619 0.9310202
-4.7121143 -3.0565526 0.94454175
-4.7096839 -3.0693381 0.9391278
-4.7047091 -3.0836158 0.94040811
-4.6880832 -3.0777724 0.94055706
-4.6967192 -3.0887728 0.93149072
-4.5321112 -2.9898944 1.005157
-4.5152707 -3.0064011 1.0025719
-4.5131912 -3.0118575 1.0164808
-4.5175858 -3.0152974 1.0000488
-4.5063338 -3.0244651 1.0041398
-4.4999609 -3.0262597 1.0039287
-4.5000577 -3.0299177 1.0175146
-4.5055599 -3.0329037 1.0033993
-4.4897728 -3.0435767 1.0016977
-4.4938278 -3.0472069 1.0155603
-4.4869409 -3.0670607 1.0112196
-4.4754157 -3.0742691 1.0167063
-4.4864669 -3.0636015 1.0030646
-4.4636006 -3.0815413 1.012305
-4.4771576 -3.0924499 0.99869406
-4.4666147 -3.0812163 1.0095987
-4.456274 -3.0943182 1.00315
-4.2983418 -2.989845 1.0690507
-4.2886634 -3.0009513 1.0815338
-4.3006778 -3.0003781 1.0766732
-4.2988214 -3.0171921 1.0782393
-4.2812977 -3.0267639 1.0788718
-4.2782784 -3.0316787 1.0764406
-4.2688928 -3.0380275 1.082332
-4.2702584 -3.0422425 1.0835713
-4.2652264 -3.0402324 1.0822949
-4.2692819 -3.0522087 1.0741611
-4.2597771 -3.064585 1.0694139
-4.2534013 -3.051477 1.0795779
-4.2545333 -3.0745862 1.0763266
-4.2405181 -3.0800498 1.0822672
-4.2449284 -3.0722084 1.0846359
-4.2286978 -3.0855758 1.0680836
-4.23489 -3.0937932 1.0711706
-4.2351828 -3.0876203 1.0760247
-4.0829759 -2.9895072 1.1379021
-4.0634446 -2.99066 1.1447364
-4.0720391 -3.0065777 1.1451585
-4.0653729 -3.000397 1.144647
-4.0485344 -3.0196345 1.1469786
-4.0549397 -3.0291512 1.1497928
-4.0553961 -3.0273807 1.1463885
-4.0534763 -3.0336905 1.1555513
-4.0481009 -3.0305116 1.1424248
-4.0396304 -3.0519528 1.1413934
-4.026298 -3.0567749 1.1532302
-4.0201173 -3.0462539 1.1496134
-4.0270948 -3.0685241 1.1557719
-4.0136418 -3.0683324 1.1537982
-4.0206928 -3.075515 1.1382684
-4.0054045 -3.0733228 1.1388973
-4.0072942 -3.0758154 1.1469663
-3.9925799 -3.0806243 1.1543893
-3.9886954 -3.0843017 1.1506486
-3.9979293 -3.1037602 1.1511185
-3.9881868 -3.1141462 1.1524122
-3.8386719 -2.9870722 1.2189038
-3.8408556 -3.0065916 1.2197219
-3.8368731 -2.9969418 1.2063595
-3.8148568 -3.0186346 1.2114366
-3.8283629 -3.0093379 1.2243218
-3.8212326 -3.0262377 1.2203242
-3.8060257 -3.0327384 1.2171215
-3.8033886 -3.0396774 1.2158393
-3.8044846 -3.0401804 1.2206903
-3.8051035 -3.0352798 1.2207409
-3.7844212 -3.053138 1.217898
-3.7862771 -3.0573721 1.2209028
-3.7873073 -3.0618236 1.2189187
-3.7816925 -3.0684662 1.2205973
-3.7709935 -3.0728297 1.2169219
-3.7674017 -3.074285 1.2216902
-3.7678001 -3.0847633 1.2052954
-3.771394 -3.0768416 1.2072937
-3.7562625 -3.0942605 1.2141145
-3.756273 -3.09655 1.2111561
-3.7562253 -3.1024165 1.2156534
-3.7390132 -3.1144059 1.2212245
-3.5944796 -2.9916637 1.2766832
-3.5963998 -2.9874227 1.2817583
-3.5966344 -2.9967721 1.2877598
-3.5805376 -3.0068259 1.2775902
-3.5796652 -3.0015821 1.2822201
-3.5751808 -3.0242438 1.2800438
-3.568691 -3.0160925 1.2857147
-3.5753734 -3.0322776 1.274356
-3.5650074 -3.0327482 1.2823845
-3.550137 -3.0403476 1.2836716
-3.5496886 -3.0320704 1.2929066
-3.5428116 -3.049901 1.2914168
-3.5508528 -3.052161 1.2856061
-3.5328856 -3.0625255 1.2747642
-3.5450809 -3.0562263 1.2741826
-3.5326395 -3.0696578 1.2759501
-3.5223672 -3.0608222 1.2908738
-3.5264175 -3.0828986 1.2746114
-3.5218194 -3.0788453 1.2828714
-3.509186 -3.0841649 1.2885193
-3.5152586 -3.0932865 1.2874254
-3.5120893 -3.0997884 1.2934761
-3.5104029 -3.0985959 1.2822362
-3.4945204 -3.1037068 1.2855952
-3.4894729 -3.1052914 1.2802107
-3.4850004 -3.1187196 1.286346
-3.3388953 -3.000973 1.3552995
-3.3378928 -2.9965744 1.3580786
-3.3331461 -3.0118837 1.3498446
-3.340133 -2.9988723 1.3612181
-3.3214653 -3.0162532 1.3483913
-3.323885 -3.0147913 1.3539778
-3.3202474 -3.0159762 1.3456662
-3.3078434 -3.0256186 1.3571465
-3.3120739 -3.0345607 1.3519393
-3.3016822 -3.0433841 1.3581949
-3.3051491 -3.0503211 1.3618878
-3.3086929 -3.040448 1.3546627
-3.2894514 -3.0500271 1.356806
-3.2984374 -3.0507987 1.3566326
-3.2960434 -3.0571148 1.3437443
-3.2864697 -3.0700691 1.3569781
-3.2713032 -3.0636108 1.3536812
-3.2644417 -3.06898 1.34539
-3.2660937 -3.0828178 1.3527989
-3.2729466 -3.0905085 1.3560212
-3.2535372 -3.0859168 1.3569368
-3.2504289 -3.0891263 1.3523501
-3.254539 -3.0973582 1.3628029
-3.2564998 -3.0988464 1.3570966
-3.2386272 -3.1022172 1.3496809
-3.2336369 -3.1002975 1.3539118
-3.2354064 -3.1075006 1.3491954
-3.2404664 -3.1121385 1.3436983
-3.0989535 -2.9921658 1.4179834
-3.2197409 -3.1244845 1.3510801
-3.2224422 -3.131144 1.3623763
-3.2042212 -3.1390164 1.3550274
-3.2105808 -3.1353271 1.3440052
-3.2064815 -3.1379323 1.3560474
-3.208082 -3.1470058 1.3492652
-3.1970921 -3.1554358 1.348943
-3.181865 -3.1499884 1.3459518
-3.1913481 -3.1739604 1.3628509
-3.186322 -3.1756432 1.3536798
-3.1760416 -3.1676278 1.347271
-3.1836212 -3.1866918 1.3587123
-3.1598985 -3.1719198 1.3467849
-3.1635182 -3.1878982 1.3630446
-3.1581542 -3.1841743 1.3611904
-3.1607418 -3.1864545 1.354748
-3.1501052 -3.2021546 1.3443547
-3.1397848 -3.2070436 1.3438818
-3.1324496 -3.2058377 1.3439037
-3.1282089 -3.2040343 1.3467032
-3.1331334 -3.2163851 1.3619725
-3.1244605 -3.2207565 1.362626
-3.1243401 -3.225852 1.3624935
-3.1161408 -3.2390208 1.3508184
-3.111676 -3.2312846 1.3472965
-3.1090593 -3.2306018 1.3459177
-3.1128788 -3.2437544 1.3532557
-3.1070855 -3.2510643 1.3601158
-3.1017592 -3.255523 1.352586
-3.0964048 -3.2602313 1.351258
-3.2173271 -3.3906381 1.2929338
-3.2137017 -3.4007766 1.2836611
-3.2094164 -3.4153032 1.2936722
-3.2052572 -3.4061449 1.2748876
-3.1927669 -3.4170423 1.2882057
-3.1837921 -3.4098492 1.2865672
-3.1961901 -3.4310086 1.2761303
-3.1812437 -3.4309132 1.2827312
-3.179431 -3.4300363 1.2892147
-3.1651418 -3.4283559 1.2753251
-3.1721745 -3.4430726 1.291635
-3.1684878 -3.4389169 1.2823087
-3.1540678 -3.4552352 1.2829517
-3.1496305 -3.4521606 1.2772419
-3.1439717 -3.4613676 1.2851173
-3.1449885 -3.466378 1.2846612
-3.1476376 -3.4685709 1.2875149
-3.1407177 -3.4806085 1.2749263
-3.1271906 -3.47563 1.2876703
-3.1271739 -3.4811656 1.2865435
-3.1210408 -3.4785433 1.2751423
-3.1185915 -3.4970503 1.2923323
-3.1054626 -3.4859586 1.2776325
-3.1116846 -3.4952579 1.2904295
-3.1036103 -3.5037322 1.2784346
-3.0876546 -3.4980638 1.2858378
-3.0921488 -3.5198908 1.2754496
-3.0937831 -3.5196502 1.2774191
-3.0880003 -3.5107412 1.2887549
-3.0694673 -3.5266805 1.2789365
-3.0720551 -3.5213575 1.2761148
-3.0660381 -3.5384622 1.2791541
-3.062825 -3.5473208 1.2776457
-3.0543058 -3.5472908 1.2911922
-3.0529838 -3.5440814 1.2806115
-3.0436504 -3.5498176 1.2800397
-3.0469081 -3.5449553 1.2819744
-3.0405478 -3.5666406 1.2884762
-3.0322125 -3.5674627 1.2882068
-3.0325351 -3.5746768 1.2763109
-3.0226703 -3.5694103 1.2940441
-3.0156212 -3.5830641 1.2789718
-3.005527 -3.5784481 1.2793329
-2.9969351 -3.5902624 1.2840093
-2.994791 -3.5857098 1.2761735
-3.0032218 -3.5967853 1.2868729
-2.9922185 -3.5960858 1.2866991
-2.9792745 -3.5939991 1.2890973
-2.9798229 -3.608556 1.2749243
-2.9806349 -3.6084206 1.2777805
-2.9733369 -3.6234114 1.29014
-2.9683001 -3.6163499 1.2930753
-2.9583297 -3.6241968 1.2848493
-2.9479923 -3.6284606 1.2890245
-2.9529729 -3.6355948 1.281961
-2.9457836 -3.6361799 1.2880235
-2.9478889 -3.6307881 1.2789804
-2.9301624 -3.6374843 1.2762114
-2.930032 -3.6497667 1.283066
-2.9240687 -3.6479051 1.2742294
-2.9152436 -3.6637948 1.2745687
-2.9140532 -3.659703 1.2861286
-2.9099216 -3.6707017 1.2939941
-2.9140108 -3.6764305 1.2817408
-2.8939188 -3.6722121 1.2864915
-2.9008846 -3.6658828 1.2747881
-2.8817823 -3.6867433 1.2926005
-2.8917174 -3.6749671 1.2878335
-2.8844161 -3.6881561 1.2748938
-2.8702543 -3.7004833 1.2879182
-2.8649235 -3.6890924 1.2891484
-2.8592479 -3.7016239 1.2785587
-2.8620067 -3.6951425 1.2810512
-2.8568945 -3.6978743 1.2818891
-2.8440299 -3.7056439 1.291012
-2.8464091 -3.7255151 1.2905239
-2.840486 -3.7114251 1.2932278
-2.8367453 -3.7324171 1.2917531
-2.8177657 -3.7312603 1.2811275
-2.8317206 -3.7410998 1.2822056
-2.8126452 -3.7307723 1.2786981
-2.8123343 -3.7399383 1.2866756
-2.8026075 -3.7370381 1.2851435
-2.8103828 -3.7542062 1.2848816
-2.7973146 -3.743696 1.2808447
-2.7951181 -3.7607563 1.280924
-2.7934043 -3.757091 1.2790735
-2.7889812 -3.7548873 1.2802038
-2.7660272 -3.7589128 1.2864566
-2.7736936 -3.7621067 1.2868283
-2.7602763 -3.7714446 1.2814785
-2.750361 -3.7856963 1.2909064
-2.7524629 -3.7754517 1.2871709
-2.7560916 -3.778218 1.2901964
-2.7399766 -3.7931576 1.287654
-2.7478933 -3.7911475 1.2919656
-2.7357254 -3.7926755 1.2838497
-2.7254026 -3.795038 1.2818371
-2.7139442 -3.7997098 1.2796917
-2.7162275 -3.8173161 1.2782373
-2.7181339 -3.8067791 1.2913228
-2.705385 -3.8116064 1.2940267
-2.7032025 -3.8238201 1.2908381
-2.7047503 -3.8249526 1.2887387
-2.6832676 -3.8352656 1.2755477
-2.6843219 -3.8387961 1.2882078
-2.6810591 -3.835465 1.283173
-2.6659071 -3.8471222 1.2796015
-2.6727626 -3.852638 1.2751768
-2.6617582 -3.8457594 1.2769567
-2.6522031 -3.8461146 1.2930771
-2.6495571 -3.8590534 1.2881664
-2.6442022 -3.8551478 1.2748306
-2.6420305 -3.8581336 1.2841434
-2.6419532 -3.8649848 1.2869171
-2.6350617 -3.8782442 1.2899263
-2.615505 -3.8736 1.2800256
-2.6209781 -3.8791683 1.2822187
-2.6100173 -3.8769615 1.2826397
-2.6034763 -3.8891249 1.2936757
-2.5951502 -3.8971133 1.288085
-2.5906985 -3.8878407 1.2932769
-2.5911527 -3.8986037 1.2860879
-2.5849373 -3.8925905 1.2796193
-2.5894041 -3.9119008 1.2899981
-2.5710921 -3.9097252 1.2908084
-2.569766 -3.913404 1.2799462
-2.5583355 -3.9079719 1.2871917
-2.564707 -3.9170003 1.2803125
-2.5506525 -3.9249139 1.2849303
-2.545557 -3.9299328 1.285213
-2.5460472 -3.9359367 1.2784135
-2.5413404 -3.9278362 1.2844892
-2.5238178 -3.938967 1.2802081
-2.5327585 -3.9400163 1.2802397
-2.5313158 -3.9482105 1.2860618
-2.5090578 -3.9405403 1.2918124
-2.5176568 -3.9469066 1.2865951
-2.4990056 -3.945116 1.2759415
-2.5072286 -3.9547479 1.2809587
-2.490829 -3.964766 1.2845339
-2.4941418 -3.9607611 1.2856743
-2.4842491 -3.957541 1.2784768
-2.4682763 -3.9622951 1.2837023
-2.4765792 -3.9814918 1.2914246
-2.4648459 -3.9847522 1.2744911
-2.4672859 -3.9712663 1.2887585
-2.4639702 -3.9918959 1.2801827
-2.4458671 -3.9793954 1.2769126
-2.4384129 -3.9806445 1.2875181
-2.4459364 -3.991025 1.2916056
-2.4298804 -3.9902544 1.28319
-2.4326789 -4.0051322 1.2814786
-2.4226701 -4.0095825 1.2784898
-2.4074311 -4.0078869 1.2797732
-2.4044652 -4.0200129 1.2812573
-2.398428 -4.0201392 1.2796806
-2.3981187 -4.0225148 1.2809199
-2.3863804 -4.0123577 1.2780972
-2.3779078 -4.0203204 1.2774554
-2.3788247 -4.0213861 1.2898554
-2.3756497 -4.03198 1.2864401
-2.3608856 -4.0309615 1.2915537
-2.3678281 -4.0455279 1.2756157
-2.3577547 -4.0504541 1.2847644
-2.3463933 -4.0380173 1.28517
-2.3535435 -4.0451508 1.2888244
-2.3422656 -4.0575876 1.2934705
-2.3297439 -4.0439038 1.2916336
-2.3400404 -4.047369 1.2851856
-2.3309739 -4.0573778 1.2810154
-2.3295031 -4.0698428 1.2895871
-2.3114429 -4.0731792 1.2825056
-2.3082645 -4.0690989 1.2841778
-2.3010194 -4.0805907 1.2842363
-2.3046215 -4.0863705 1.2800361
-2.2878132 -4.0849552 1.2919987
-2.2873461 -4.0779209 1.2748129
-2.2822287 -4.0840282 1.2745918
-2.2789433 -4.0861001 1.2741783
-2.2621019 -4.0847783 1.2870207
-2.2694259 -4.0876627 1.2906551
-2.248174 -4.0981684 1.2742019
-2.253999 -4.1111822 1.2850699
-2.2381475 -4.1026421 1.2876794
-2.2422333 -4.1033988 1.287734
-2.2305145 -4.1130476 1.2924212
-2.2268291 -4.1079335 1.287352
-2.2203248 -4.1234102 1.2793764
-2.2140374 -4.121315 1.2925222
-2.2081592 -4.1280961 1.2901751
-2.2094343 -4.127923 1.2881207
-2.2070706 -4.1322246 1.2787296
-2.2011557 -4.1280823 1.2794858
-2.1843686 -4.1338234 1.2919356
-2.1849675 -4.1293902 1.2867733
-2.1855078 -4.1389823 1.2750998
-2.1613567 -4.1506371 1.2916695
-2.1622705 -4.141541 1.2758833
-2.1511557 -4.1519146 1.2853053
-2.1468909 -4.1621714 1.2910514
-2.1449687 -4.1594687 1.2800672
-2.145097 -4.1601725 1.2878703
-2.1346121 -4.1607361 1.2828966
-2.1233666 -4.1702914 1.2752544
-2.1196673 -4.1662283 1.2751098
-2.1211262 -4.1684933 1.2884296
-2.1142545 -4.1723981 1.2931428
-2.1108088 -4.183013 1.2899927
-2.1031454 -4.1883125 1.2795012
-2.0860558 -4.1751513 1.2817771
-2.1671672 -4.3537641 1.2207344
-2.1750729 -4.3505473 1.2110325
-2.1551712 -4.3626623 1.2237669
-2.160239 -4.3693523 1.2099379
-2.152945 -4.3581681 1.223155
-2.1457913 -4.3742714 1.2170827
-2.1453133 -4.3693361 1.2100726
-2.1201181 -4.3667927 1.2154069
-2.1180689 -4.3824272 1.2183924
-2.126507 -4.3868175 1.2174813
-2.1126652 -4.3942175 1.2087792
-2.1108246 -4.3956113 1.2063372
-2.0986817 -4.3831959 1.2148151
-2.0938003 -4.4019446 1.2196292
-2.1633978 -4.5689964 1.1496081
-2.1588833 -4.5656161 1.15553
-2.1604371 -4.5678663 1.1493877
-2.1489966 -4.5710349 1.1487811
-2.1322176 -4.5782714 1.1555235
-2.1324492 -4.5800676 1.140851
-2.1335876 -4.5941472 1.1417449
-2.1234238 -4.5925159 1.1442028
-2.1156979 -4.5848756 1.1420255
-2.1194899 -4.5984917 1.1440399
-2.0984638 -4.5871935 1.1514306
-2.0984173 -4.5977635 1.1452379
-2.0924449 -4.5962744 1.1398218
-2.1701748 -4.7806678 1.0852181
-2.1507044 -4.783854 1.0754243
-2.1444874 -4.7736712 1.0868348
-2.1329386 -4.7910299 1.0671571
-2.1404917 -4.7846327 1.0720931
-2.1255829 -4.7969213 1.0676429
-2.1128471 -4.799418 1.0725409
-2.1180928 -4.7873087 1.0716926
-2.1159437 -4.8015771 1.0832206
-2.099983 -4.7963009 1.0791752
-2.0894344 -4.7976232 1.0845968
-2.1593781 -4.9782529 1.0008224
-2.1639409 -4.9873466 0.99928659
-2.1570895 -4.9915752 1.0034008
-6.0533614 -3.0006375 0.56430209
-6.057055 -3.0074828 0.57850248
-6.0552359 -3.0012069 0.57308859
-6.059835 -3.0212629 0.57402748
-6.0528646 -3.0313547 0.58392489
-6.0452628 -3.0334442 0.57456774
-6.0478282 -3.0478113 0.56987661
-6.0369329 -3.0608473 0.58050442
-6.0326972 -3.0519309 0.57890993
-6.0242462 -3.0714638 0.57524389
-5.8446054 -2.9941196 0.64574277
-5.8402181 -3.010206 0.65020961
-5.8416185 -3.0086784 0.64942336
-5.8484216 -3.0159674 0.63704622
-5.8342748 -3.0205147 0.64303637
-5.8302188 -3.0417011 0.63539034
-5.8355083 -3.0497057 0.64182436
-5.8254781 -3.0510795 0.64366376
-5.8248086 -3.0524936 0.64285487
-5.8057222 -3.0697443 0.65094262
-5.8102903 -3.0791769 0.63902074
-5.6458259 -3.0000737 0.70685965
-5.6431928 -2.9946818 0.71674019
-5.641335 -3.0003076 0.70750356
-5.6318431 -3.016012 0.70188552
-5.6163502 -3.0318975 0.70324105
-5.6284924 -3.0373216 0.70474595
-5.6141896 -3.0369751 0.71302521
-5.6180363 -3.0402303 0.70803255
-5.6026812 -3.0486815 0.71392536
-5.599227 -3.0659952 0.71851563
-5.6076841 -3.0693355 0.70199358
-5.5959544 -3.0742357 0.71874958
-5.4296513 -2.9903708 0.7854237
-5.4173837 -3.0121107 0.77660429
-5.4107232 -3.002584 0.77976781
-5.4026971 -3.0094368 0.78536987
-5.4131551 -3.0262349 0.77917504
-5.3953233 -3.0311389 0.77757579
-5.4024739 -3.0449574 0.77536988
-5.4037209 -3.0596032 0.78368932
-5.4003673 -3.0669978 0.77650112
-5.3935251 -3.0669658 0.77223939
-5.3899164 -3.069627 0.76855195
-5.3872867 -3.0842175 0.77070928
-5.2103329 -3.0024979 0.83763582
-5.213469 -3.0106006 0.83761919
-5.2109933 -3.0133903 0.84837168
-5.1947021 -3.0225883 0.8417815
-5.1999998 -3.0231869 0.84892797
-5.1874933 -3.0292935 0.84897816
-5.1866574 -3.0363176 0.84917718
-5.1729999 -3.0407813 0.83694547
-5.1835933 -3.0459287 0.84958416
-5.1778646 -3.0527489 0.83515769
-5.1699681 -3.0700617 0.83611238
-5.1627984 -3.0747035 0.83625025
-5.1556358 -3.0810721 0.84087801
-4.9963078 -2.998559 0.91124541
-4.9850979 -3.0021448 0.92061865
-4.9867315 -2.9974575 0.91114753
-4.9883051 -3.0161777 0.9219085
-4.9696703 -3.0254936 0.91545606
-4.9632573 -3.0296669 0.91110057
-4.9641962 -3.0323851 0.90716302
-4.9595513 -3.0314908 0.91314507
-4.9539423 -3.0477209 0.9217118
-4.9481859 -3.0610924 0.91113037
-4.9577918 -3.0608523 0.91347313
-4.9446845 -3.073591 0.91921312
-4.942194 -3.0721619 0.91661751
-4.9291654 -3.076515 0.92227298
-4.9253654 -3.0864511 0.90557796
-4.7686691 -2.9940398 0.97933263
-4.7757983 -3.0067441 0.98965913
-4.7668557 -2.9990516 0.9878276
-4.7519217 -3.0100067 0.97670764
-4.7484117 -3.0194719 0.97915208
-4.7554736 -3.0228195 0.98876637
-4.7401838 -3.0373456 0.97256577
-4.7391448 -3.0336771 0.984712
-4.7406917 -3.0412848 0.97941703
-4.7365742 -3.0494077 0.97109169
-4.7291427 -3.0644987 0.98191518
-4.7156105 -3.0709126 0.98670548
-4.7117429 -3.0725875 0.98585397
-4.7096972 -3.0835412 0.98070687
-4.7187624 -3.0952067 0.97274804
-4.5481668 -2.9946887 1.0557529
-4.5452995 -3.0063791 1.0432099
-4.5386238 -3.0012801 1.0409714
-4.539793 -3.0019877 1.0577551
-4.5262485 -3.0228462 1.0530398
-4.5210204 -3.0205505 1.0398517
-4.52496 -3.0290098 1.0468614
-4.5241003 -3.0378973 1.0388021
-4.5240836 -3.0490448 1.0463893
-4.5092049 -3.0535722 1.0489048
-4.5022764 -3.0490346 1.0550492
-4.4999981 -3.0658183 1.0558658
-4.4902534 -3.0601234 1.0481378
-4.5027385 -3.0798039 1.0460532
-4.4984312 -3.0701547 1.0494549
-4.4788308 -3.0795012 1.0414912
-4.4724092 -3.0970199 1.0514013
-4.3242621 -2.9907415 1.1064143
-4.3190227 -2.9956594 1.1089376
-4.3061876 -3.009958 1.1132489
-4.3108287 -3.001596 1.1084069
-4.3093166 -3.0152323 1.1130846
-4.3069801 -3.0234096 1.1097543
-4.2923627 -3.0283666 1.113035
-4.2998219 -3.0333195 1.1122501
-4.2838707 -3.0429833 1.1083978
-4.2758746 -3.0505466 1.1133002
-4.2779608 -3.0489995 1.1235693
-4.2726884 -3.0664012 1.1149657
-4.2648845 -3.0551646 1.1181028
-4.2727613 -3.0727739 1.1156354
-4.2654715 -3.0730853 1.1055593
-4.2534957 -3.0752816 1.1133277
-4.2448421 -3.0870912 1.1221548
-4.2528992 -3.0905986 1.1120391
-4.2417331 -3.1024017 1.1182634
-4.0826006 -2.9992199 1.1905859
-4.0905232 -2.9934206 1.1827841
-4.0881686 -3.0066216 1.1835666
-4.07441 -3.0162995 1.1815659
-4.0775061 -3.0181434 1.1879299
-4.0630617 -3.0169947 1.1799507
-4.0586853 -3.0281761 1.1757371
-4.0665326 -3.0350177 1.1856701
-4.0455446 -3.0342388 1.178046
-4.0546646 -3.0466244 1.1845624
-4.0375524 -3.0560267 1.1889539
-4.0357733 -3.0575433 1.1848646
-4.0417886 -3.0609047 1.1732885
-4.0270128 -3.0747154 1.1777426
-4.0342302 -3.0758376 1.1860553
-4.0150757 -3.0867388 1.1812131
-4.0238924 -3.0774951 1.1908801
-4.0169148 -3.0803382 1.17939
-4.0199962 -3.0864408 1.1743575
-4.0106945 -3.1059189 1.1826122
-3.8462234 -2.9971077 1.254795
-3.846159 -3.0060213 1.2434585
-3.8501763 -3.005229 1.2544153
-3.8457625 -3.0139482 1.2572105
-3.8368869 -3.0141797 1.2445263
-3.8396912 -3.0195596 1.2465777
-3.8273301 -3.0180666 1.2435037
-3.8252945 -3.0339148 1.2432113
-3.8147416 -3.0371709 1.242435
-3.8092139 -3.035459 1.2477933
-3.8154237 -3.0422628 1.2521294
-3.8171072 -3.0531909 1.2529452
-3.8101194 -3.0523322 1.2599404
-3.7921674 -3.0512631 1.2435976
-3.7914128 -3.0655296 1.252399
-3.7833352 -3.0668187 1.2411902
-3.7931986 -3.0799727 1.256838
-3.7861285 -3.0753248 1.2419955
-3.7793436 -3.0843649 1.2492487
-3.7733278 -3.0921257 1.2435598
-3.761946 -3.0903521 1.256407
-3.7662206 -3.0945251 1.2436603
-3.7696724 -3.1159811 1.2571003
-3.6212599 -3.0036101 1.3245951
-3.6142123 -2.9947212 1.3154759
-3.5983562 -3.0020478 1.3103778
-3.5937021 -3.0035384 1.3174298
-3.5933931 -3.0222669 1.3144277
-3.5879195 -3.0185258 1.3276776
-3.5951858 -3.0330918 1.318453
-3.5881336 -3.0206058 1.3162818
-3.5682275 -3.036732 1.3152115
-3.5810609 -3.0406549 1.317953
-3.5604475 -3.0453789 1.3181741
-3.5599959 -3.0472469 1.3123376
-3.5686562 -3.0574577 1.3242222
-3.562408 -3.0672197 1.3196582
-3.5491009 -3.0608854 1.3214014
-3.5387886 -3.0732973 1.3119156
-3.5352197 -3.0772021 1.3128881
-3.5408685 -3.0782886 1.3113648
-3.5286815 -3.0837095 1.3187275
-3.5375581 -3.0862117 1.3271737
-3.5236859 -3.092355 1.3158963
-3.5295861 -3.1023085 1.3277453
-3.5213156 -3.105191 1.3143722
-3.5211537 -3.1061006 1.3162193
-3.5055492 -3.1179855 1.3093774
-3.3676143 -2.9987123 1.3827575
-3.3599133 -3.0051057 1.389534
-3.3512332 -3.0014517 1.3801825
-3.34407 -3.0099211 1.3903625
-3.3495374 -3.011584 1.3829867
-3.3465521 -3.0236995 1.3944079
-3.3348377 -3.0260458 1.3808101
-3.3312678 -3.0244601 1.3892583
-3.3210645 -3.0270569 1.3817189
-3.3290074 -3.0384011 1.3872107
-3.3237858 -3.0367489 1.3917505
-3.3128412 -3.0515864 1.3946044
-3.3151135 -3.0419409 1.3858145
-3.3067307 -3.0493357 1.3932513
-3.308162 -3.0664082 1.3837153
-3.2969623 -3.0647123 1.3867481
-3.2943349 -3.075525 1.392113
-3.2852988 -3.0669975 1.3837363
-3.2878082 -3.0725031 1.3774291
-3.2778506 -3.0901945 1.3844385
-3.2823946 -3.0869136 1.3777547
-3.2823925 -3.0969436 1.3808821
-3.27953 -3.0935085 1.378298
-3.2654512 -3.1059594 1.3929559
-3.2639289 -3.1041164 1.3951721
-3.2519364 -3.1153555 1.3837093
-3.2569048 -3.1082551 1.3860526
-3.2565019 -3.1164134 1.3815362
-3.1088877 -3.0008478 1.4437847
-3.1033385 -2.9899769 1.4452791
-3.0907736 -3.0079641 1.4546493
-3.1048865 -3.0102696 1.4585782
-3.095866 -3.0140395 1.4505252
-3.2240908 -3.1395414 1.3869343
-3.2228007 -3.1565709 1.3774207
-3.2192881 -3.1459539 1.3812325
-3.207232 -3.1646571 1.376703
-3.2128265 -3.1673157 1.3885678
-3.2029309 -3.1623068 1.3900102
-3.1984441 -3.1759372 1.3866745
-3.192457 -3.1811976 1.3896968
-3.177093 -3.184772 1.3947529
-3.177794 -3.1835325 1.3803724
-3.186542 -3.2000635 1.3762953
-3.171211 -3.199707 1.3796982
-3.1653874 -3.200247 1.3782215
-3.1557457 -3.213146 1.3825388
-3.1506274 -3.2160606 1.3886884
-3.1536381 -3.2135079 1.3843318
-3.1552005 -3.2109022 1.3908235
-3.1400921 -3.2267492 1.3765271
-3.1419551 -3.231679 1.3831226
-3.1387563 -3.2217624 1.3954176
-3.1299317 -3.2250528 1.3956354
-3.1251779 -3.2374771 1.3806572
-3.1170154 -3.2485492 1.3895804
-3.1103232 -3.2544572 1.3900397
-3.1193075 -3.2597306 1.3920128
-3.1021364 -3.2525043 1.3809615
-3.1093156 -3.2513363 1.3769321
-3.1099973 -3.259562 1.3814654
-3.1049693 -3.2741592 1.3854727
-3.0933397 -3.270072 1.3837936
-3.2184525 -3.4186819 1.3155518
-3.2141066 -3.4102435 1.3269337
-3.2047324 -3.418175 1.311622
-3.206429 -3.4239528 1.3147744
-3.18766 -3.42326 1.3170191
-3.1869116 -3.4299464 1.3108493
-3.1972082 -3.4483693 1.3102005
-3.1915278 -3.4520366 1.3256724
-3.1813083 -3.4552448 1.3108872
-3.1670749 -3.4513984 1.3245232
-3.1745148 -3.4682021 1.310878
-3.1625264 -3.4654386 1.3101723
-3.1591499 -3.478086 1.3260294
-3.1510792 -3.4772205 1.3205962
-3.1398497 -3.4823835 1.3203368
-3.1463695 -3.4916017 1.317865
-3.1390529 -3.4959259 1.321438
-3.1323788 -3.4993861 1.3258045
-3.1302269 -3.4974487 1.3114167
-3.122854 -3.5061066 1.3253226
-3.1218388 -3.5070388 1.3268652
-3.1144629 -3.5008235 1.315605
-3.1077867 -3.5160785 1.3161247
-3.105247 -3.508116 1.3219297
-3.1081347 -3.5137832 1.3269852
-3.0912757 -3.5308356 1.3272294
-3.0968823 -3.5254428 1.3275489
-3.0789101 -3.538254 1.3088012
-3.0765653 -3.5337973 1.316377
-3.0686023 -3.5468571 1.3196745
-3.0667272 -3.5437982 1.3264122
-3.0633037 -3.5582652 1.3237308
-3.0511341 -3.5509644 1.3101531
-3.0584393 -3.5660381 1.30889
-3.039933 -3.5689199 1.3263046
-3.0363655 -3.5598693 1.311005
-3.032548 -3.5813575 1.3254293
-3.0284047 -3.5698121 1.3113667
-3.0230033 -3.5808661 1.3260785
-3.0300202 -3.5889077 1.3120409
-3.0137339 -3.5800309 1.3253659
-3.0107038 -3.5926929 1.3085206
-3.010349 -3.5981541 1.3232658
-3.0035663 -3.5958946 1.32722
-2.9980409 -3.6001096 1.3125681
-2.9950948 -3.6057432 1.3112359
-2.9874425 -3.6125517 1.3126773
-2.9853601 -3.6202154 1.309919
-2.9773345 -3.6274819 1.3203545
-2.974591 -3.6267755 1.3269892
-2.9658794 -3.6347985 1.3267348
-2.9638371 -3.6448135 1.3180451
-2.9586344 -3.6395018 1.3281143
-2.9586806 -3.6524408 1.3246555
-2.9547668 -3.6448941 1.3211879
-2.9454992 -3.6594465 1.316285
-2.9375579 -3.6513982 1.3087654
-2.9281697 -3.6663244 1.3177668
-2.9215341 -3.658288 1.323679
-2.9244571 -3.6725769 1.3144683
-2.9207397 -3.663229 1.3213977
-2.9172709 -3.676919 1.3224683
-2.9024861 -3.6904924 1.3129998
-2.8976266 -3.689204 1.3147343
-2.89622 -3.6890996 1.3281505
-2.8982754 -3.6848311 1.311142
-2.8852279 -3.6977305 1.3263024
-2.8796945 -3.7063568 1.31065
-2.8851542 -3.7134678 1.3271405
-2.8646958 -3.7086284 1.313441
-2.8734429 -3.7052035 1.3131816
-2.8552547 -3.723448 1.3233171
-2.8559904 -3.7120512 1.3239566
-2.8461888 -3.7209442 1.309955
-2.8546474 -3.7335851 1.320121
-2.849684 -3.7334423 1.3186116
-2.8417237 -3.7454181 1.3282515
-2.8385973 -3.7370324 1.3133068
-2.8311179 -3.7392838 1.3152852
-2.8271425 -3.7462599 1.3261303
-2.8168609 -3.7471716 1.3244199
-2.8068333 -3.7550898 1.3084775
-2.8066649 -3.7689431 1.3279374
-2.8058512 -3.7582006 1.3225025
-2.7990339 -3.7611275 1.3084172
-2.7820449 -3.7643077 1.3184583
-2.7865598 -3.7847497 1.3204997
-2.7814295 -3.7872932 1.3148955
-2.7712386 -3.7875903 1.3110015
-2.7590637 -3.7891507 1.3240857
-2.7560382 -3.7856739 1.320205
-2.7547178 -3.7974191 1.312346
-2.7493346 -3.794251 1.3145655
-2.7444859 -3.7955301 1.3114526
-2.7450666 -3.815258 1.3093303
-2.7397275 -3.8032684 1.327938
-2.7243419 -3.8210709 1.3100063
-2.7269094 -3.8190258 1.3134265
-2.715076 -3.8320773 1.3204378
-2.7071309 -3.8182473 1.309769
-2.7060966 -3.8266909 1.3264505
-2.7089376 -3.8391182 1.3152523
-2.6996324 -3.8314714 1.3110806
-2.6881025 -3.844291 1.3094807
-2.6796799 -3.8430119 1.3119965
-2.6733747 -3.8417189 1.3103378
-2.6684563 -3.8503714 1.3147051
-2.6614647 -3.8669276 1.324939
-2.6710474 -3.856992 1.3259348
-2.6536136 -3.8644586 1.3245667
-2.6468434 -3.8762429 1.3185539
-2.6433866 -3.8762257 1.3239052
-2.6511228 -3.8722663 1.3206868
-2.6430254 -3.8821447 1.3084251
-2.6365228 -3.8889742 1.3212115
-2.6274993 -3.8948767 1.3190519
-2.6201293 -3.8812451 1.3119936
-2.608387 -3.8860106 1.3121251
-2.6064055 -3.9057531 1.3259307
-2.6034234 -3.8934615 1.3160009
-2.6018038 -3.8998044 1.3180103
-2.5861921 -3.9081001 1.3237529
-2.5852242 -3.9095471 1.3171633
-2.5874696 -3.9083169 1.324396
-2.5819716 -3.9260097 1.3084927
-2.5636823 -3.9201093 1.3103722
-2.5675473 -3.9322746 1.3095617
-2.5584657 -3.9381382 1.327656
-2.5492477 -3.9274664 1.3096706
-2.5462191 -3.9392633 1.3276321
-2.5531151 -3.9348969 1.3228983
-2.5379968 -3.9403799 1.3135087
-2.5371308 -3.9503613 1.3263046
-2.5228496 -3.9480591 1.3239552
-2.5213306 -3.9457352 1.3275301
-2.5157101 -3.9506035 1.3206147
-2.5082052 -3.9648232 1.3251356
-2.5015059 -3.9754529 1.327387
-2.4967072 -3.9623609 1.3238964
-2.4898891 -3.9717414 1.3121877
-2.4851048 -3.9735246 1.3084164
-2.4850492 -3.9857006 1.3227252
-2.4743786 -3.9825273 1.3106084
-2.470907 -3.9905937 1.3243415
-2.46978 -3.9826677 1.3239385
-2.4650733 -3.994652 1.3221996
-2.4472773 -4.0046678 1.3097656
-2.4449553 -3.9935248 1.3102188
-2.4403775 -4.0031295 1.3272732
-2.4392853 -4.011467 1.3184484
-2.4298971 -4.0205755 1.3113341
-2.4242754 -4.0151887 1.3155297
-2.42434 -4.0246968 1.3263767
-2.4165168 -4.016304 1.3126274
-2.4149556 -4.0323586 1.3102669
-2.4137928 -4.0292869 1.3193765
-2.3943644 -4.0340033 1.3219174
-2.3873651 -4.0419874 1.3190402
-2.3799078 -4.0309882 1.3099897
-2.3753915 -4.0444956 1.3160254
-2.3796952 -4.0542188 1.316368
-2.3711088 -4.0439286 1.3255048
-2.3583221 -4.0593166 1.3085334
-2.3546836 -4.0524993 1.3233474
-2.34479 -4.0497437 1.3254906
-2.3572524 -4.0514526 1.3140821
-2.3406003 -4.0593657 1.3213254
-2.3414028 -4.0659156 1.3239452
-2.325078 -4.0706506 1.320917
-2.3177991 -4.0765147 1.3277262
-2.3244798 -4.0723343 1.3281493
-2.3108137 -4.0852222 1.3221916
-2.308006 -4.0909839 1.3241669
-2.3021653 -4.0787721 1.3162727
-2.3015058 -4.0823359 1.3144394
-2.2986989 -4.0840364 1.3141943
-2.2872961 -4.0947633 1.3093259
-2.2886453 -4.0919757 1.3211887
-2.2673702 -4.0985508 1.3115903
-2.269119 -4.1035395 1.319393
-2.2640541 -4.1009064 1.3146342
-2.2585616 -4.1103077 1.3202367
-2.2590227 -4.1226077 1.3233191
-2.2375038 -4.1147776 1.321847
-2.2438748 -4.1320028 1.3200366
-2.2320745 -4.1321402 1.3197438
-2.2205153 -4.1265988 1.3119339
-2.2138197 -4.1281352 1.3101131
-2.2152574 -4.1341295 1.3249106
-2.2062888 -4.1476097 1.3179051
-2.2095134 -4.1417665 1.3167106
-2.1974924 -4.1361775 1.3092841
-2.1998646 -4.1567998 1.3127191
-2.1791501 -4.1416583 1.3271382
-2.1799035 -4.1586471 1.3274775
-2.1824629 -4.1495991 1.3108164
-2.1653109 -4.1547604 1.3228261
-2.1559646 -4.1589985 1.3164208
-2.1684349 -4.1704507 1.3271346
-2.1461031 -4.1587157 1.3274732
-2.150773 -4.1759911 1.3167517
-2.1366329 -4.1670351 1.3147084
-2.1299152 -4.186245 1.3151236
-2.1197584 -4.1905394 1.3137531
-2.1151783 -4.1813893 1.3184586
-2.1102548 -4.1806059 1.3152683
-2.1019881 -4.1884813 1.3099654
-2.1017077 -4.1928263 1.3234646
-2.1078284 -4.1954608 1.3085436
-2.1032312 -4.2015877 1.3283813
-2.1822309 -4.3666635 1.2462962
-2.1677732 -4.3750978 1.2438384
-2.1553545 -4.3826504 1.2451701
-2.1625166 -4.3858867 1.245199
-2.1510446 -4.3903871 1.2573609
-2.1348631 -4.3758125 1.2532815
-2.1418676 -4.3788242 1.2442933
-2.1341708 -4.3874125 1.253919
-2.1329706 -4.3879824 1.2438605
-2.1266875 -4.3898201 1.2506174
-2.1205623 -4.3925872 1.2436835
-2.1088548 -4.4070058 1.2513584
-2.0996006 -4.4151177 1.2545149
-2.0890107 -4.4165092 1.2574611
-2.159019 -4.5826097 1.1912606
-2.1559925 -4.588707 1.1903065
-2.1570413 -4.5879378 1.1893411
-2.1470742 -4.5856056 1.1827788
-2.1474771 -4.5882106 1.1786299
-2.1379344 -4.5906744 1.1756173
-2.1216304 -4.5931592 1.1928033
-2.1122563 -4.6100864 1.1785284
-2.1152031 -4.6039133 1.1790897
-2.1149895 -4.6133094 1.1811996
-2.1118252 -4.6182446 1.1902001
-2.087194 -4.6065578 1.1761386
-2.161283 -4.7937145 1.1182089
-2.1583238 -4.7860379 1.1132922
-2.1619222 -4.785181 1.1087786
-2.1496656 -4.8012018 1.1248003
-2.1404173 -4.8073435 1.1213278
-2.1339788 -4.8105397 1.1239094
-2.1218112 -4.8031158 1.1156361
-2.1290781 -4.8019152 1.1209304
-2.1142309 -4.8039918 1.1242437
-2.110379 -4.8078823 1.1221893
-2.1005843 -4.8145409 1.1073011
-2.1010518 -4.8249331 1.123125
-6.0771904 -2.9907629 0.61383551
-6.0752673 -2.992003 0.62164372
-6.0649576 -3.0031343 0.6251092
-6.0791273 -3.0127363 0.6260798
-6.0628014 -3.0242586 0.63190937
-6.0615416 -3.0361996 0.61870795
-6.0507169 -3.0487196 0.62880057
-6.044838 -3.0558746 0.62093562
-6.0572205 -3.0624514 0.63169873
-6.047636 -3.0621247 0.62143487
-5.8767433 -2.9886553 0.69973749
-5.8724051 -3.0029867 0.69901872
-5.8602467 -3.0112126 0.69566756
-5.8646116 -3.0178242 0.69120729
-5.8479943 -3.0323386 0.68371171
-5.8455362 -3.0298328 0.69275641
-5.8562679 -3.0407543 0.69775617
-5.8368955 -3.0500603 0.68407023
-5.845377 -3.0560246 0.69227093
-5.8430839 -3.0566914 0.68925565
-5.8310432 -3.0788431 0.68239528
-5.660233 -2.9925106 0.75570071
-5.6569953 -3.0063262 0.76269871
-5.6570978 -3.0087206 0.751284
-5.6416497 -3.0187232 0.75354803
-5.6336861 -3.0305042 0.74650484
-5.6366668 -3.0372655 0.75672138
-5.6346364 -3.048914 0.76580715
-5.6262813 -3.0533149 0.75709808
-5.629714 -3.059705 0.75588548
-5.6161518 -3.0583479 0.76067841
-5.6094384 -3.0772276 0.75161844
-5.615695 -3.0770628 0.7566554
-5.4497046 -2.9900866 0.81349093
-5.4404836 -3.0027645 0.82193834
-5.4289875 -3.0117049 0.82649946
-5.4245243 -3.027863 0.83218843
-5.4298339 -3.0262394 0.81411183
-5.4260473 -3.0405197 0.81951153
-5.4109588 -3.0425034 0.82639235
-5.4170728 -3.0552053 0.82249528
-5.4183826 -3.0654864 0.82757765
-5.4087424 -3.0663273 0.820678
-5.3940544 -3.0707297 0.81748384
-5.3888068 -3.0901086 0.82922226
-5.2314129 -2.9883265 0.88591117
-5.2332668 -2.9999449 0.88775414
-5.2294216 -3.0011024 0.89881366
-5.2236428 -3.0227134 0.88317972
-5.2124543 -3.0134869 0.89314318
-5.2143745 -3.0346353 0.89797944
-5.2001815 -3.0413659 0.88010371
-5.2008963 -3.0427384 0.88895029
-5.1885004 -3.0537162 0.88095134
-5.1992888 -3.0637496 0.88112456
-5.1783285 -3.0643914 0.8967514
-5.186955 -3.0710804 0.8880704
-5.1737289 -3.0781279 0.88553649
-5.0074754 -2.9867811 0.95497662
-4.998939 -3.0050724 0.95464981
-5.0004292 -3.0095181 0.96046156
-4.9970732 -3.0040154 0.94682372
-4.9915829 -3.0234821 0.95908844
-4.9972367 -3.0348172 0.94764465
-4.9908795 -3.0412157 0.95343047
-4.9843397 -3.0309384 0.94583172
-4.982163 -3.0535829 0.95879507
-4.9686575 -3.0473065 0.95195621
-4.9776764 -3.0610495 0.94687432
-4.963532 -3.0704455 0.95050824
-4.9497042 -3.0655315 0.95669758
-4.9500551 -3.0814712 0.95538491
-4.9440341 -3.0961399 0.96159512
-4.7858448 -3.0004919 1.0297399
-4.7791238 -3.0027018 1.0121776
-4.7866073 -3.0026202 1.0118642
-4.7816806 -3.0246203 1.015872
-4.7637811 -3.0173831 1.013116
-4.7727113 -3.0234425 1.0235709
-4.7667136 -3.0396447 1.0115774
-4.7570734 -3.0463164 1.0114397
-4.7612338 -3.0576458 1.0222982
-4.7466984 -3.0472708 1.0254178
-4.7459431 -3.0629268 1.0309095
-4.74332 -3.0760572 1.0208859
-4.7382498 -3.0808766 1.0176326
-4.7334838 -3.0849833 1.0190618
-4.7247009 -3.0954144 1.014405
-4.560904 -2.9954824 1.096646
-4.5645485 -2.9971013 1.0830636
-4.5601773 -3.0133314 1.0894686
-4.5559349 -3.0179832 1.0911973
-4.5408254 -3.0123696 1.0899482
-4.5425873 -3.0302801 1.0796843
-4.5388484 -3.0298567 1.0829252
-4.5451245 -3.028661 1.0879759
-4.5346451 -3.0470071 1.095543
-4.5227275 -3.0408864 1.0792962
-4.5154581 -3.0530555 1.0860665
-4.5122247 -3.0530596 1.0976027
-4.5225654 -3.0728915 1.079288
-4.5064917 -3.0726893 1.0826946
-4.5086808 -3.0815945 1.0780821
-4.4921103 -3.0964875 1.0819204
-4.505795 -3.0918765 1.0925375
-4.34097 -2.9905438 1.156986
-4.3264956 -2.9900084 1.1631459
-4.3244452 -3.001817 1.1617639
-4.3186331 -3.0106263 1.1545445
-4.3260422 -3.0204816 1.1536468
-4.321907 -3.024965 1.1592368
-4.3160777 -3.037672 1.1513426
-4.3068333 -3.0368736 1.1608509
-4.3021932 -3.043819 1.1617678
-4.2937064 -3.0487719 1.1535915
-4.2945943 -3.0484917 1.1457963
-4.2973113 -3.0579274 1.1446033
-4.29386 -3.0695119 1.1576626
-4.2917824 -3.0794919 1.1479678
-4.276916 -3.0810974 1.1544669
-4.282939 -3.082792 1.1625258
-4.2633634 -3.0828905 1.1639149
-4.2716737 -3.097986 1.1521341
-4.2504673 -3.0926912 1.1594332
-4.0959754 -2.9918463 1.2140855
-4.1021676 -3.0072646 1.2287452
-4.0961466 -3.009675 1.219977
-4.091311 -3.012918 1.2256259
-4.0934076 -3.0183749 1.2272904
-4.0851917 -3.0332658 1.213339
-4.0704679 -3.0384879 1.2236766
-4.067678 -3.0284514 1.2198933
-4.0634909 -3.0510507 1.2269861
-4.0710764 -3.0567772 1.2253392
-4.0713549 -3.044714 1.219175
-4.0632591 -3.0630376 1.2233332
-4.0604963 -3.0595429 1.2108159
-4.0464935 -3.0754232 1.2207848
-4.046834 -3.0776191 1.2110198
-4.0455017 -3.075825 1.2120811
-4.0381131 -3.0835423 1.2136315
-4.0403795 -3.0927119 1.2109237
-4.0264211 -3.1019447 1.2113161
-4.0253615 -3.1030214 1.2116755
-3.8767488 -2.9931107 1.2960718
-3.8636465 -2.9947028 1.2815399
-3.8663783 -2.9978142 1.2961781
-3.8616199 -3.0112133 1.2806057
-3.8468852 -3.0092509 1.288501
-3.8419077 -3.0302627 1.2838479
-3.8358617 -3.0281999 1.2771291
-3.8482575 -3.0327251 1.2868861
-3.8433537 -3.0276215 1.2930498
-3.8380501 -3.0457964 1.2837702
-3.8323796 -3.0488966 1.2944963
-3.8285913 -3.0430861 1.2890434
-3.8193276 -3.0642068 1.2858862
-3.8154182 -3.0647764 1.2947311
-3.8070738 -3.0748253 1.290934
-3.8108268 -3.0841188 1.2915145
-3.7992253 -3.0715959 1.2795414
-3.7943351 -3.0757058 1.2884206
-3.7996807 -3.0991561 1.2877752
-3.7788551 -3.1015551 1.2943208
-3.7873018 -3.1025426 1.2831262
-3.7850146 -3.1040092 1.2830958
-3.6225994 -3.0004265 1.3535788
-3.6290755 -2.9970729 1.3625481
-3.6266997 -3.0096645 1.3468044
-3.608114 -3.0103056 1.3470968
-3.6089406 -3.00365 1.3452363
-3.6017334 -3.0164158 1.344584
-3.6056399 -3.0188463 1.3457929
-3.5901847 -3.0247779 1.3499089
-3.5881767 -3.02349 1.358337
-3.5973566 -3.0442564 1.3505925
-3.5865595 -3.0325303 1.3516585
-3.5915589 -3.0514686 1.3611563
-3.5875819 -3.0522268 1.3431354
-3.5793419 -3.0586016 1.3495398
-3.5708022 -3.0700128 1.3476608
-3.564116 -3.0584331 1.3580709
-3.5580754 -3.0749836 1.3510994
-3.5508187 -3.0803096 1.3432395
-3.5594392 -3.0878654 1.3617047
-3.5396245 -3.0888457 1.3444346
-3.5475473 -3.0832808 1.3439161
-3.5343974 -3.0869739 1.3494784
-3.5317426 -3.110956 1.3592961
-3.527102 -3.1109705 1.3477463
-3.5360501 -3.106725 1.3497869
-3.3855746 -2.9950132 1.4146888
-3.3861525 -2.9864242 1.4217435
-3.3736954 -2.9948792 1.4284556
-3.3690913 -2.9962626 1.4125893
-3.3660157 -3.0021458 1.4207143
-3.3602033 -3.0202737 1.4193695
-3.354903 -3.0295801 1.4192908
-3.344034 -3.0205674 1.4201834
-3.3433406 -3.0312562 1.4260087
-3.3341904 -3.0352423 1.4210206
-3.3429933 -3.0344048 1.4276123
-3.3331738 -3.0383334 1.4275249
-3.3362932 -3.0539997 1.4237084
-3.3326938 -3.0492635 1.4232286
-3.3249543 -3.0656595 1.4215797
-3.3090835 -3.0604577 1.4265113
-3.3145509 -3.074177 1.4268388
-3.3000906 -3.0612547 1.4208754
-3.3047309 -3.0718734 1.428914
-3.3035398 -3.0775828 1.4176511
-3.2873302 -3.0763421 1.4119043
-3.2845223 -3.089536 1.4269017
-3.2817955 -3.0901093 1.4108998
-3.2828789 -3.0913506 1.4242948
-3.2844353 -3.1091254 1.4259489
-3.2676344 -3.1153092 1.4174534
-3.2658956 -3.1112468 1.4198817
-3.263823 -3.1170168 1.4198691
-3.131408 -3.0012329 1.4801549
-3.1274295 -2.9988668 1.4930701
-3.1147079 -3.0046034 1.4918448
-3.1077273 -3.0118511 1.4820385
-3.1057427 -3.0006974 1.4762657
-3.0997543 -3.0149584 1.4938524
-3.1003647 -3.0151143 1.4782588
-3.0993152 -3.0228138 1.4810699
-3.0867548 -3.0331252 1.4925261
-3.226409 -3.1579175 1.4165024
-3.2112362 -3.1589491 1.4166256
-3.2220576 -3.1801901 1.4234891
-3.1999576 -3.1729031 1.428984
-3.1990764 -3.1828346 1.4115936
-3.2079954 -3.1949875 1.4097134
-3.2026808 -3.1853638 1.4179226
-3.1997736 -3.2005682 1.4103208
-3.1924534 -3.198947 1.4193583
-3.1823161 -3.2089951 1.4224172
-3.1807163 -3.2082849 1.417207
-3.1688476 -3.2168283 1.4154738
-3.1768494 -3.2206261 1.4170026
-3.1579819 -3.226763 1.4103148
-3.1536129 -3.2164645 1.4181858
-3.1466284 -3.2395365 1.4183879
-3.1415179 -3.2417521 1.4126916
-3.1481917 -3.2455249 1.4162624
-3.1424615 -3.2464478 1.42592
-3.1276877 -3.2417097 1.4099884
-3.1298487 -3.259855 1.41922
-3.1172137 -3.2506208 1.4243547
-3.1263061 -3.2538838 1.4101318
-3.1138635 -3.2627804 1.414206
-3.1081023 -3.271816 1.4130064
-3.1144643 -3.2783809 1.4131562
-3.1006179 -3.2843552 1.4155054
-3.0924618 -3.2815297 1.4184908
-3.100729 -3.2775061 1.4249557
-3.0993323 -3.283247 1.4205545
-3.2228565 -3.4334121 1.3561116
-3.2079556 -3.4379544 1.3515726
-3.2079136 -3.4361455 1.3481476
-3.2020881 -3.4464567 1.3601966
-3.1921823 -3.4555752 1.3475742
-3.1834698 -3.4556308 1.3527449
-3.1946013 -3.4664207 1.3562927
-3.1833773 -3.4736414 1.3470112
-3.1691618 -3.4737222 1.3460917
-3.1684749 -3.4770057 1.3437636
-3.1721833 -3.479423 1.3533146
-3.154042 -3.4917431 1.3628225
-3.1604335 -3.4888308 1.358632
-3.1502438 -3.4849091 1.3486161
-3.147999 -3.4959037 1.3539608
-3.1383705 -3.5030143 1.3437222
-3.1435652 -3.5060911 1.3471595
-3.1252058 -3.502785 1.3478347
-3.1361217 -3.5101104 1.3528811
-3.1279511 -3.5216026 1.3590894
-3.1221027 -3.5216625 1.3473188
