# .PCD v0.7 - Point Cloud Data file format
VERSION 0.7
FIELDS x y z
SIZE 4 4 4
TYPE F F F
COUNT 1 1 1
WIDTH 1477
HEIGHT 1
VIEWPOINT 0 0 0 1 0 0 0
POINTS 1477
DATA ascii
-2.9313698 -3.7434125 0.92820686
-2.9416957 -3.7471457 0.93899685
-2.9279287 -3.7387109 0.93165302
-2.9311616 -3.7490768 0.93893409
-2.9136858 -3.7406213 0.93663669
-2.9146032 -3.7484634 0.92605728
-2.908231 -3.7684381 0.9324398
-3.0183558 -3.9088602 0.86294883
-3.0131285 -3.9176927 0.8614592
-3.0064993 -3.9140942 0.85035789
-3.0045891 -3.9185617 0.85083425
-2.9938135 -3.9185777 0.85169423
-2.9922423 -3.9300549 0.84509856
-2.978009 -3.9299991 0.85223895
-2.9764888 -3.9377072 0.85192966
-2.9772601 -3.9315779 0.84786576
-2.968605 -3.9443278 0.84790725
-2.9535618 -3.9403677 0.8566978
-2.9481158 -3.9566453 0.86087757
-2.944154 -3.9517646 0.85287005
-2.9512875 -3.9704509 0.84460151
-2.9379389 -3.9638441 0.86051571
-2.9437249 -3.9611549 0.84914386
-2.9361005 -3.9697268 0.86201143
-2.92133 -3.9822786 0.85134673
-2.9268632 -3.981108 0.85097921
-2.9164543 -3.9767942 0.86202234
-3.0139949 -4.1311259 0.78129065
-3.0145359 -4.1375151 0.76831394
-3.0108912 -4.1454706 0.76435512
-2.9952481 -4.1460948 0.7658397
-2.9878678 -4.1589112 0.77805269
-2.9845672 -4.1630592 0.77706897
-2.9726329 -4.1651349 0.77161968
-2.9678249 -4.1779976 0.77771693
-2.973676 -4.1819568 0.76907551
-2.9598887 -4.1810765 0.76883084
-2.9550526 -4.1753154 0.76650083
-2.9510546 -4.1758823 0.78199989
-2.9400277 -4.1985979 0.77375305
-2.9329538 -4.1914697 0.76908374
-2.9243896 -4.2027655 0.77579206
-2.9236066 -4.1965723 0.78253794
-2.9238019 -4.2042608 0.77138555
-2.9094405 -4.2129645 0.77153957
-2.9089763 -4.2133474 0.77189541
-3.0011759 -4.3767605 0.69739687
-3.0093753 -4.3703394 0.69269216
-2.9998989 -4.3857651 0.69155717
-2.9949176 -4.3760152 0.69183517
-2.9781775 -4.3850484 0.68336183
-2.9861007 -4.3913798 0.68770438
-2.9673097 -4.4027972 0.7023443
-2.961767 -4.4002833 0.69339108
-2.967371 -4.4092879 0.69982195
-2.9528151 -4.4037137 0.68994921
-2.9378977 -4.4122019 0.69171786
-2.9375854 -4.4149971 0.68411595
-2.941972 -4.4144301 0.68528736
-2.9274879 -4.4150009 0.7003994
-2.91272 -4.4249568 0.69066054
-2.90642 -4.428967 0.69876373
-2.9157715 -4.4403234 0.69961506
-3.0108929 -4.5856895 0.60724908
-2.9943321 -4.5895386 0.609914
-2.9913347 -4.6049852 0.62229252
-2.978204 -4.6116743 0.61031342
-2.9832988 -4.6042166 0.61966085
-2.9759898 -4.6073165 0.61368895
-2.9675035 -4.6221099 0.611251
-2.9638996 -4.6283178 0.62295324
-2.9500284 -4.6344137 0.6147328
-2.9480486 -4.6360555 0.61923516
-2.9452114 -4.6386027 0.61585146
-2.9348471 -4.6310091 0.61282068
-2.9218118 -4.6468439 0.6185357
-2.9163926 -4.6559792 0.62174529
-2.9029467 -4.6566463 0.61658722
-2.9973283 -4.8119273 0.53260696
-3.0002782 -4.8098269 0.53787792
-2.9856603 -4.8105764 0.54108858
-2.9793344 -4.8239155 0.54234165
-2.9812229 -4.8217402 0.52608246
-2.9786034 -4.8231997 0.53139633
-2.9593616 -4.8407722 0.5284152
-2.963145 -4.8317924 0.53370196
-2.9412074 -4.8438821 0.53394681
-2.9360545 -4.8490205 0.5376085
-2.936054 -4.8578596 0.52554399
-2.9201403 -4.8563724 0.53978151
-2.9189498 -4.8669958 0.5374614
-2.9145432 -4.8580279 0.52598512
-2.9088776 -4.8776894 0.54085732
-6.0946221 -3.0121262 0.11055303
-6.0856142 -3.0254867 0.10837618
-6.0747604 -3.0586581 0.10361069
-6.0694981 -3.0677905 0.10080723
-5.901813 -2.9989674 0.18476868
-5.8806629 -2.9902875 0.18474284
-5.8924508 -3.0090339 0.17818607
-5.8854647 -3.0158427 0.19135308
-5.8844976 -3.0178671 0.1796679
-5.865696 -3.0387847 0.19209138
-5.8593984 -3.0338495 0.17471799
-5.8723359 -3.0577633 0.1753514
-5.8582649 -3.0486002 0.18434629
-5.8482275 -3.0558064 0.17281064
-5.8569374 -3.0635734 0.17519982
-5.6775689 -2.988502 0.25305229
-5.6809859 -2.9950721 0.26184511
-5.6709485 -3.0188696 0.25205526
-5.6677332 -3.0259249 0.26846105
-5.6561918 -3.0184147 0.25216356
-5.652216 -3.0288546 0.26900983
-5.6656027 -3.0364914 0.27014461
-5.6583447 -3.054328 0.26863912
-5.6420808 -3.0664093 0.26811796
-5.6373415 -3.0714941 0.26801422
-5.6502023 -3.084166 0.26528126
-5.4824319 -2.9960847 0.34246925
-5.4672937 -3.0103149 0.3452538
-5.4619355 -3.0055485 0.34891683
-5.4601603 -3.0134704 0.34801784
-5.4546723 -3.021657 0.3446008
-5.4523268 -3.027482 0.34146294
-5.4488363 -3.0503118 0.34839833
-5.4468408 -3.0411515 0.33115646
-5.4453554 -3.0515368 0.33672798
-5.4439635 -3.0590785 0.33751938
-5.4252934 -3.0644693 0.34591135
-5.4279709 -3.0789168 0.34772784
-5.268043 -3.0011535 0.42050529
-5.2643785 -2.9966648 0.41445842
-5.2616029 -3.0109143 0.42786202
-5.2422342 -3.0070558 0.42307192
-5.2459931 -3.0239544 0.42307732
-5.242806 -3.0231156 0.41986242
-5.2368507 -3.0450606 0.41387573
-5.2253137 -3.0498931 0.42795488
-5.2329755 -3.0603459 0.42424455
-5.2322345 -3.0577767 0.41368222
-5.2296672 -3.0594008 0.4174155
-5.2128572 -3.0815551 0.41299778
-5.2220845 -3.0851388 0.42168504
-5.0597668 -2.9996262 0.50012487
-5.0404911 -2.9958196 0.49046332
-5.0412006 -3.013062 0.48897734
-5.045115 -3.008595 0.49287727
-5.035006 -3.0168474 0.49926972
-5.030808 -3.0370276 0.50252825
-5.0303106 -3.0407438 0.49566904
-5.0203662 -3.0461793 0.49449274
-5.0066781 -3.0591021 0.498463
-5.0173979 -3.0655591 0.50614458
-4.9994211 -3.0721469 0.49268514
-5.0015397 -3.0636551 0.49009445
-4.9933105 -3.0800788 0.49731776
-4.8301578 -2.9878354 0.57460386
-4.8396301 -3.0062878 0.57213664
-4.8227005 -3.0047784 0.57652777
-4.8225031 -3.0070169 0.58423555
-4.8291554 -3.023566 0.57353461
-4.8169751 -3.0306923 0.57693172
-4.8208146 -3.0328135 0.58088654
-4.8169632 -3.0412424 0.56526256
-4.8065619 -3.0360847 0.56513309
-4.7987418 -3.0470016 0.57557672
-4.803689 -3.0554795 0.56845725
-4.7898865 -3.0576184 0.5696519
-4.7785416 -3.0670254 0.57911676
-4.7827964 -3.0804424 0.57309788
-4.7793336 -3.0847285 0.57727873
-4.6122246 -3.0010087 0.65962178
-4.6161871 -3.0051999 0.64803511
-4.6161857 -3.0097847 0.6547507
-4.6117997 -3.0082226 0.65334928
-4.6075339 -3.0231042 0.64774996
-4.5928154 -3.0272064 0.66038609
-4.5852075 -3.0217884 0.65759075
-4.596396 -3.0293176 0.65208954
-4.5781102 -3.0454025 0.65986663
-4.585835 -3.0423357 0.65004683
-4.5693698 -3.0508177 0.6505788
-4.569098 -3.067452 0.65338147
-4.5604038 -3.0682831 0.65805525
-4.5649853 -3.0689354 0.6507411
-4.5509591 -3.0895381 0.65498948
-4.5625234 -3.0796478 0.66157395
-4.4093776 -2.9829097 0.7385543
-4.3912282 -3.0048652 0.73588639
-4.398571 -3.0127876 0.72355402
-4.3781285 -3.012696 0.74070305
-4.3874969 -3.0204093 0.73577845
-4.3763251 -3.01213 0.74062234
-4.3823419 -3.0194449 0.73103166
-4.3636761 -3.0356383 0.72717935
-4.3723164 -3.0421116 0.72910887
-4.3566995 -3.0444641 0.72730732
-4.3544893 -3.0500596 0.72514224
-4.3538365 -3.0616934 0.72717601
-4.3558426 -3.064867 0.72743571
-4.3501725 -3.0718031 0.73392957
-4.3473454 -3.0723214 0.73884672
-4.3294339 -3.0858901 0.73817384
-4.3266702 -3.0897064 0.7363109
-4.3334885 -3.0990965 0.72437352
-4.1747346 -2.994112 0.81062138
-4.1636086 -3.0048211 0.80207825
-4.1742764 -2.9975855 0.81404066
-4.1671009 -3.0139704 0.82046425
-4.1578836 -3.0166435 0.80980337
-4.1483989 -3.0179372 0.81828958
-4.1524119 -3.0207028 0.8123346
-4.1514993 -3.0298645 0.81888205
-4.1312518 -3.0405786 0.80767828
-4.1328592 -3.0424356 0.81314349
-4.1263957 -3.0592883 0.8023836
-4.1322222 -3.0492063 0.80675304
-4.1265836 -3.0539918 0.80419058
-4.1089745 -3.0758097 0.81106997
-4.1049333 -3.0726261 0.80109698
-4.1115456 -3.0841815 0.81564498
-4.109663 -3.083982 0.81323642
-4.0937281 -3.0871103 0.80746913
-4.0912371 -3.0942392 0.8167848
-3.9534233 -2.9960437 0.88858008
-3.9368105 -3.006633 0.89076257
-3.9309497 -3.0073211 0.88880616
-3.940712 -3.0066512 0.88783753
-3.9330289 -3.0126607 0.89081824
-3.9184589 -3.0189264 0.88274366
-3.9138544 -3.016109 0.88886899
-3.9146938 -3.035722 0.88094318
-3.9179344 -3.0437207 0.89563221
-3.9069347 -3.0335577 0.88892943
-3.9066114 -3.0564363 0.89496505
-3.8930309 -3.0468917 0.89593202
-3.8972602 -3.0556836 0.88172555
-3.8834383 -3.0584424 0.89369786
-3.8905776 -3.0777309 0.88516337
-3.8747284 -3.0666697 0.89586025
-3.8869462 -3.0752313 0.89486581
-3.8730311 -3.0888684 0.87974346
-3.8670342 -3.0899889 0.88210171
-3.8663409 -3.1043603 0.88009644
-3.8523426 -3.1026673 0.88067991
-3.7091048 -2.9962237 0.97481495
-3.7082503 -2.9935191 0.96706808
-3.7015951 -3.0012741 0.96201169
-3.70296 -3.0004573 0.96311033
-3.6928525 -3.0080881 0.96070778
-3.6920407 -3.0122406 0.97517496
-3.6922162 -3.0267901 0.96143067
-3.6875067 -3.0196621 0.97198516
-3.6804321 -3.0361676 0.97358155
-3.6753552 -3.0430093 0.96227837
-3.6696877 -3.0341516 0.96738422
-3.6684237 -3.0486274 0.96039003
-3.6548994 -3.0606434 0.97083032
-3.666424 -3.0582273 0.96727109
-3.6568432 -3.0699134 0.96125889
-3.6496575 -3.0650046 0.97626579
-3.6479976 -3.0644958 0.96188921
-3.640075 -3.0835092 0.95980072
-3.6415906 -3.0796864 0.96636093
-3.6415029 -3.0950327 0.97122759
-3.6327109 -3.0889647 0.97009426
-3.6188064 -3.1058929 0.95962125
-3.6118889 -3.113564 0.96226263
-3.6145239 -3.1170344 0.97244459
-3.4614625 -2.9950371 1.0546043
-3.4738228 -2.9901173 1.0482396
-3.4711695 -3.0078337 1.04749
-3.4628859 -3.0019305 1.0528274
-3.4566839 -3.0218534 1.0470819
-3.4439151 -3.0260062 1.0510784
-3.4462729 -3.0256917 1.0462253
-3.4497573 -3.035804 1.0495203
-3.4437079 -3.0233376 1.0502142
-3.4350104 -3.037852 1.0525018
-3.4361243 -3.0429068 1.0416763
-3.4336174 -3.0445135 1.0406282
-3.4174683 -3.0476656 1.0467156
-3.4220622 -3.0667398 1.0435519
-3.4213121 -3.0638242 1.0453053
-3.4063005 -3.0723588 1.04774
-3.4072859 -3.067477 1.0553175
-3.3931179 -3.070312 1.0376048
-3.3956482 -3.071337 1.0371749
-3.3974779 -3.0879102 1.0470411
-3.3770134 -3.0898499 1.0366571
-3.3873677 -3.0935421 1.0494649
-3.3787637 -3.105351 1.0439131
-3.3640654 -3.1060266 1.0440738
-3.3725245 -3.1102314 1.0519307
-3.3592236 -3.1237109 1.0560275
-3.2286859 -2.9973249 1.1283202
-3.2255342 -3.0060256 1.1239951
-3.2200892 -3.0015626 1.1234016
-3.2150676 -3.003242 1.1309856
-3.2001736 -3.0087764 1.1213744
-3.1956573 -3.0089915 1.1328095
-3.1983271 -3.0249348 1.1171681
-3.1865423 -3.0305195 1.1255774
-3.1945906 -3.0289087 1.1345024
-3.1947756 -3.0383494 1.1346622
-3.1908576 -3.0364068 1.1207728
-3.1731863 -3.0355034 1.122697
-3.1798339 -3.0533519 1.1335922
-3.1670687 -3.0503819 1.1273102
-3.1667132 -3.0567274 1.11999
-3.1559632 -3.0627725 1.1169454
-3.1537714 -3.0557094 1.1224419
-3.1472151 -3.0610898 1.1268326
-3.1522431 -3.0787528 1.1173067
-3.1483402 -3.080842 1.1228068
-3.1442711 -3.0832601 1.1347104
-3.1340854 -3.0922599 1.1319726
-3.1219695 -3.0921669 1.1158352
-3.118952 -3.1035743 1.1271107
-3.1222105 -3.0988979 1.1164778
-3.112783 -3.1077495 1.1242309
-3.1063941 -3.1186934 1.1234722
-3.1145027 -3.1073713 1.1217523
-3.0982144 -3.1253738 1.1267822
-2.9618268 -2.9932787 1.2126758
-2.9697344 -2.99174 1.2020068
-2.9657328 -3.0043304 1.206733
-2.9644632 -3.0091259 1.1959412
-2.9593253 -3.0152318 1.1981251
-2.9429059 -3.0089295 1.2093621
-2.9371135 -3.0175393 1.1961186
-2.9435625 -3.024106 1.1962959
-2.9307644 -3.0231328 1.2121538
-2.9396806 -3.0302293 1.1943619
-2.9235609 -3.0349214 1.2025145
-2.9200873 -3.0317087 1.1963655
-2.9272771 -3.0486877 1.2017797
-2.9097352 -3.0485966 1.2065461
-2.9029791 -3.0475721 1.2093487
-2.9140337 -3.0543394 1.2025898
-3.0205171 -3.1928904 1.1328056
-3.0333805 -3.1889298 1.1191245
-3.0260606 -3.1963987 1.1305349
-3.0228767 -3.1970174 1.1189612
-3.0174787 -3.2057557 1.1268021
-3.0039225 -3.2152655 1.1219561
-2.9965093 -3.2162156 1.1242257
-3.0036762 -3.2238801 1.1306754
-2.9860706 -3.2290506 1.1222321
-2.9856565 -3.2295434 1.1310985
-2.9919958 -3.2341213 1.1188444
-2.9895678 -3.236028 1.1347924
-2.9808149 -3.235086 1.1275069
-2.9806461 -3.2354376 1.1238317
-2.9720449 -3.2548745 1.1156411
-2.9555972 -3.245244 1.1221573
-2.9639895 -3.2526953 1.1319337
-2.9501064 -3.2718141 1.1182494
-2.9497678 -3.257834 1.1235923
-2.9378669 -3.2679524 1.1326338
-2.937094 -3.2689283 1.1212823
-2.9285691 -3.2720003 1.132203
-2.9240906 -3.2908494 1.128238
-2.9268918 -3.2940655 1.1280874
-2.9133627 -3.293222 1.1326598
-2.9080184 -3.300478 1.131016
-2.916152 -3.3006797 1.1260679
-2.9145036 -3.3115571 1.1261417
-3.0278966 -3.4448695 1.0457842
-3.0143852 -3.4528122 1.0379817
-3.0118265 -3.4445574 1.0533248
-3.0006132 -3.4523599 1.049711
-2.9984734 -3.4602711 1.0513564
-3.0002928 -3.4755769 1.0538882
-3.0022569 -3.461952 1.0413593
-2.9996426 -3.4675875 1.0456637
-2.9786663 -3.4859669 1.0538495
-2.9826322 -3.487314 1.0552342
-2.9665186 -3.4853129 1.0455854
-2.9722114 -3.4946208 1.0522268
-2.9657004 -3.4861963 1.0513489
-2.9638407 -3.4913905 1.0468881
-2.9655893 -3.4992831 1.0387287
-2.9456863 -3.513839 1.0394694
-2.9432459 -3.5152087 1.0380338
-2.9333289 -3.5188198 1.0551552
-2.9391015 -3.5263162 1.0380825
-2.9366825 -3.5226457 1.0438415
-2.932873 -3.5277348 1.0557735
-2.9187069 -3.5233955 1.0425626
-2.9178934 -3.53743 1.0419345
-2.9179521 -3.5344956 1.0402635
-3.0191302 -3.6804032 0.97629905
-3.0115991 -3.6892753 0.96046185
-3.0033214 -3.7006147 0.96738589
-3.0164733 -3.7069504 0.97482276
-3.0124981 -3.7039776 0.95888042
-3.0055897 -3.7035108 0.97071874
-2.9929163 -3.704165 0.96157122
-2.9883053 -3.7155893 0.96085948
-2.9768991 -3.7111421 0.97020262
-2.9861155 -3.7317011 0.96656287
-2.9769969 -3.7217276 0.96328861
-2.9732914 -3.7293804 0.97537357
-2.9654171 -3.7339194 0.96034348
-2.9506133 -3.7367795 0.96319491
-2.9483666 -3.74084 0.97322893
-2.9420567 -3.7431731 0.96793246
-2.9439025 -3.7580199 0.96617705
-2.9348903 -3.7534487 0.97718549
-2.926584 -3.76267 0.97682196
-2.9289289 -3.7663121 0.96007282
-2.9149077 -3.766046 0.9774636
-2.904155 -3.7672906 0.97136045
-2.9013119 -3.7858829 0.96487015
-3.0055315 -3.920769 0.88111848
-3.0146518 -3.9329283 0.89598894
-3.013732 -3.9440169 0.89265603
-2.9981029 -3.9421959 0.89859873
-2.9842236 -3.9366133 0.89322776
-2.9793296 -3.9479806 0.88274318
-2.9747937 -3.9469547 0.89271688
-2.9670007 -3.9571753 0.88704973
-2.9618113 -3.9619164 0.8842237
-2.9627192 -3.9690936 0.88688362
-2.9501116 -3.9737368 0.88459814
-2.9627044 -3.9729941 0.89437294
-2.9404211 -3.9768319 0.89727139
-2.9414647 -3.9905467 0.88619512
-2.9365599 -3.9958937 0.88489825
-2.9370205 -3.9818647 0.89642304
-2.9279597 -3.9888229 0.8931551
-2.9289196 -3.9935176 0.88384014
-2.9155409 -3.998558 0.89394963
-2.9049826 -4.0100474 0.8810401
-3.0196807 -4.1634169 0.80909234
-3.0085285 -4.166141 0.82057518
-3.0075955 -4.1721396 0.81235498
-3.0037584 -4.1647458 0.814547
-2.9909916 -4.1780167 0.81551123
-2.9795158 -4.1773233 0.81461602
-2.9765093 -4.19315 0.81086618
-2.9767652 -4.1955233 0.80651748
-2.9663301 -4.1901102 0.80121642
-2.9657795 -4.1997371 0.80850637
-2.9581327 -4.2017436 0.8154403
-2.9438827 -4.1984153 0.80386508
-2.938144 -4.2199774 0.81049812
-2.9406195 -4.2235317 0.80872375
-2.9208975 -4.2201538 0.81786913
-2.9202054 -4.2311416 0.81189042
-2.9204028 -4.2249694 0.81425923
-2.9043443 -4.2249055 0.81842089
-3.0167739 -4.3918705 0.73360795
-3.0101421 -4.3926888 0.74186355
-2.9962144 -4.3917298 0.73225415
-2.995347 -4.4023962 0.73010635
-2.9860489 -4.4132051 0.73052144
-2.9701118 -4.4123764 0.7314992
-2.9759436 -4.4177179 0.73996323
-2.9726238 -4.4082661 0.74154007
-2.955277 -4.4249153 0.73338121
-2.9555557 -4.431416 0.72937018
-2.9516671 -4.432117 0.73407549
-2.9340398 -4.4323187 0.74217516
-2.9281514 -4.4447317 0.73543775
-2.9318666 -4.4424214 0.72222936
-2.9177239 -4.436964 0.72239918
-2.9231603 -4.4417253 0.72757602
-2.9076135 -4.4584808 0.73158067
-3.0041144 -4.6121192 0.65065289
-2.9982998 -4.6206903 0.65577352
-3.0006385 -4.6157188 0.65853709
-2.9869823 -4.6330433 0.64473504
-2.9886148 -4.6189318 0.6548577
-2.982142 -4.6251283 0.65668529
-2.9624007 -4.641242 0.64493203
-2.955862 -4.6494212 0.66273683
-2.9491477 -4.6492505 0.65987182
-2.9372509 -4.6397519 0.64433455
-2.9413433 -4.652462 0.65326804
-2.9278126 -4.665803 0.65783662
-2.9291553 -4.6679349 0.65157348
-2.9277289 -4.6628675 0.6521734
-2.9200988 -4.6658969 0.65106362
-2.9023404 -4.6689219 0.64792711
-2.9998002 -4.8349228 0.57429194
-2.9917378 -4.8447595 0.57517487
-2.9858646 -4.8343682 0.58037114
-2.9828508 -4.8385715 0.57919937
-2.9753683 -4.8533659 0.56944215
-2.9589465 -4.8611326 0.57045889
-2.9579504 -4.8567514 0.57345027
-2.9432116 -4.8574591 0.56560582
-2.9478672 -4.8570571 0.57882035
-2.9336267 -4.8654232 0.57308847
-2.9225168 -4.8807297 0.5816673
-2.926491 -4.8747296 0.58460557
-2.9095767 -4.8896184 0.58212185
-2.9074602 -4.8882608 0.57961154
-6.1155205 -2.9826496 0.15377676
-6.1106067 -3.00366 0.15254912
-6.1129823 -3.0128326 0.15445876
-6.1048546 -3.0063965 0.15003516
-6.1048551 -3.0284228 0.14583047
-6.0987263 -3.0285628 0.16357341
-6.1025882 -3.0446022 0.15633403
-6.0839481 -3.0423872 0.15269212
-6.0961652 -3.0633318 0.16153063
-6.0790849 -3.0705426 0.15990241
-5.9050746 -2.999414 0.23490781
-5.9107304 -2.9907305 0.24026197
-5.8976026 -3.0086238 0.22499612
-5.9025531 -3.0226028 0.22471285
-5.8919163 -3.0208073 0.23094399
-5.8854723 -3.0371201 0.22557002
-5.8812737 -3.0415437 0.23268548
-5.8843031 -3.0515881 0.23053885
-5.8709631 -3.0581224 0.23596454
-5.868773 -3.071861 0.22269058
-5.8681998 -3.0804605 0.22565089
-5.7065344 -2.9929907 0.30276304
-5.7028975 -3.0022852 0.31304613
-5.6945157 -3.0207455 0.31760785
-5.6864061 -3.0127952 0.31221655
-5.6920543 -3.022639 0.29875821
-5.6830654 -3.0325339 0.30911592
-5.6869497 -3.0497191 0.31766301
-5.6729693 -3.0578365 0.3079038
-5.6735525 -3.0680478 0.31262773
-5.6673985 -3.0619812 0.31696796
-5.6582732 -3.0818303 0.31107089
-5.487288 -2.9938266 0.38105434
-5.4880681 -3.0098388 0.38334835
-5.4842758 -3.0019617 0.38155681
-5.4858642 -3.0239644 0.37787986
-5.4809003 -3.0212209 0.39226043
-5.4655676 -3.0266154 0.37740219
-5.4616771 -3.0422947 0.38236684
-5.4675355 -3.0428331 0.38505462
-5.4686589 -3.0615046 0.3817375
-5.4654317 -3.0553486 0.38649374
-5.448091 -3.0644526 0.37875575
-5.4579549 -3.0785332 0.38269001
-5.2850828 -3.0019135 0.45937899
-5.2745504 -3.001991 0.46453878
-5.2676849 -3.0213335 0.46010894
-5.2664285 -3.0095828 0.45794541
-5.2600203 -3.0181918 0.46775743
-5.2686367 -3.0369201 0.46467999
-5.2545552 -3.0410433 0.47057405
-5.2637806 -3.0462215 0.47026092
-5.2482395 -3.0583515 0.46847492
-5.2404261 -3.0646491 0.46023339
-5.2486682 -3.0628204 0.46511546
-5.2374101 -3.0746567 0.45730883
-5.0820994 -2.9900451 0.53474218
-5.0702224 -3.0019631 0.53410435
-5.0604987 -3.0117013 0.53222871
-5.0609531 -3.0142946 0.53899032
-5.0644755 -3.0270553 0.54898816
-5.0620933 -3.0333006 0.54116142
-5.0400147 -3.0282741 0.54855222
-5.0397124 -3.0397139 0.53698701
-5.0476413 -3.0436857 0.53458613
-5.0306787 -3.0606995 0.54767853
-5.0415125 -3.0655959 0.53891599
-5.0321026 -3.0628042 0.54533118
-5.0233207 -3.0744884 0.54909819
-5.0164046 -3.0908363 0.53735602
-4.8656979 -2.9980474 0.61713052
-4.8621383 -3.0037644 0.62053287
-4.846396 -3.0116415 0.61602801
-4.8432531 -3.0234649 0.60714388
-4.831666 -3.0274761 0.62134236
-4.8424702 -3.0187931 0.62557548
-4.8401728 -3.0252225 0.61195487
-4.8266287 -3.0465302 0.60816234
-4.8266597 -3.0433538 0.61971617
-4.8229141 -3.0575688 0.62194675
-4.8109016 -3.0624142 0.60710686
-4.8163042 -3.0678914 0.61334342
-4.798295 -3.0818276 0.61849034
-4.8047814 -3.0768321 0.61859536
-4.8001423 -3.0844696 0.62146473
-4.6463399 -2.9869964 0.69698608
-4.6433907 -2.9913936 0.69564265
-4.6340528 -3.0064952 0.69974953
-4.6284986 -3.0058858 0.69378489
-4.6313815 -3.0257988 0.70035106
-4.6120248 -3.0179763 0.68881202
-4.6074991 -3.0398426 0.69852972
-4.6167274 -3.0479956 0.7010392
-4.6008 -3.0469401 0.69526637
-4.6047587 -3.0455604 0.68857205
-4.6058393 -3.0496578 0.68591601
-4.5885882 -3.0749991 0.68535054
-4.5926719 -3.0752048 0.69616526
-4.5926399 -3.0740681 0.69406515
-4.5785632 -3.0800343 0.69852203
-4.5779114 -3.0908732 0.69726568
-4.4161096 -2.9978437 0.77780032
-4.4174061 -3.0016584 0.77943504
-4.4161849 -3.0138021 0.7685715
-4.4007273 -3.0141702 0.76552808
-4.3919559 -3.0198929 0.76482171
-4.4058318 -3.0326486 0.76520246
-4.4002643 -3.0337803 0.77179968
-4.3838739 -3.039181 0.76595026
-4.389575 -3.0348158 0.78054494
-4.3708105 -3.0541182 0.77070493
-4.3732939 -3.0486271 0.77671158
-4.3724332 -3.068625 0.7650829
-4.3699288 -3.0716023 0.76748371
-4.3582802 -3.0833321 0.77568394
-4.3496661 -3.0705085 0.76432282
-4.3617496 -3.0957873 0.76636177
-4.3534441 -3.0997343 0.77341872
-4.188354 -2.984359 0.85841781
-4.1994338 -3.0059032 0.85672092
-4.1959105 -2.9929442 0.8418535
-4.182219 -3.0067384 0.83860308
-4.1825128 -3.0239501 0.84147465
-4.1744266 -3.0229447 0.84748274
-4.1639318 -3.0345857 0.8478691
-4.1652288 -3.0219166 0.84718114
-4.1578784 -3.0456436 0.84731013
-4.1484814 -3.0453861 0.84958208
-4.152019 -3.0545468 0.84613758
-4.1477485 -3.0589752 0.84701705
-4.1451669 -3.0640764 0.84671783
-4.1374445 -3.0596905 0.83848101
-4.1329646 -3.0798109 0.8388831
-4.1256051 -3.076066 0.8461352
-4.1322293 -3.0860555 0.84758502
-4.1184592 -3.0815787 0.8475368
-4.1253691 -3.0939968 0.84958845
-3.9648585 -2.9901497 0.93491781
-3.9695065 -3.0050175 0.91970235
-3.9575913 -2.9998844 0.92586768
-3.9447887 -3.0164475 0.93273491
-3.9522779 -3.0095744 0.92978507
-3.9479959 -3.0225153 0.93250602
-3.9433043 -3.0323987 0.92475682
-3.9313529 -3.0332162 0.93279731
-3.9379439 -3.0245819 0.93108755
-3.9245753 -3.0471833 0.92272669
-3.9291477 -3.0408919 0.93285257
-3.9255822 -3.0434351 0.93366015
-3.9172242 -3.0582581 0.92514426
-3.9026935 -3.064481 0.92560273
-3.9012878 -3.062403 0.91846609
-3.9028244 -3.080261 0.92391449
-3.9016323 -3.0776529 0.92499954
-3.8881817 -3.0873268 0.93078101
-3.8866832 -3.0878325 0.93070507
-3.8868868 -3.0992184 0.93352968
-3.8754437 -3.0994327 0.92814207
-3.7299049 -2.9849541 1.0029006
-3.7276742 -3.0015798 1.0111213
-3.7339523 -3.0079539 0.99859738
-3.7197647 -2.9972095 0.99362379
-3.7127063 -3.0122967 0.99625856
-3.7201924 -3.0104938 1.0069617
-3.7065861 -3.0195503 0.9934454
-3.707191 -3.031426 1.0048716
-3.7078648 -3.0278304 1.0103543
-3.6857066 -3.0371244 1.0010587
-3.6889288 -3.0491819 0.99628055
-3.6945846 -3.0431955 1.0000999
-3.6920125 -3.0476811 1.0027623
-3.681957 -3.06218 1.0013804
-3.6768677 -3.0538292 1.0101172
-3.6691368 -3.0771801 1.0058564
-3.6706955 -3.0711477 0.9977327
-3.6657631 -3.0699503 1.0029212
-3.6493976 -3.0736639 0.99688739
-3.6475422 -3.0794642 1.0067357
-3.6549752 -3.0927386 1.0096964
-3.6471794 -3.0959277 1.0038077
-3.6355569 -3.1008108 0.99859154
-3.6412649 -3.0999117 1.0040284
-3.4883323 -2.9980545 1.0801617
-3.4868391 -2.9927082 1.0808849
-3.4895999 -3.0132158 1.072775
-3.4804778 -3.0130935 1.0709907
-3.4661601 -3.0209153 1.0706147
-3.4778695 -3.011198 1.0895547
-3.4597239 -3.0132375 1.0803304
-3.458611 -3.031812 1.0730212
-3.4633799 -3.0231018 1.0859269
-3.4533579 -3.0444448 1.0848235
-3.4578927 -3.0372229 1.0705135
-3.4434865 -3.0526991 1.0864341
-3.4483502 -3.0551343 1.0867256
-3.4413171 -3.0526521 1.0720119
-3.4360616 -3.0600643 1.0743434
-3.4311755 -3.0634043 1.0712532
-3.4273427 -3.072824 1.0709782
-3.4127276 -3.0853629 1.0769778
-3.4054148 -3.0869093 1.0765308
-3.4051898 -3.0826795 1.0795778
-3.4060614 -3.0872366 1.0746782
-3.4012363 -3.1016467 1.0791276
-3.4004841 -3.105186 1.0859611
-3.3994336 -3.1059649 1.0800902
-3.3930902 -3.1057677 1.0716145
-3.384409 -3.1049702 1.0846003
-3.2432485 -2.99948 1.1501608
-3.2380941 -2.9886372 1.1507729
-3.2269332 -2.9947879 1.154622
-3.2362134 -3.0050261 1.147478
-3.2224402 -3.0204558 1.1605483
-3.2135603 -3.0153863 1.163974
-3.2202249 -3.0138977 1.1486195
-3.2200494 -3.0156977 1.1572392
-3.2057385 -3.0355008 1.1508033
-3.1998973 -3.0309749 1.1499059
-3.2010639 -3.0452106 1.1540812
-3.1938629 -3.0384824 1.1536391
-3.1860435 -3.0447912 1.1515802
-3.1943688 -3.0445838 1.1638108
-3.189832 -3.0548129 1.165134
-3.1722186 -3.0603786 1.1560427
-3.1711731 -3.0568309 1.1529505
-3.1654761 -3.077337 1.1525625
-3.1711531 -3.0677671 1.1568698
-3.1632597 -3.0765975 1.1501956
-3.1562576 -3.090842 1.1537724
-3.1450741 -3.0821395 1.1485577
-3.1543264 -3.0898776 1.161509
-3.1456316 -3.0902076 1.1591367
-3.1447001 -3.1102734 1.1509979
-3.1424389 -3.0970042 1.1617503
-3.1292632 -3.1069746 1.1605009
-3.1191735 -3.1155393 1.1631905
-3.1294656 -3.1140783 1.1598885
-2.985059 -2.9984906 1.2293881
-2.9778883 -2.9905655 1.2318708
-2.9871349 -2.9957733 1.2274767
-2.9815905 -3.0145559 1.2397592
-2.9630888 -3.0089719 1.2361203
-2.9669535 -3.0067911 1.2368186
-2.9589515 -3.0266902 1.2351823
-2.960191 -3.0177603 1.2279661
-2.9626744 -3.0230937 1.2365695
-2.9424622 -3.0230784 1.2310123
-2.9455464 -3.0334072 1.2348778
-2.9363244 -3.0407541 1.2308522
-2.9446139 -3.0415423 1.2257973
-2.9372916 -3.0409868 1.2261323
-2.9376812 -3.0461359 1.2362176
-2.9217038 -3.0593619 1.2326446
-2.9250226 -3.048804 1.233327
-2.909972 -3.0637095 1.2270885
-2.9221318 -3.0653276 1.2396593
-2.9056826 -3.0709693 1.2363826
-3.0214744 -3.2180629 1.1497091
-3.0265181 -3.2062311 1.1570131
-3.0155814 -3.2269416 1.1476479
-3.0096936 -3.2245877 1.1629516
-3.0034649 -3.2268872 1.1572134
-3.0071452 -3.237479 1.1623505
-2.9943926 -3.2356648 1.1621411
-3.0009515 -3.2430809 1.1511155
-2.9937432 -3.2469435 1.1625551
-2.9939582 -3.2386491 1.1524305
-2.9774442 -3.2437549 1.1534106
-2.9903984 -3.2583954 1.1504644
-2.9760432 -3.2665963 1.1510439
-2.9710472 -3.2734125 1.1582068
-2.9707415 -3.2585087 1.1472934
-2.9561684 -3.2717996 1.1500052
-2.9564521 -3.2768588 1.158742
-2.9569397 -3.2730031 1.1642667
-2.948447 -3.2864716 1.1501269
-2.948509 -3.2846932 1.1484733
-2.9386897 -3.2909448 1.165899
-2.9278846 -3.2947006 1.1528631
-2.9400201 -3.3086565 1.155799
-2.9315703 -3.3021779 1.156085
-2.9159517 -3.2999609 1.1554347
-2.9112411 -3.3077438 1.1656467
-2.9038126 -3.3203893 1.1549467
-2.9076421 -3.3181071 1.1522428
-3.0272915 -3.4708984 1.0830054
-3.0195303 -3.4695411 1.0768734
-3.0134168 -3.4629662 1.0886112
-3.0098717 -3.4701939 1.0807084
-2.9993567 -3.4741697 1.082958
-3.0058999 -3.4943147 1.0757883
-2.992151 -3.4834659 1.074931
-2.9990468 -3.4925363 1.07038
-2.9757247 -3.4988146 1.077266
-2.9830968 -3.4935637 1.0705105
-2.9731669 -3.5112588 1.0740092
-2.9752693 -3.5060401 1.0830976
-2.9634981 -3.5195608 1.0829864
-2.9599831 -3.5143952 1.0798664
-2.9643652 -3.5235794 1.0769826
-2.9464922 -3.5241776 1.0781591
-2.9357829 -3.5359032 1.0743829
-2.945925 -3.5394073 1.0857278
-2.9406126 -3.5444772 1.0749793
-2.9284081 -3.5418134 1.0736597
-2.9229538 -3.5541193 1.0788158
-2.9139948 -3.5534337 1.0733552
-2.915942 -3.5658879 1.0785311
-2.9179945 -3.5597446 1.0730232
-3.0197875 -3.7058702 1.0052754
-3.0076327 -3.7162504 0.99826556
-3.0142953 -3.7208557 1.0036597
-3.0047286 -3.7205431 1.009673
-3.0038106 -3.7198639 0.99473226
-2.9936357 -3.7319322 1.0065645
-2.9847744 -3.7235029 1.0101929
-2.990751 -3.7310779 0.99860227
-2.9821825 -3.7455685 0.9986456
-2.9684322 -3.747086 1.0089135
-2.9601839 -3.7587502 1.0000939
-2.9624786 -3.7434452 1.0051242
-2.9517772 -3.7599943 1.0097722
-2.9556758 -3.7521734 0.9989481
-2.9535556 -3.7686379 0.99301159
-2.9463704 -3.7601364 0.99920803
-2.9473469 -3.7679884 0.99802738
-2.9246893 -3.7870376 0.99345833
-2.9336166 -3.7827449 0.99857777
-2.9224951 -3.7899339 1.0063516
-2.9210997 -3.7941132 1.0066255
-2.9085181 -3.785831 1.006362
-2.9109008 -3.7920971 0.99369913
-3.0206058 -3.9541516 0.91580051
-3.0089483 -3.9528692 0.92277163
-3.0032215 -3.9496679 0.9223721
-2.9912922 -3.9527159 0.91824108
-3.0005379 -3.9583845 0.9191739
-2.9943466 -3.9782646 0.92850518
-2.9830301 -3.9723127 0.93474555
-2.9839339 -3.9702606 0.92089772
-2.9645581 -3.9809282 0.91941565
-2.96544 -3.9792852 0.91574353
-2.9589789 -4.0006838 0.92071974
-2.9532115 -3.9959474 0.93119591
-2.9404671 -3.9910133 0.92908293
-2.9481165 -3.9996846 0.92812395
-2.9398913 -4.0031419 0.92569047
-2.9307275 -4.0059547 0.92756355
-2.9322267 -4.0230031 0.91956729
-2.9274797 -4.0265136 0.91779393
-2.916575 -4.0162115 0.92951608
-2.9071465 -4.0323615 0.92703664
-3.0092227 -4.1773295 0.85010725
-2.9982696 -4.1925578 0.83925301
-2.9968345 -4.1806288 0.85746497
-2.9975066 -4.2019415 0.85112977
-2.9791317 -4.2006273 0.84545344
-2.9831846 -4.1957531 0.84107292
-2.9653585 -4.1979876 0.8437447
-2.9755228 -4.2010908 0.84699893
-2.9674547 -4.2189097 0.84463978
-2.9476585 -4.2129273 0.85020787
-2.950336 -4.2268152 0.84458095
-2.952738 -4.2355976 0.84793735
-2.9459887 -4.2287979 0.84742647
-2.9410214 -4.228529 0.84979826
-2.9223838 -4.2357502 0.85767156
-2.9294167 -4.2528944 0.8545981
-2.9208243 -4.2580895 0.85346079
-2.9095545 -4.2593307 0.85338306
-2.9990671 -4.4107585 0.76244122
-3.0066781 -4.4160628 0.77882707
-2.9887149 -4.4099441 0.76546282
-2.9963729 -4.4121327 0.76744604
-2.9806688 -4.4334822 0.78035045
-2.9854696 -4.4357815 0.77763677
-2.9678926 -4.425365 0.77180672
-2.9624369 -4.4279099 0.77292871
-2.9600487 -4.4477959 0.77294403
-2.9587917 -4.4423513 0.77579778
-2.937607 -4.4483228 0.76366168
-2.9301593 -4.4480681 0.77042967
-2.9263198 -4.4560204 0.76751614
-2.9358389 -4.4578056 0.7666055
-2.9233689 -4.470068 0.76852763
-2.917989 -4.4733186 0.77232456
-2.9153171 -4.4651847 0.77070296
-2.9988661 -4.632586 0.69349402
-3.0006745 -4.6291509 0.69774616
-2.9824617 -4.6506691 0.69158179
-2.9813893 -4.6372185 0.7035768
-2.9724474 -4.6425409 0.69994795
-2.9767315 -4.6502514 0.69248021
-2.9639232 -4.6537132 0.68733138
-2.9520199 -4.6709442 0.69401592
-2.9581888 -4.6690397 0.70153725
-2.9405549 -4.6707129 0.70127064
-2.9445367 -4.6817937 0.69246471
-2.9285226 -4.6811609 0.69129443
-2.9282508 -4.6887989 0.69279778
-2.9141374 -4.6818533 0.69193465
-2.9080234 -4.692461 0.68992245
-3.0026658 -4.8507152 0.60716528
-2.9874179 -4.8659415 0.62230045
-2.997313 -4.8557773 0.62435097
-2.9805176 -4.8582993 0.61244339
-2.9761951 -4.8697114 0.62299067
-2.9721334 -4.8716345 0.62657571
-2.956872 -4.884079 0.61490339
-2.962775 -4.8827925 0.61969393
-2.9471688 -4.8939395 0.61552137
-2.9324198 -4.8855243 0.62482339
-2.9396775 -4.9011765 0.61680597
-2.9324872 -4.9083638 0.61776131
-2.9101562 -4.9122343 0.61307108
-2.9057691 -4.9061046 0.61003923
-6.342443 -2.9959624 0.13532642
-6.3476877 -3.0089703 0.13501371
-6.3347163 -3.0195177 0.13681409
-6.3270674 -3.0162826 0.12231164
-6.3349166 -3.0312946 0.12830615
-6.3321786 -3.0365787 0.12377658
-6.3227739 -3.0449126 0.13268153
-6.326714 -3.0503385 0.12427818
-6.321435 -3.0692439 0.12547335
-6.1502128 -2.9981766 0.20285955
-6.1391759 -2.9901042 0.20929565
-6.1373897 -3.0114689 0.21159966
-6.1359038 -3.0240664 0.21222617
-6.132606 -3.0332322 0.20495184
-6.1237984 -3.0344765 0.21152361
-6.128984 -3.0372245 0.20166354
-6.1186876 -3.0548224 0.2123158
-6.1194744 -3.0606267 0.20638235
-6.1086526 -3.0654309 0.21037789
-5.9314332 -2.9862213 0.28901076
-5.9379716 -3.0033557 0.2884576
-5.9380622 -3.0029058 0.27512413
-5.9158373 -3.0251844 0.27777138
-5.9129744 -3.0283909 0.27982551
-5.9173737 -3.0270278 0.28920195
-5.9151902 -3.0351007 0.28439087
-5.9028554 -3.0571389 0.27053672
-5.8998561 -3.0642378 0.27942699
-5.9027791 -3.0648005 0.27205592
-5.7376857 -2.9919119 0.36485839
-5.7339258 -2.9952455 0.3529779
-5.7307081 -3.0028741 0.34984159
-5.7208128 -3.0124941 0.35271519
-5.7082586 -3.0234785 0.36066476
-5.7136393 -3.023102 0.35825402
-5.7096324 -3.0447929 0.35604107
-5.7104259 -3.0384109 0.36005455
-5.7050619 -3.0533037 0.365228
-5.6907964 -3.0554051 0.35809162
-5.6838913 -3.0607193 0.34637073
-5.6800208 -3.086462 0.35932821
-5.5254698 -3.0047312 0.42851168
-5.5167179 -3.0055444 0.44022664
-5.5050817 -3.0180259 0.42895126
-5.5054851 -3.0201211 0.42604068
-5.5082884 -3.0224543 0.42942175
-5.4932942 -3.0298359 0.42716131
-5.4942756 -3.0361204 0.43797839
-5.4900727 -3.0524173 0.43465865
-5.4729958 -3.066098 0.43398324
-5.4876289 -3.0602083 0.43551746
-5.4692936 -3.0666292 0.43827349
-5.3164406 -2.9975548 0.50377864
-5.3131614 -2.9917703 0.50866145
-5.3011475 -3.0106091 0.49915069
-5.2920337 -3.0164824 0.51500285
-5.2995286 -3.0116029 0.51116323
-5.2892733 -3.0319571 0.5087232
-5.2881908 -3.0323715 0.49766424
-5.2704177 -3.0399826 0.50059676
-5.2733097 -3.0465112 0.49708506
-5.2746572 -3.0589998 0.51481277
-5.2732382 -3.0641139 0.49832729
-5.2621527 -3.070138 0.51504964
-5.2661743 -3.0883479 0.5003503
-5.1002007 -2.9878023 0.58303791
-5.097991 -2.9926009 0.58216184
-5.0796113 -3.0113754 0.58833122
-5.083662 -3.0133085 0.58147979
-5.0787611 -3.0217199 0.57440501
-5.0709181 -3.0372853 0.58818346
-5.066577 -3.03847 0.57684898
-5.0644984 -3.0425184 0.58777052
-5.0588951 -3.0597737 0.58003163
-5.0565596 -3.0653534 0.58144069
-5.0489135 -3.068768 0.57689548
-5.054419 -3.0741656 0.57467484
-5.0407906 -3.0853853 0.58079708
-5.0409827 -3.0848677 0.59209758
-4.8703856 -2.9867203 0.65794092
-4.8646202 -3.0016928 0.6594699
-4.8650665 -3.0165663 0.66690773
-4.8568377 -3.0136125 0.65738499
-4.8576779 -3.0293176 0.65768874
-4.8462477 -3.0269585 0.65948868
-4.8533988 -3.041235 0.66494381
-4.8450856 -3.0453081 0.6520654
-4.8389835 -3.0400538 0.65502489
-4.8467503 -3.0593026 0.66555393
-4.8432064 -3.069906 0.66432494
-4.829659 -3.078939 0.65494317
-4.8345728 -3.0726228 0.65750194
-4.8120394 -3.0822921 0.64982229
-4.6633139 -2.9970112 0.7290886
-4.6501203 -3.0043299 0.74166131
-4.655118 -3.0030422 0.72674787
-4.6546512 -3.0176938 0.73454571
-4.6470542 -3.0105047 0.73437625
-4.636488 -3.0153534 0.74173039
-4.6353841 -3.0209389 0.7252475
-4.6355 -3.0372667 0.72649223
-4.6249886 -3.0428078 0.74080753
-4.6319098 -3.0501244 0.73220205
-4.6265011 -3.0487392 0.7356059
-4.6176662 -3.0583484 0.73821026
-4.6162491 -3.077152 0.7286154
-4.6097369 -3.079695 0.73087639
-4.5954175 -3.0788558 0.72682774
-4.6012588 -3.0916748 0.74442601
-4.4463043 -2.9841561 0.81877714
-4.441401 -3.0042484 0.80743545
-4.4352441 -2.9980805 0.81703043
-4.4347634 -3.0030942 0.80578059
-4.4228797 -3.006969 0.80238181
-4.4275832 -3.0262871 0.81583375
-4.4096737 -3.0284758 0.81693584
-4.4013505 -3.0284486 0.80194277
-4.410758 -3.0384076 0.8142308
-4.4042053 -3.0385225 0.82013571
-4.4000454 -3.0614388 0.81652218
-4.3973751 -3.0636394 0.81902605
-4.3860373 -3.0638797 0.81390136
-4.3850965 -3.0678444 0.8099609
-4.3753967 -3.0841389 0.80833775
-4.3690872 -3.0893595 0.81358266
-4.3693171 -3.0809016 0.80281901
-4.3684363 -3.0883601 0.81825686
-4.2117562 -3.0021842 0.88575268
-4.2137136 -3.0007918 0.88344741
-4.2097578 -2.9995055 0.88438231
-4.1894073 -3.0198226 0.88926697
-4.1865449 -3.0130851 0.88005579
-4.1887984 -3.0296979 0.89301836
-4.1949849 -3.020911 0.89581895
-4.182786 -3.0301228 0.87952542
-4.1853342 -3.0438817 0.8778103
-4.1786375 -3.0410852 0.89475095
-4.1764951 -3.0567267 0.87668598
-4.1626973 -3.0585179 0.88590521
-4.151197 -3.0605543 0.8822968
-4.1587529 -3.0664489 0.88425124
-4.1614165 -3.0736983 0.87881744
-4.1532836 -3.0874269 0.88263911
-4.1521792 -3.0915751 0.88111025
-4.1482668 -3.0877662 0.89622599
-4.1406393 -3.0907552 0.88343352
-3.986834 -3.0000539 0.95513076
-3.9841206 -3.0025218 0.9611764
-3.9794645 -2.9954665 0.97126335
-3.9655812 -3.0011933 0.9651407
-3.9752986 -3.0187671 0.95894402
-3.9630539 -3.0233035 0.97131276
-3.9562352 -3.0240135 0.95576155
-3.9455869 -3.0279346 0.96186477
-3.95646 -3.0322661 0.95757347
-3.9522095 -3.0533018 0.95608371
-3.9407439 -3.0527565 0.95982796
-3.9334219 -3.0536897 0.96667635
-3.9400468 -3.0541661 0.96614623
-3.9365768 -3.0649669 0.96544963
-3.9192219 -3.0697002 0.95273358
-3.928056 -3.0864117 0.96102965
-3.9245138 -3.0805349 0.95415831
-3.9165149 -3.0882487 0.96890259
-3.9024055 -3.0910814 0.96484601
-3.8925796 -3.0939174 0.96527869
-3.9042356 -3.109549 0.97177553
-3.7475798 -2.9865887 1.0387008
-3.7487898 -2.9898677 1.0348078
-3.7305224 -3.0139616 1.045615
-3.7329443 -3.004993 1.0371838
-3.7280748 -3.0091584 1.0375301
-3.7349021 -3.0140893 1.0292358
-3.7285933 -3.035337 1.0387049
-3.7275331 -3.026798 1.0308121
-3.7105222 -3.0327637 1.0455482
-3.7130713 -3.0347238 1.0301111
-3.7091165 -3.048934 1.0475477
-3.6940777 -3.0485461 1.0469501
-3.7029247 -3.0540903 1.0474977
-3.7009573 -3.0662627 1.0422472
-3.6874139 -3.0577798 1.0380583
-3.693517 -3.0803452 1.0341598
-3.6879072 -3.0808303 1.034229
-3.672821 -3.0844913 1.028047
-3.6656206 -3.0953839 1.0411026
-3.6636767 -3.0930762 1.0373958
-3.6571629 -3.0910709 1.0446705
-3.6532054 -3.0982914 1.0375187
-3.6498382 -3.0986309 1.0300027
-3.5051403 -3.0011609 1.1113367
-3.5066297 -2.9943588 1.1104727
-3.492301 -2.9979534 1.112205
-3.5018642 -3.0002394 1.118608
-3.4913509 -3.0117476 1.1065
-3.4870131 -3.0203702 1.1086429
-3.4896128 -3.0313718 1.1182314
-3.4759126 -3.0201893 1.1149569
-3.4749308 -3.029386 1.1095874
-3.4810939 -3.0395594 1.1089978
-3.4747663 -3.0501618 1.1108705
-3.4629467 -3.0464442 1.1044563
-3.4519844 -3.0525949 1.1193522
-3.4592829 -3.0525129 1.1168615
-3.4401715 -3.0661287 1.107756
-3.4531617 -3.0596242 1.1149151
-3.4440019 -3.0799441 1.1159542
-3.4452472 -3.0707951 1.1130513
-3.4297602 -3.084902 1.1058216
-3.4196358 -3.0894172 1.1132823
-3.4300945 -3.0918567 1.1149983
-3.4186738 -3.0867348 1.1052839
-3.4136605 -3.0949156 1.1142645
-3.4137447 -3.0946672 1.1081671
-3.4163129 -3.099586 1.1132879
-3.40798 -3.1217804 1.109741
-3.2561579 -2.9939559 1.1865449
-3.2597883 -2.9966366 1.1814653
-3.2463152 -3.008136 1.1870885
-3.2400656 -3.0138237 1.1930004
-3.2463489 -3.0142894 1.181271
-3.2309096 -3.0076604 1.1994551
-3.2451787 -3.0203505 1.1942441
-3.2304606 -3.0174642 1.1940615
-3.2218339 -3.0214918 1.1937337
-3.22808 -3.0415392 1.1959791
-3.2178667 -3.0304472 1.1856591
-3.2066917 -3.0471766 1.1972234
-3.2205901 -3.0546303 1.1818477
-3.2088592 -3.0600381 1.1853375
-3.21121 -3.055939 1.1929094
-3.2052839 -3.0606172 1.1916519
-3.2011676 -3.0637872 1.1822401
-3.1822557 -3.0764685 1.1802447
-3.1835206 -3.084758 1.1987453
-3.1851068 -3.0835352 1.1817166
-3.1844413 -3.0763471 1.1802919
-3.1740899 -3.0822382 1.186644
-3.1721678 -3.0862885 1.1900425
-3.1656153 -3.1028743 1.1925275
-3.1555667 -3.1060841 1.1835998
-3.1579401 -3.1076472 1.1944761
-3.1415648 -3.1093793 1.1866587
-3.1545951 -3.1164916 1.1906307
-3.1496148 -3.1291666 1.1907772
-3.014982 -2.9971647 1.2724534
-3.0086999 -2.9991922 1.2699213
-3.0038366 -2.9951851 1.2659444
-2.9926155 -3.0135791 1.2623574
-2.9979899 -3.0097497 1.2666185
-2.9808733 -3.0202072 1.2720981
-2.9726787 -3.0173798 1.2604364
-2.9736018 -3.0225248 1.2714586
-2.9823365 -3.025054 1.2597784
-2.9670937 -3.026963 1.259827
-2.9716985 -3.0297511 1.2657079
-2.95047 -3.030447 1.2737697
-2.9517674 -3.0504754 1.2700413
-2.9570365 -3.0434842 1.2721159
-2.9458866 -3.0460751 1.2622108
-2.95047 -3.0557625 1.2660334
-2.9295678 -3.0614748 1.2568625
-2.9403217 -3.072335 1.2667199
-2.9200475 -3.0761609 1.2582154
-2.9314477 -3.0689805 1.2719634
-2.9227939 -3.070647 1.2670788
-2.9082534 -3.0753334 1.2656479
-2.9056454 -3.0855713 1.2683321
-2.9067597 -3.0853379 1.2621453
-3.0324917 -3.233108 1.1816505
-3.0212369 -3.2350216 1.1914427
-3.0261536 -3.2403097 1.1796426
-3.0202353 -3.2406342 1.1810958
-3.0044539 -3.2449729 1.1828312
-3.0171709 -3.2450058 1.1958487
-2.996134 -3.2606845 1.1912954
-2.9999759 -3.2661278 1.1861455
-2.9852431 -3.2532744 1.1948415
-2.9878199 -3.2658522 1.1878486
-2.9765778 -3.2617867 1.192045
-2.9899757 -3.2709827 1.1985703
-2.9735758 -3.2696183 1.1840434
-2.9689701 -3.286864 1.1934217
-2.9629054 -3.2928624 1.1826849
-2.9550993 -3.2961178 1.1961322
-2.9542701 -3.3028827 1.1981115
-2.9579885 -3.2980411 1.1988518
-2.946851 -3.3030245 1.1966436
-2.9470115 -3.3151484 1.1860491
-2.9341593 -3.3205993 1.1837056
-2.9371049 -3.3240237 1.1963445
-2.9335196 -3.3156292 1.1945204
-2.9244554 -3.3272159 1.1996167
-2.9260073 -3.3373308 1.1828743
-2.9182899 -3.3242381 1.1870295
-2.9171197 -3.3349204 1.1885666
-3.0354884 -3.4734981 1.1232368
-3.0313923 -3.4861567 1.1129062
-3.0094986 -3.483597 1.1145793
-3.0181932 -3.4928126 1.1149222
-3.0092256 -3.4896064 1.1159552
-3.0076132 -3.5074534 1.1094906
-3.0078192 -3.5008805 1.1155407
-3.0029228 -3.5005095 1.1155713
-2.9947629 -3.5170767 1.112783
-2.9824421 -3.5171354 1.1233941
-2.9885783 -3.5187058 1.1190701
-2.9641898 -3.5210478 1.1063259
-2.9701259 -3.5263698 1.1203729
-2.9543834 -3.5252659 1.1094294
-2.958292 -3.5400798 1.1059098
-2.9611619 -3.5381727 1.1087545
-2.9504905 -3.5413687 1.1223763
-2.953763 -3.5445714 1.1205668
-2.9369996 -3.544523 1.1063806
-2.9430187 -3.5570686 1.1163195
-2.9384208 -3.5606709 1.1088649
-2.9181411 -3.564811 1.1232382
-2.9106002 -3.5798194 1.1164527
-2.9090064 -3.5840232 1.1149272
-2.9183505 -3.5770795 1.1227369
-3.0277872 -3.721678 1.0407474
-3.0175941 -3.737 1.0355462
-3.013773 -3.7405558 1.0312707
-3.0117555 -3.7323143 1.0311654
-3.0039186 -3.7350643 1.0426289
-2.9861367 -3.7381945 1.0345979
-2.9958036 -3.7460287 1.0465274
-2.9910915 -3.7513113 1.0475421
-2.9731591 -3.7599955 1.0284398
-2.9767461 -3.7630243 1.040361
-2.9725177 -3.7639174 1.0354795
-2.9544241 -3.7798305 1.0395043
-2.9615262 -3.7771411 1.0441946
-2.9528978 -3.7776594 1.0413399
-2.9443691 -3.7755711 1.0399418
-2.944371 -3.7809374 1.0396128
-2.9323983 -3.8012133 1.0356412
-2.9284902 -3.8020251 1.0305716
-2.9235618 -3.8101583 1.040995
-2.9177299 -3.8071382 1.0325595
-2.919971 -3.8051555 1.0473931
-2.907088 -3.8103509 1.0304689
-3.0222845 -3.9751608 0.96453285
-3.0204694 -3.9695463 0.95806777
-3.001503 -3.9806917 0.95782387
-3.0039289 -3.977133 0.95633906
-2.9866779 -3.9869018 0.95869666
-2.9933927 -3.9780681 0.96435326
-2.9851711 -3.9896176 0.96597993
-2.9865203 -4.0006523 0.9547224
-2.9762993 -3.9992509 0.96953595
-2.9712389 -4.0102949 0.96323526
-2.9630966 -4.0097599 0.96343356
-2.9650359 -4.0129552 0.9534688
-2.9534347 -4.0227356 0.95657349
-2.9420714 -4.0204992 0.96744359
-2.9321873 -4.0265751 0.95274425
-2.93994 -4.0249348 0.97106987
-2.9220302 -4.040648 0.9620297
-2.922488 -4.0432911 0.96613061
-2.9141977 -4.0412993 0.95580083
-2.911088 -4.0398397 0.95858705
-3.0222287 -4.2061443 0.89021194
-3.0050001 -4.2098346 0.87863469
-2.9977305 -4.2075329 0.88141364
-2.9873502 -4.2194834 0.89055777
-2.986094 -4.2071705 0.877747
-2.979531 -4.2282367 0.89068973
-2.974637 -4.2170258 0.89202458
-2.9787772 -4.2319107 0.89481384
-2.9588106 -4.2241492 0.88368404
-2.9691679 -4.2389274 0.87809551
-2.9567335 -4.2425461 0.8805843
-2.9568193 -4.234807 0.88359916
-2.9484768 -4.2456751 0.89312381
-2.9373496 -4.2520452 0.89489806
-2.9370725 -4.2630477 0.89317673
-2.9296005 -4.2533817 0.8945725
-2.9091799 -4.2647219 0.89135444
-2.9074187 -4.266108 0.87741846
-3.0070069 -4.4264131 0.81955409
-3.0133612 -4.4301643 0.80691063
-3.0052984 -4.4274039 0.81479061
-2.9947407 -4.4306583 0.81454337
-2.9811625 -4.4515052 0.80755371
-2.9780536 -4.4471645 0.81831092
-2.9731648 -4.448493 0.80217451
-2.9699914 -4.4483008 0.81980473
-2.9654164 -4.4536457 0.81018722
-2.9640539 -4.4631929 0.8032676
-2.9566214 -4.4741526 0.81309241
-2.9511988 -4.4776549 0.80337834
-2.9384139 -4.4792886 0.80062842
-2.9377432 -4.4765644 0.81881922
-2.9173141 -4.4864674 0.82034999
-2.9238689 -4.4794736 0.81039912
-2.9196608 -4.4938078 0.80328906
-3.0120678 -4.6465945 0.72468263
-3.0061374 -4.6657734 0.74073172
-2.9898188 -4.6698236 0.73137689
-2.9804139 -4.6726818 0.73519653
-2.9811783 -4.6763635 0.7396394
-2.9716508 -4.673512 0.72656572
-2.9648676 -4.6762471 0.74032432
-2.959888 -4.6848164 0.72827911
-2.9533715 -4.6862097 0.72731853
-2.9368002 -4.6896696 0.7361052
-2.9473333 -4.6913319 0.73158062
-2.9406183 -4.6935673 0.73208183
-2.9178483 -4.7059932 0.732728
-2.9244277 -4.7155285 0.73470223
-2.9071815 -4.7123489 0.73717189
-3.0026946 -4.8636413 0.65081245
-2.9938481 -4.8773451 0.66172522
-2.9912369 -4.8726072 0.66821831
-2.9806652 -4.8878961 0.65745878
-2.9710484 -4.8931632 0.66737092
-2.9726388 -4.8955183 0.65974259
-2.9587481 -4.8977189 0.65399194
-2.9643502 -4.9037166 0.65991956
-2.9493005 -4.9028654 0.66040641
-2.932271 -4.911346 0.66815835
-2.932766 -4.9047151 0.66616702
-2.9237659 -4.9160471 0.65467435
-2.9238472 -4.9115834 0.65211284
-2.9174297 -4.9233685 0.65844584
-2.9017661 -4.9323635 0.66368598
-6.5726581 -3.0146942 0.11028538
-6.5571761 -3.0072474 0.11404917
-6.5581913 -3.0156653 0.10639544
-6.5500603 -3.0419025 0.11408977
-6.5615625 -3.053596 0.11415213
-6.5412202 -3.0566075 0.11099597
-6.3742795 -2.989013 0.18739919
-6.3685045 -3.0111451 0.17519765
-6.3733325 -3.0084596 0.17992337
-6.3678288 -3.0100765 0.18247928
-6.3480325 -3.0204246 0.181666
-6.3444595 -3.0360141 0.18161297
-6.3485284 -3.0477114 0.18449512
-6.3448901 -3.0551624 0.18485007
-6.3411775 -3.055366 0.18147321
-6.1678019 -2.9899015 0.25162587
-6.1673336 -2.9906201 0.24501649
-6.1649446 -3.0097563 0.2451831
-6.1547456 -3.0179253 0.25693724
-6.1598082 -3.0248077 0.25597072
-6.142303 -3.0361235 0.25354645
-6.1455994 -3.0481083 0.24441707
-6.1289363 -3.0484164 0.25246897
-6.1293797 -3.0693533 0.2619423
-6.1294556 -3.0708563 0.26007864
-5.9670997 -2.9867835 0.3259196
-5.954987 -3.0096393 0.32516927
-5.949472 -3.0143089 0.33389828
-5.943779 -3.0129936 0.32306817
-5.9463201 -3.0209677 0.33395946
-5.9298158 -3.0356753 0.32213306
-5.9357247 -3.0379295 0.32691371
-5.9307513 -3.0477839 0.3199724
-5.9177141 -3.0623555 0.32067442
-5.9151921 -3.0612898 0.32844749
-5.7499065 -2.9822192 0.39991808
-5.737998 -3.0007443 0.40236923
-5.746829 -2.9979601 0.4084757
-5.7469196 -3.0137 0.40421641
-5.7378292 -3.0162096 0.40029606
-5.7378364 -3.0264554 0.40997523
-5.7296591 -3.0468619 0.40570122
-5.7166896 -3.0465581 0.39986831
-5.71065 -3.0574925 0.40775293
-5.7038975 -3.0701916 0.40498644
-5.7093606 -3.0665188 0.40382338
-5.5345564 -2.9868653 0.48667088
-5.5406933 -3.0082781 0.48584399
-5.5407128 -3.0139942 0.47730711
-5.524981 -3.0148432 0.47428456
-5.5331583 -3.0199342 0.46903411
-5.5116463 -3.0210934 0.4713892
-5.5143967 -3.03354 0.48205402
-5.5029697 -3.0442154 0.46978459
-5.5036473 -3.0524178 0.47281024
-5.507081 -3.0703738 0.46749669
-5.4916663 -3.0611072 0.48155636
-5.4878883 -3.0821669 0.4819513
-5.3231478 -2.9964604 0.55886692
-5.3288388 -2.9899929 0.54817563
-5.3175421 -3.0159249 0.56012398
-5.3114858 -3.0245774 0.55863792
-5.3030634 -3.0202239 0.55242395
-5.303966 -3.0286977 0.54324722
-5.2971277 -3.042114 0.5535751
-5.3072538 -3.0432396 0.55364782
-5.3026829 -3.053237 0.55068201
-5.2840414 -3.0637534 0.55434555
-5.2849951 -3.0756154 0.56041265
-5.2835174 -3.0773602 0.56039834
-5.2727203 -3.0720098 0.54189718
-5.1098642 -2.9909081 0.61667728
-5.1087155 -2.9992905 0.62874991
-5.113771 -3.0128086 0.61977625
-5.1079931 -3.0237317 0.62480783
-5.0918775 -3.0290346 0.63612956
-5.0956788 -3.0340304 0.62486345
-5.0824361 -3.0446596 0.6304847
-5.0855203 -3.0405273 0.63164157
-5.0825272 -3.059212 0.61844558
-5.0795383 -3.0514052 0.61798555
-5.0750408 -3.0651581 0.63209999
-5.0702477 -3.0819571 0.6249823
-5.0533719 -3.0880163 0.63149095
-4.9070907 -2.9957144 0.708709
-4.8942723 -2.9880979 0.69326264
-4.8901229 -3.0085175 0.699947
-4.8772302 -3.0199392 0.70312279
-4.8787065 -3.0186994 0.69754571
-4.8790164 -3.0187309 0.70039266
-4.8725128 -3.0400479 0.69814938
-4.8664598 -3.041152 0.70924991
-4.8662829 -3.0417569 0.71064228
-4.8532138 -3.0497901 0.69306052
-4.8536267 -3.0542252 0.69806194
-4.8513064 -3.0700307 0.69753176
-4.8444233 -3.0658846 0.70342779
-4.8508458 -3.0730536 0.70474219
-4.8340836 -3.0859158 0.6941306
-4.6865807 -2.983222 0.78480995
-4.6726694 -2.9981351 0.76650029
-4.6609921 -3.011241 0.77390301
-4.6582055 -3.0084252 0.76751131
-4.654017 -3.0168054 0.77989089
-4.6674013 -3.0298729 0.77463388
-4.6557751 -3.024904 0.78036398
-4.64467 -3.0373449 0.77702647
-4.6476598 -3.0405111 0.77330077
-4.6493258 -3.0512271 0.78348726
-4.6415949 -3.0550699 0.78304338
-4.6376696 -3.0691924 0.7742306
-4.6320448 -3.0758379 0.77885032
-4.6190081 -3.0839059 0.77281833
-4.6123543 -3.0920041 0.78493279
-4.6133118 -3.0977139 0.77050048
-4.4654846 -2.9924753 0.84204632
-4.4460959 -3.0037212 0.85316586
-4.4500356 -3.002212 0.84762204
-4.4376926 -3.0066333 0.85785925
-4.4351544 -3.0275965 0.85074478
-4.4330516 -3.0289164 0.85599285
-4.4397526 -3.0289025 0.84107447
-4.4218254 -3.0401528 0.84456104
-4.4299216 -3.0490582 0.84641653
-4.4258943 -3.0432394 0.84902304
-4.4162912 -3.0479534 0.83976412
-4.4096274 -3.0574703 0.84549308
-4.4118357 -3.0751271 0.85895926
-4.3995795 -3.0646501 0.85422647
-4.3970771 -3.0758522 0.85474682
-4.4016805 -3.0891778 0.84015763
-4.3810277 -3.0934393 0.85178655
