# .PCD v0.7 - Point Cloud Data file format
VERSION 0.7
FIELDS x y z
SIZE 4 4 4
TYPE F F F
COUNT 1 1 1
WIDTH 1572
HEIGHT 1
VIEWPOINT 0 0 0 1 0 0 0
POINTS 1572
DATA ascii
1.3836917 3.8228626 1.318948
1.3722394 3.8302443 1.3047051
1.3567804 3.8417053 1.3071431
1.3607919 3.828625 1.3178198
1.3476524 3.847079 1.3193897
1.3437399 3.8435338 1.3194778
1.3395721 3.8434172 1.3077317
1.342043 3.8509519 1.3048195
1.3283321 3.8435471 1.3163438
1.3370372 3.8396163 1.3038429
1.3267627 3.8580709 1.3048465
1.3187289 3.8504033 1.3113269
1.31645 3.8526096 1.3073707
1.3166063 3.8641624 1.3084441
1.3074368 3.847914 1.3060889
1.2998347 3.8530934 1.3183132
1.2923182 3.8594482 1.3085532
1.2930532 3.8536196 1.3044677
1.2708733 3.8594284 1.3111248
1.2802153 3.8592932 1.3120056
1.277054 3.8742371 1.3095034
1.2548937 3.8665035 1.3175033
1.2592115 3.8818493 1.3058865
1.2595706 3.8827126 1.3040074
1.2410008 3.87977 1.3040719
1.2400733 3.8745916 1.3075155
1.2313677 3.8872652 1.315521
1.2328997 3.886045 1.3159127
1.2303438 3.8880186 1.3203355
1.2144427 3.8847106 1.3028527
1.2194201 3.8836193 1.3185512
1.2018929 3.8857493 1.3047606
1.2123631 3.8975804 1.3045681
1.1912143 3.8951566 1.3034986
1.1881841 3.8995512 1.317754
1.1852161 3.8884091 1.3051058
1.1856893 3.8939545 1.3034139
1.1741658 3.9064276 1.3187916
1.1630318 3.9017427 1.3144405
1.1763182 3.9065571 1.3050861
1.1521196 3.9017513 1.3129534
1.1636171 3.9048233 1.3212707
1.1413219 3.9037728 1.3197467
1.1388319 3.9069834 1.3141342
1.1352702 3.9125755 1.3112593
1.1259618 3.900614 1.3155926
1.1240029 3.9145424 1.3038296
1.12035 3.9223661 1.3029051
1.1120726 3.9244769 1.3156688
1.1194419 3.9252975 1.3116275
1.0974547 3.9273453 1.3211687
1.1033326 3.9263184 1.3121778
1.0975257 3.9284263 1.3205401
1.0901927 3.9134765 1.3105239
1.0772452 3.9203997 1.3045186
1.0814207 3.9234512 1.304978
1.0699273 3.9299829 1.3177998
1.0666689 3.9383025 1.3168868
1.0624838 3.9237881 1.3165336
1.0510604 3.9220886 1.3154577
1.0555936 3.9238493 1.3148937
1.049666 3.9369378 1.3117748
1.0347456 3.929671 1.3092436
1.0281854 3.9405255 1.3102497
1.0316069 3.9438884 1.3166739
1.0290211 3.9368851 1.3046519
1.0268929 3.9438486 1.3176715
1.0175844 3.9330161 1.3175287
1.0073611 3.9434626 1.3213968
0.99678254 3.9479523 1.3020983
1.0051262 3.9424438 1.3031012
0.99290395 3.9564781 1.3157407
0.97756094 3.9410646 1.3196697
0.97968471 3.9445653 1.3130165
0.9828127 3.956964 1.3082978
0.97236294 3.9522555 1.3151543
0.96988934 3.9508994 1.3075609
0.96043354 3.9657171 1.3077292
0.95083314 3.955796 1.3169461
0.94509894 3.9607828 1.3092623
0.94006443 3.9596014 1.314687
0.93603092 3.9716878 1.3127711
0.92463523 3.9539237 1.314074
0.91716665 3.9637771 1.3175181
0.92304319 3.9622545 1.3120089
0.92419904 3.97578 1.3204467
0.91220975 3.9723315 1.3061918
0.91262543 3.9649286 1.3054258
0.89320761 3.973429 1.3134172
0.8830049 3.9816999 1.3050817
0.88511658 3.9704437 1.3142589
0.87265134 3.9806628 1.3142246
0.87826842 3.984997 1.3151355
0.86518693 3.9673748 1.304617
0.85554773 3.9811435 1.3113009
0.86039758 3.9815841 1.3102429
0.85368377 3.975553 1.3044767
0.85271329 3.9754572 1.3100559
0.8509751 3.9814649 1.3028909
0.83722675 3.9827929 1.3027606
0.8351413 3.9917572 1.3101454
0.82223147 3.9937825 1.3065281
0.82928574 3.9869533 1.3060316
0.81724924 3.9925723 1.3067075
0.8146928 3.9940836 1.3199542
0.79881865 3.9859779 1.3124511
0.80188489 3.9966931 1.3177348
0.79918343 3.9919744 1.3017482
0.78205955 3.9910553 1.3106021
0.77776927 4.0019279 1.3196248
0.7733472 3.9962561 1.3164604
0.77630836 4.0032172 1.3141779
0.75565082 4.0027776 1.3039302
0.75449532 3.9958472 1.3181732
0.75401419 3.9919081 1.3128071
0.74677825 3.9976439 1.3182226
0.75203794 4.0119967 1.3132486
0.74257994 4.0092006 1.3024586
0.73713368 3.9948342 1.3096603
0.72054005 4.0017328 1.3066529
0.71296763 4.0097661 1.3168999
0.72222954 4.006319 1.3130422
0.70920753 4.0077744 1.3076862
0.70593637 4.0136352 1.3143495
0.69690698 4.0045776 1.316031
0.70251018 4.0138483 1.3024133
0.69352758 4.0139446 1.3021215
0.6795696 4.0101495 1.3180139
0.67482024 4.0064769 1.3185284
0.67727137 4.0117803 1.3049377
0.65671372 4.0150824 1.3183844
0.66640174 4.0132194 1.3073957
0.65223086 4.0239081 1.3168818
0.65270287 4.016901 1.3112561
0.63983691 4.0264416 1.3156081
0.62865114 4.027163 1.3082738
0.62384647 4.0244818 1.3200862
0.61874878 4.0134225 1.3071623
0.62954223 4.0231962 1.3096318
0.62084901 4.0210047 1.3164791
0.61856395 4.02384 1.3057106
0.6097244 4.0219488 1.3121686
0.58989501 4.0314741 1.308413
0.59955049 4.02706 1.3167559
0.58357924 4.0353694 1.3137524
0.57195884 4.0380836 1.3105915
0.57300299 4.0215855 1.3038778
0.56585848 4.0255828 1.3052419
0.56578892 4.0259686 1.3155243
0.56818795 4.0232563 1.3027673
0.55743307 4.0238557 1.3120054
0.55590856 4.041214 1.3185205
0.5408411 4.0243416 1.3137369
0.5420171 4.0427256 1.3037225
0.53153491 4.0307393 1.3212088
0.51804817 4.0327353 1.3206089
0.52139956 4.041379 1.3027179
0.51803625 4.0284834 1.3080393
0.51603609 4.0411239 1.312969
0.50431734 4.0417705 1.3144171
0.49984056 4.0372696 1.3157034
0.50645435 4.2200551 1.2363948
0.49747324 4.2302122 1.2366674
0.50370741 4.2271562 1.2345856
0.52101207 4.4025211 1.1625885
0.51446033 4.4067502 1.1490642
0.50730771 4.4199438 1.1634693
0.52258104 4.5987668 1.0870727
0.50260091 4.5978551 1.0798172
0.50754946 4.5908408 1.072517
0.51349479 4.7884283 1.0028342
0.52091962 4.7729597 1.0092596
0.50623405 4.774384 1.0051444
0.5106011 4.9714603 0.92008454
0.51384819 4.9671154 0.92361611
0.50229633 4.9623518 0.93067431
1.0200455 -4.8767395 0.93465686
1.021523 -4.8681192 0.91961211
1.0205538 -4.8765407 0.91997117
1.039492 -4.8727593 0.93074441
1.0386835 -4.8673477 0.93452293
1.0466051 -4.8596029 0.91893876
1.016803 -4.6744976 0.995969
1.0250133 -4.687758 1.0101949
1.0168253 -4.6769476 1.0071553
1.0251708 -4.6796989 0.99481672
1.0451536 -4.679184 0.9979791
1.050729 -4.6639943 1.0083597
1.021162 -4.4964848 1.0861061
1.0117962 -4.4969831 1.0890132
1.0332016 -4.4850879 1.0759009
1.0383836 -4.4920664 1.089093
1.0279794 -4.4770555 1.0855204
1.0374043 -4.4803743 1.0872823
1.0410529 -4.4784188 1.0784401
1.0198064 -4.2949634 1.1626219
1.027822 -4.2978077 1.1486872
1.0189981 -4.301609 1.1485003
1.0405527 -4.3014126 1.1542813
1.0426526 -4.2968578 1.15816
1.0476576 -4.297173 1.1525213
1.0595484 -4.2985792 1.1584823
1.0210211 -4.1173878 1.2352233
1.0222771 -4.1123738 1.2300074
1.0252929 -4.1099782 1.2252992
1.0394645 -4.1132407 1.2428997
1.0406168 -4.1145 1.236249
1.0478324 -4.1105933 1.2443817
1.054859 -4.1111407 1.2312877
1.0476646 -4.0955944 1.2413163
1.0187393 -3.9222732 1.3067886
1.0095313 -3.9219017 1.312207
1.0262823 -3.9224501 1.3180875
1.0225732 -3.9274907 1.3075773
1.0336462 -3.9152622 1.3180503
1.040009 -3.9146063 1.30384
1.0439703 -3.9185407 1.3069422
1.0612788 -3.921 1.3125143
1.066718 -3.9021709 1.3160946
1.0590612 -3.9162729 1.3137687
1.0614309 -3.8994267 1.3045293
1.0720717 -3.8972714 1.3142565
1.0881288 -3.9038458 1.3020231
1.0900643 -3.8996081 1.3033286
1.0814875 -3.9097745 1.3154352
1.1033815 -3.8990529 1.3067621
1.0910634 -3.8898425 1.3127115
1.1018451 -3.8887949 1.314751
1.1181968 -3.8877766 1.3141613
1.1181267 -3.8998818 1.3180037
1.1157287 -3.8950822 1.3172185
1.124089 -3.8851044 1.3171074
1.1421744 -3.8845301 1.3089329
1.148024 -3.8874788 1.3034996
1.1351771 -3.8844607 1.3063956
1.1544344 -3.8850029 1.3185017
1.1650164 -3.8833156 1.3182985
1.1615456 -3.8762963 1.3176161
1.1601123 -3.8783734 1.3164171
1.1780868 -3.8859663 1.3215706
1.1799014 -3.8814008 1.3099738
1.1809286 -3.8739166 1.3067974
1.1818423 -3.8737864 1.3026301
1.1945794 -3.8732436 1.3139415
1.2018807 -3.8709826 1.3066906
1.2120758 -3.874897 1.3173096
1.2143748 -3.8736598 1.3080206
1.2164681 -3.8613214 1.3041476
1.2178766 -3.8558428 1.316587
1.2180839 -3.8578134 1.319815
1.2234422 -3.8633909 1.3059828
1.2372013 -3.8533604 1.3180013
1.2477818 -3.8478329 1.3085089
1.2541924 -3.8549831 1.3179109
1.251912 -3.8602443 1.3079177
1.2623782 -3.8607204 1.3123465
1.2634611 -3.8443053 1.316341
1.2752526 -3.8512022 1.310995
1.2831687 -3.8420939 1.3094413
1.2835215 -3.8381786 1.3042232
1.2871001 -3.8343036 1.311726
1.2968438 -3.8420651 1.3075503
1.2986035 -3.84464 1.3071855
1.3108684 -3.8461952 1.3179463
1.3125328 -3.8354197 1.3017143
1.3042014 -3.8395641 1.3032669
1.3202962 -3.8280094 1.3194879
1.3203831 -3.8300447 1.3070577
1.3351214 -3.8295429 1.3019743
1.3283033 -3.834065 1.3190366
1.3362646 -3.8203824 1.3181974
1.3517262 -3.8223276 1.3078122
1.3430095 -3.8278823 1.3130605
1.3539252 -3.8265388 1.3149542
1.3555993 -3.8088949 1.3058165
1.3610386 -3.8249438 1.3107202
1.3680279 -3.8102572 1.3053567
1.3712356 -3.8208399 1.3161286
1.3820105 -3.8020382 1.3055654
1.3876992 -3.8154058 1.3086358
1.3904476 -3.8061612 1.3035371
1.392354 -3.8068008 1.3146338
1.4038726 -3.801501 1.3183092
1.4006368 -3.7906263 1.3214539
1.4192917 -3.803416 1.320361
1.4288065 -3.796102 1.32133
1.4232222 -3.7871318 1.315089
1.4322716 -3.8002841 1.3163613
1.43209 -3.7879896 1.3145238
1.4413425 -3.7953315 1.3173996
1.4536626 -3.7852471 1.3075939
1.4408813 -3.7785761 1.3152146
1.4591937 -3.7857037 1.3061938
1.4611788 -3.7813814 1.3060992
1.4663059 -3.7837157 1.3112588
1.470337 -3.7818441 1.3017688
1.4753343 -3.7708631 1.3192781
1.4740878 -3.7761359 1.3016566
1.4941108 -3.766891 1.314344
1.4922934 -3.7736914 1.3176965
1.4933488 -3.7734668 1.3091325
1.5045958 -3.7713158 1.3052315
1.5034604 -3.7561417 1.3121874
1.5133015 -3.7642691 1.321443
1.5230448 -3.7525532 1.306334
1.5179449 -3.7620873 1.3110591
1.5233519 -3.7519021 1.3047203
1.5262654 -3.7482386 1.3110563
1.5315545 -3.7498245 1.3045775
1.5495279 -3.7384975 1.3092313
1.5508506 -3.7513816 1.3120354
1.5636065 -3.7382824 1.3149087
1.5524583 -3.7315795 1.310867
1.5682632 -3.7402935 1.3166014
1.5733205 -3.7445192 1.3119476
1.5832658 -3.7390966 1.3156487
1.5779331 -3.7335165 1.3074164
1.5862585 -3.7302687 1.3207216
1.6009169 -3.7269752 1.3103077
1.5890933 -3.7309484 1.3090805
1.6019206 -3.7188361 1.3128211
1.6175488 -3.719202 1.3075057
1.6160471 -3.7159474 1.3067309
1.6105007 -3.722116 1.3150721
1.6306856 -3.7084525 1.3170106
1.6262134 -3.7100658 1.3021872
1.6254392 -3.7022309 1.3107525
1.6364295 -3.7112865 1.3203664
1.640722 -3.7108967 1.3110675
1.6545974 -3.7075403 1.3155818
1.6472422 -3.6965632 1.3099875
1.6636245 -3.6951618 1.3017992
1.6746882 -3.7004626 1.3146302
1.6649739 -3.696507 1.3190496
1.6835974 -3.697561 1.3148826
1.6841564 -3.6882784 1.3068451
1.6898886 -3.6849577 1.3043782
1.6841828 -3.6758318 1.3105837
1.6880876 -3.6875949 1.3149002
1.7026902 -3.6706612 1.3202869
1.7018039 -3.6862578 1.314357
1.7153201 -3.6706443 1.307528
1.7206446 -3.669136 1.3130904
1.7187966 -3.6625075 1.3202932
1.7213647 -3.6624181 1.3041196
1.7397625 -3.6669288 1.3148991
1.7301196 -3.6708632 1.3066623
1.7380061 -3.6656559 1.3052076
1.752095 -3.6616933 1.3096385
1.7504969 -3.6482739 1.3086448
1.7542821 -3.6608839 1.3096888
1.7721341 -3.6451173 1.3039734
1.7631537 -3.6491623 1.3173866
1.7797322 -3.6401882 1.3150411
1.7835101 -3.6337752 1.3103907
1.7911109 -3.6340909 1.3188282
1.7894877 -3.6291723 1.3209227
1.7996242 -3.6414866 1.3058085
1.8083026 -3.6248281 1.3122342
1.8014085 -3.6348803 1.3096489
1.8135171 -3.6262567 1.3120162
1.8066661 -3.6248872 1.3077061
1.8140965 -3.6176004 1.3168993
1.8149364 -3.6188343 1.312608
1.8334272 -3.6213858 1.3122637
1.8272641 -3.6214287 1.3091309
1.8495349 -3.6081839 1.3084368
1.8538967 -3.6098874 1.3129411
1.8431407 -3.6079946 1.3116097
1.8588068 -3.5980742 1.3177247
1.8518839 -3.60112 1.3099548
1.8673249 -3.5960882 1.321039
1.8784521 -3.5886936 1.3168873
1.8787688 -3.5855238 1.308972
1.8747905 -3.5889237 1.3159684
1.8904644 -3.583544 1.3203778
1.8830018 -3.5809472 1.3154814
1.8948414 -3.5790386 1.3063233
1.8911817 -3.5729325 1.316493
1.9061868 -3.5762033 1.3140111
1.9073033 -3.5714366 1.3059042
1.9206462 -3.5762644 1.3202429
1.9250695 -3.5749974 1.3193827
1.9253374 -3.5784421 1.3190923
1.9376863 -3.5708899 1.3127946
1.9370278 -3.5726852 1.3092622
1.940775 -3.5669608 1.3057053
1.9396222 -3.5544107 1.3214287
1.9493072 -3.5505307 1.3206227
1.9491583 -3.5566521 1.3139035
1.9665238 -3.5466597 1.3093019
1.9557784 -3.5483239 1.3172158
1.9793679 -3.5505602 1.3037336
1.9820935 -3.5375206 1.3041363
1.9845247 -3.5371201 1.3094138
1.9806545 -3.5423622 1.3102117
1.993248 -3.5288377 1.3140429
2.002281 -3.5214431 1.3077259
2.0070331 -3.5293365 1.3025839
2.0109756 -3.5223479 1.3086085
2.0081949 -3.5229595 1.3019061
2.0208087 -3.5192783 1.3108137
2.0213327 -3.5169652 1.3147519
2.0283704 -3.5168808 1.3089899
2.0358069 -3.5193152 1.3208817
2.028517 -3.5105665 1.3047776
2.042021 -3.5141668 1.3194374
2.0393522 -3.4936728 1.3187243
2.0503626 -3.4933617 1.3073435
2.056227 -3.4940388 1.3201699
2.0681119 -3.5024238 1.3095965
2.0732906 -3.4831181 1.3199093
2.0673726 -3.4882078 1.3097332
2.0653889 -3.4911754 1.3168324
2.0776391 -3.4916179 1.3186816
2.0817773 -3.4842579 1.3064569
2.0898073 -3.4682975 1.3078026
2.0924931 -3.4799054 1.3068056
2.0944617 -3.4653986 1.303277
2.1050453 -3.4699192 1.3162211
2.0131202 -3.30948 1.3951226
2.0257282 -3.3068416 1.393267
2.0286453 -3.2950015 1.3834511
2.0213821 -3.2900212 1.3877903
2.0212142 -3.2976627 1.388803
2.0428917 -3.2860341 1.3942847
2.0323405 -3.2912393 1.3928292
2.0431309 -3.2786188 1.3968612
2.0529206 -3.2888858 1.3924886
2.0591776 -3.2734208 1.3806772
2.0583746 -3.2793975 1.3884176
2.0592704 -3.2773893 1.3959976
2.0583062 -3.2770836 1.3926129
2.067522 -3.2686565 1.3913972
2.0810733 -3.2650084 1.3797224
2.075633 -3.2642906 1.3968519
2.0756705 -3.2587276 1.3859454
2.0942483 -3.2669735 1.3848224
2.0968542 -3.2500257 1.390589
2.0950832 -3.2514126 1.3889706
2.1014969 -3.2581902 1.3985192
2.1156471 -3.2486558 1.3872131
2.0172355 -3.0897048 1.4705428
2.0153563 -3.081214 1.462225
2.0122576 -3.0837443 1.474673
2.0174801 -3.0762827 1.4649507
2.0398283 -3.0733478 1.4578966
2.0312662 -3.0763948 1.4596953
2.0415769 -3.0813918 1.4755344
2.0376503 -3.0727117 1.4670727
2.0521014 -3.0621655 1.4689134
2.056097 -3.0620129 1.4573619
2.0487826 -3.0646741 1.4668679
2.0675945 -3.0535338 1.4620653
2.058085 -3.0498073 1.4719272
2.0610192 -3.0451696 1.4664391
2.0742271 -3.0424914 1.4610687
2.0803769 -3.0526791 1.4698279
2.0883214 -3.0368555 1.4707605
2.0921011 -3.0492542 1.4575378
2.087415 -3.0314937 1.4720199
2.0845654 -3.0340252 1.463807
2.0901604 -3.0281551 1.4700794
2.1052575 -3.0277524 1.464633
2.1155477 -3.0211353 1.4600477
2.1156957 -3.015856 1.4572285
2.1103516 -3.0216362 1.4742103
2.1196327 -3.0255306 1.4581211
2.1176691 -3.0057402 1.474966
2.1366339 -3.0064259 1.4565172
2.1223719 -3.0160494 1.4729277
2.1425879 -3.0127699 1.4638995
2.1345868 -3.0081391 1.4578285
2.152854 -2.9926507 1.4692411
2.1456707 -2.9911077 1.4643459
2.1538978 -2.9936481 1.4617993
2.1593015 -2.9857597 1.4705355
2.2692704 -3.1426973 1.3952358
2.2757676 -3.1357834 1.3939769
2.2791052 -3.1341193 1.3890781
2.2839897 -3.1309276 1.3915955
2.2852802 -3.1317263 1.394426
2.297538 -3.1247284 1.3789153
2.3037205 -3.1236615 1.3959148
2.301311 -3.1139719 1.3914735
2.3140018 -3.120245 1.3815023
2.3041418 -3.1052997 1.3964238
2.3230133 -3.1121547 1.3812902
2.3237798 -3.096899 1.3899132
2.323283 -3.1026876 1.3970366
2.3178828 -3.0879693 1.3841817
2.3349955 -3.0963337 1.3873521
2.3349342 -3.0968091 1.3943383
2.3393576 -3.0954664 1.3792031
2.340776 -3.080893 1.3905634
2.3377488 -3.0779841 1.3924503
2.3447456 -3.0692861 1.3860759
2.3466592 -3.0660632 1.389634
2.3534348 -3.0664155 1.3852291
2.3688288 -3.0716023 1.391811
2.3713415 -3.0665224 1.3898804
2.3809948 -3.0686581 1.3963485
2.3738139 -3.0551791 1.3790983
2.3736145 -3.0615959 1.3799419
2.3782754 -3.0509095 1.3921043
2.3942919 -3.0475605 1.3839145
2.3921905 -3.0415206 1.3811555
2.4037104 -3.0378683 1.3983465
2.3987834 -3.0317371 1.3919061
2.409447 -3.0345039 1.3969939
2.406688 -3.0390456 1.3838706
2.4219935 -3.0182168 1.3853147
2.4237623 -3.0288472 1.3969347
2.4282765 -3.0239508 1.378829
2.4336295 -3.0186627 1.3880948
2.4311402 -3.0216227 1.3973886
2.4404562 -3.0109434 1.3893954
2.4470086 -3.013 1.3817217
2.4507473 -3.0042338 1.3968406
2.4480407 -3.0090499 1.3858479
2.4504173 -3.0008664 1.3869629
2.4596658 -3.0016136 1.3855501
2.5871398 -3.1276569 1.3129451
2.5896423 -3.1304171 1.3190674
2.5940337 -3.1320465 1.3071034
2.5876861 -3.1203825 1.3087994
2.5906272 -3.1236155 1.3177882
2.6055701 -3.1045041 1.3213288
2.6128342 -3.1058574 1.3102375
2.6152122 -3.1141155 1.3109266
2.6065924 -3.1041911 1.3163894
2.6190825 -3.1092072 1.3176894
2.6301548 -3.0877197 1.3123579
2.6258161 -3.0881088 1.3206758
2.6275947 -3.08848 1.303768
2.6374042 -3.0795677 1.3149214
2.6489043 -3.072078 1.3192332
2.6493886 -3.0740042 1.3190415
2.6534078 -3.07302 1.3138757
2.6463308 -3.0740066 1.3168248
2.6599379 -3.0679562 1.3060653
2.6590023 -3.0537546 1.3066505
2.6593618 -3.0528138 1.305078
2.6743846 -3.06054 1.3194653
2.6777201 -3.0508111 1.309824
2.6841426 -3.0555906 1.3054317
2.6817133 -3.0531833 1.3048596
2.6835904 -3.0345995 1.318686
2.6852708 -3.0362992 1.309815
2.7017801 -3.0293736 1.3162702
2.7012331 -3.0331335 1.3050823
2.7099216 -3.0221162 1.3043966
2.6991901 -3.0150216 1.3209463
2.7068808 -3.0171812 1.3060583
2.7089534 -3.020277 1.3171819
2.7213795 -3.0012171 1.3198025
2.729408 -3.0088482 1.3211013
2.7368591 -2.998858 1.3172486
2.7381313 -2.9914389 1.3079548
2.7305272 -2.991756 1.3018397
2.749373 -2.9968605 1.3082114
2.8614125 -3.1337771 1.2246424
2.8685641 -3.1292167 1.2416023
2.8722599 -3.1211901 1.2326316
2.881062 -3.1153102 1.2367883
2.8809824 -3.1012182 1.2362221
2.8835175 -3.1033065 1.2442367
2.8873458 -3.1021471 1.238447
2.9073157 -3.1039138 1.236276
2.8979864 -3.0974774 1.2299819
2.9025362 -3.0963829 1.2347711
2.9134521 -3.0918181 1.2350909
2.9179924 -3.0844686 1.2359737
2.919487 -3.077785 1.2408794
2.9320052 -3.0666552 1.2276554
2.9286745 -3.0599551 1.2245077
2.944772 -3.0550649 1.2352498
2.9488783 -3.0506854 1.2431232
2.9471889 -3.0506694 1.225196
2.9433231 -3.0443106 1.229665
2.9531574 -3.0377243 1.2311826
2.9477751 -3.0445387 1.2332127
2.9627068 -3.0311234 1.2385341
2.9585156 -3.040519 1.2264751
2.9792244 -3.0216959 1.2414758
2.9667037 -3.0304973 1.2391001
2.971029 -3.0274897 1.2375326
2.9860909 -3.0246584 1.2362564
2.9890203 -3.0077929 1.230902
2.9940166 -3.0190647 1.2278061
3.0034761 -3.0047674 1.2271904
2.9944475 -3.0001121 1.2356482
3.0074432 -3.0047786 1.2334031
3.0057545 -2.9978848 1.2376386
3.1425321 -3.1249158 1.159368
3.1439552 -3.1181307 1.1653593
3.1429965 -3.1112509 1.1502165
3.1604643 -3.113534 1.1537573
3.1566496 -3.0971067 1.15001
3.1674745 -3.0998964 1.1508315
3.1751971 -3.097434 1.161785
3.1822982 -3.0882018 1.1532226
3.1778507 -3.0901699 1.1558162
3.1911519 -3.0780165 1.1611208
3.1886826 -3.0838013 1.1655968
3.1851356 -3.0725229 1.152481
3.1875737 -3.0665572 1.1618619
3.1948628 -3.067472 1.1645703
3.2056866 -3.0565431 1.1593108
3.2127569 -3.0591254 1.1668601
3.2206421 -3.0583146 1.1524645
3.2194748 -3.0347264 1.1628875
3.2297387 -3.0399032 1.1669229
3.2225902 -3.0360894 1.158686
3.2207398 -3.0390503 1.1602331
3.2233593 -3.0298569 1.148621
3.2328568 -3.0225179 1.1585308
3.2317286 -3.0121763 1.1630763
3.2533028 -3.0152912 1.1540949
3.2496111 -3.0156097 1.1580697
3.2534623 -3.0123107 1.1583878
3.2629116 -2.9944406 1.1578205
3.2627776 -2.990562 1.1475972
3.2666726 -2.9980807 1.156702
3.3982012 -3.1165037 1.0811555
3.4155679 -3.1115429 1.0875044
3.4213159 -3.1013148 1.0766891
3.4169669 -3.0964384 1.0717063
3.4171569 -3.0942051 1.0790936
3.4283588 -3.079875 1.0816414
3.4235289 -3.0858984 1.0829614
3.4390104 -3.0866709 1.077619
3.4339178 -3.0717697 1.0716168
3.4385951 -3.0771592 1.0735513
3.4523706 -3.0710764 1.0773237
3.4477923 -3.0519741 1.0813111
3.4495561 -3.0514648 1.0707746
3.4604979 -3.0396383 1.0803565
3.46645 -3.051949 1.0874075
3.4797826 -3.0373788 1.0840185
3.4756565 -3.0319526 1.0898299
3.4728436 -3.0353525 1.0700867
3.4846816 -3.0281458 1.0804564
3.4905105 -3.0205557 1.0806423
3.4982672 -3.0234773 1.082111
3.4897895 -3.0152581 1.0778756
3.5052922 -3.0095491 1.0893375
3.5102518 -2.9971659 1.0878077
3.5047863 -3.0030909 1.0891429
3.6465147 -3.0999303 1.0030191
3.664865 -3.1049538 0.99468464
3.6690197 -3.0970304 0.99810833
3.673424 -3.1015024 1.0038909
3.668191 -3.084372 1.0124098
3.6831367 -3.0837049 0.99314737
3.6795437 -3.0757287 0.99723852
3.6917086 -3.0764558 1.0021671
3.6953278 -3.0764229 0.99460167
3.6974103 -3.0660479 0.99622798
3.7008207 -3.0582802 0.99611908
3.6952994 -3.0565085 1.0058959
3.7014363 -3.0549216 0.99849927
3.7109897 -3.0332627 1.0015278
3.7063186 -3.0411618 0.99657768
3.7101591 -3.0384331 1.0071797
3.71473 -3.0236082 1.0006372
3.7233846 -3.0209222 1.0082405
3.7369609 -3.0189135 1.0107437
3.7429643 -3.0191119 0.99848276
3.7305865 -3.0001819 1.0088446
3.7380929 -3.0110483 0.99582696
3.7553687 -3.0000455 0.99923939
3.7452407 -2.9837501 0.99914789
3.902225 -3.0916095 0.9287892
3.9103215 -3.1044428 0.93318343
3.9090126 -3.0969443 0.92722195
3.9211533 -3.0850227 0.9187597
3.9208896 -3.0837491 0.92711353
3.9231217 -3.0806892 0.9300707
3.9330852 -3.0742168 0.92675346
3.933403 -3.0644407 0.92735952
3.9406955 -3.061584 0.93375212
3.9313927 -3.0530436 0.93121827
3.9419906 -3.0557907 0.93082744
3.9394214 -3.0347753 0.93216819
3.9612389 -3.0393958 0.93556648
3.9570873 -3.0361943 0.92543942
3.9644654 -3.0175679 0.93113279
3.9601898 -3.0210133 0.93442684
3.978864 -3.0187912 0.91872817
3.9742129 -3.0005403 0.92733449
3.97016 -2.9992776 0.93332028
3.9724922 -2.9915912 0.92236352
3.9922829 -2.9975724 0.92317057
4.139082 -3.1013372 0.84229869
4.1399617 -3.0963726 0.8485046
4.1442318 -3.079802 0.85240495
4.1583667 -3.0800881 0.84941888
4.1581869 -3.0688767 0.85746872
4.161293 -3.0632107 0.84221584
4.1686921 -3.0664074 0.83968347
4.16469 -3.0578611 0.8528772
4.1666651 -3.0511785 0.84821504
4.1776757 -3.0488939 0.85202354
4.1894846 -3.0313983 0.85746968
4.1776133 -3.0373507 0.84211469
4.1919394 -3.0233526 0.85755831
4.1901579 -3.0195317 0.84693813
4.2053823 -3.0201941 0.84174544
4.2086482 -3.0020461 0.85642874
4.1966529 -3.0007861 0.84211934
4.2021174 -3.007808 0.85055459
4.220767 -2.9971259 0.83986437
4.3650455 -3.086704 0.76844567
4.3829741 -3.0815108 0.7659021
4.3863411 -3.0724356 0.7715804
4.3743443 -3.0732729 0.76542497
4.3777823 -3.0601223 0.77725291
4.3905921 -3.0559697 0.76257497
4.3982005 -3.0527654 0.78019565
4.4004836 -3.0457625 0.77322102
4.4084487 -3.037493 0.77336335
4.4048405 -3.0347636 0.77832073
4.4105334 -3.0222359 0.77483451
4.4219985 -3.0161021 0.77045298
4.4109111 -3.0109155 0.76905185
4.4254937 -3.0220313 0.78071266
4.4339123 -3.0140059 0.77941746
4.4341502 -2.9974597 0.77616197
4.4397011 -2.9975851 0.76999193
4.5956602 -3.0831089 0.68750101
4.5919847 -3.0813072 0.68434799
4.6084423 -3.0873678 0.69778788
4.6098485 -3.0719807 0.6976127
4.607759 -3.0693662 0.69742298
4.6212797 -3.0620673 0.69626534
4.61339 -3.0444057 0.69783151
4.6171517 -3.042537 0.70125681
4.6196098 -3.0446334 0.69505632
4.638803 -3.0253727 0.7025525
4.6318173 -3.0271342 0.70175099
4.6395311 -3.0168927 0.69634831
4.6440825 -3.0145056 0.69847584
4.642065 -3.0150156 0.68957502
4.659863 -3.0019093 0.69686764
4.6574626 -2.999568 0.68503207
4.8089628 -3.0893641 0.6072256
4.8270922 -3.0794775 0.62204772
4.8286371 -3.0713913 0.60832846
4.8239727 -3.0683608 0.60741884
4.8267946 -3.0565565 0.61829066
4.8288059 -3.0612698 0.61294121
4.8454046 -3.0456536 0.62350994
4.8441219 -3.0362682 0.60709381
4.8539286 -3.033289 0.61730343
4.8510189 -3.0369055 0.62336797
4.8562636 -3.0282755 0.61311543
4.8608923 -3.0058327 0.62603468
4.860333 -3.0061517 0.62031925
4.8660455 -2.9954333 0.61090738
4.8708386 -2.986181 0.62656707
4.4666996 2.9897063 0.80523831
4.4811101 3.0001483 0.8124398
4.4584703 3.0029216 0.80675447
4.4602137 2.9971967 0.80193788
4.454329 3.0147281 0.81490088
4.464376 3.0150204 0.81309694
4.4563813 3.0180073 0.80570239
4.4525366 3.0238142 0.81801099
4.4518423 3.0297632 0.82033348
4.4366131 3.0489397 0.80534506
4.4434032 3.0558622 0.81899202
4.4240088 3.0613492 0.8168484
4.431807 3.0683584 0.81125122
4.4139113 3.0612824 0.81370819
4.4111905 3.0725009 0.80748159
4.4214244 3.077955 0.8153379
4.4098454 3.0796113 0.8199777
4.4108634 3.0816286 0.80422699
4.2528105 3.0007057 0.8840825
4.2485914 2.9950256 0.88108009
4.2493753 3.0003674 0.8788203
4.2437983 3.0105548 0.89587349
4.2360692 3.0127897 0.89376813
4.2227345 3.0213866 0.87842458
4.2318487 3.0315289 0.8881436
4.2147284 3.0361795 0.87716663
4.2054558 3.0335345 0.88170183
4.2008152 3.0361996 0.8821162
4.2004151 3.056483 0.88193595
4.2040143 3.0567074 0.89016068
4.2046022 3.0618842 0.87781817
4.2029228 3.0656605 0.88976002
4.198288 3.0658927 0.87803942
4.1915398 3.0769835 0.8890242
4.1894403 3.0813899 0.88426566
4.1770511 3.0928853 0.87827802
4.173677 3.0993259 0.88377166
4.0263362 2.9949138 0.96191102
4.00805 3.0045667 0.95862305
4.0095754 3.0020607 0.96970338
3.9993181 3.0043938 0.96011043
3.9967103 3.009306 0.96844965
4.0060363 3.0138502 0.97118276
4.0036345 3.0159216 0.95917445
3.9922092 3.0401762 0.96574628
3.976018 3.0363331 0.95799321
3.9738312 3.0334156 0.9708665
3.9771302 3.0559585 0.96395725
3.9827123 3.0443764 0.96110576
3.9649985 3.0584888 0.97015929
3.9583576 3.0665205 0.95596242
3.9621158 3.0761292 0.9611001
3.9542055 3.0792565 0.96521056
3.9490209 3.084182 0.96582645
3.9518199 3.0818903 0.96513712
3.9411833 3.0876229 0.95505077
3.942786 3.0953922 0.95649862
3.9372544 3.1106918 0.95494723
3.7796133 3.0010684 1.0321261
3.7844658 2.9925191 1.0420383
3.7783647 3.0015831 1.034458
3.7780592 3.0186679 1.030968
3.7628841 3.0121121 1.0450928
3.7718122 3.0246494 1.0386364
3.7613487 3.024271 1.0443879
3.7501886 3.0375488 1.0303775
3.748935 3.0367301 1.0386477
3.7491219 3.0346878 1.0367349
3.74775 3.0445127 1.034466
3.7477012 3.0433536 1.03838
3.7375572 3.0602634 1.0460962
3.7398257 3.0610459 1.0456408
3.7185967 3.0708382 1.0333794
3.7314854 3.0737512 1.0284107
3.7179105 3.0704005 1.037825
3.7100799 3.080097 1.0352845
3.7082317 3.0927539 1.0466985
3.6946464 3.0898194 1.0308491
3.6991413 3.0897422 1.0396097
3.7013597 3.093852 1.042002
3.6874852 3.1120617 1.0361011
3.5398862 2.9974439 1.121634
3.5334251 3.0050044 1.1159192
3.5346954 3.0097189 1.1079322
3.5309901 3.0051312 1.111415
3.5366924 3.0169928 1.1194208
3.5198472 3.0112932 1.1149162
3.5144091 3.0163023 1.1223158
3.5131149 3.030108 1.1044827
3.5205746 3.0304408 1.1056103
3.5104194 3.0412152 1.1198038
3.4943566 3.0501468 1.1135888
3.5079713 3.0567806 1.1100004
3.4958644 3.0488548 1.1061983
3.4957638 3.0614009 1.1128863
3.4791389 3.0638335 1.1065195
3.4905133 3.0736115 1.1095425
3.4773762 3.0621493 1.1126701
3.471632 3.0735972 1.1047045
3.4680479 3.0767162 1.1121789
3.4655845 3.0938981 1.1055405
3.4573081 3.0992424 1.1229527
3.4628098 3.1024332 1.1221232
3.4447165 3.0977554 1.1084989
3.4428144 3.0972223 1.1225574
3.4475935 3.1043167 1.1141908
3.4459991 3.1070442 1.1107509
3.2904124 2.9964993 1.1868519
3.2951291 3.0086925 1.1937126
3.2918739 3.001581 1.1988587
3.2760866 3.0162921 1.1963593
3.2736547 3.0070198 1.1943825
3.2686284 3.0275488 1.1907809
3.2827663 3.0142906 1.197692
3.2632737 3.0234432 1.1992666
3.257833 3.0416949 1.1831379
3.2640195 3.0426784 1.1849453
3.2467597 3.0494168 1.1958234
3.2497458 3.045038 1.1943065
3.2395864 3.0415761 1.1810956
3.2345667 3.0465059 1.1980195
3.2470412 3.0531886 1.1811004
3.2375329 3.0590363 1.1801454
3.2244163 3.06322 1.1813734
3.2182047 3.0721149 1.1872009
3.2135615 3.0797796 1.1867329
3.2127833 3.0778477 1.1827072
3.2138064 3.0828791 1.1808845
3.2057014 3.0951262 1.1901536
3.1960731 3.1014495 1.1914374
3.1932275 3.1069951 1.1931331
3.1872997 3.1092637 1.1969998
3.1844466 3.1062784 1.1822085
3.1806324 3.1144378 1.1871011
3.1780398 3.1206527 1.1963949
3.1812687 3.126498 1.1888655
3.1840231 3.1358447 1.1949224
3.0310667 3.0004714 1.2573836
3.0281422 3.0111303 1.2717731
3.034481 3.0164597 1.2680219
3.0220978 3.0232484 1.2653587
3.0314043 3.0084207 1.2605121
3.0245717 3.0150568 1.2682345
3.0229418 3.0222025 1.2596765
3.0061989 3.031085 1.2728996
2.9987438 3.0275323 1.2675402
3.0037534 3.0310764 1.2671061
2.9948142 3.0376914 1.256912
2.9924817 3.0455546 1.2731513
2.9845326 3.0439351 1.2704999
2.9928267 3.054117 1.2704234
2.9784517 3.0577953 1.2713108
2.9792244 3.0588374 1.2746321
2.9677136 3.0624518 1.2609025
2.967639 3.0735309 1.2718649
2.9607818 3.0813689 1.27509
2.9485598 3.0784359 1.2576803
2.9558976 3.0907893 1.2627126
2.9530356 3.085041 1.2714413
2.9464071 3.0955808 1.2743895
2.9371216 3.0986574 1.2633643
2.9277537 3.0916078 1.2718686
2.9392676 3.109585 1.2572715
2.9340973 3.1003118 1.2621516
2.9151914 3.1152296 1.2739795
2.9272425 3.1075621 1.2695199
2.922513 3.1119497 1.2580081
2.920368 3.1279583 1.2747362
2.9032497 3.1253939 1.2616086
2.8948545 3.1404953 1.2749194
2.7638512 2.9946558 1.3430603
2.7675576 2.9995353 1.3442131
2.759763 3.0002406 1.3392601
2.7573659 3.0200932 1.3409563
2.7598433 3.0253634 1.3334993
2.7541435 3.0270135 1.3343096
2.743979 3.0282688 1.3354481
2.7422969 3.0317197 1.3485423
2.7373378 3.022398 1.335025
2.7392457 3.0290327 1.3325682
2.7344592 3.0345721 1.336193
2.7219594 3.047991 1.3408434
2.7306073 3.0377934 1.3423517
2.7142966 3.0493822 1.3398703
2.7196772 3.0476377 1.3388233
2.7175953 3.0643878 1.3355962
2.6963184 3.0551727 1.3498002
2.6961751 3.0684807 1.3436364
2.6891205 3.0610402 1.3443383
2.6885433 3.0797231 1.3478684
2.685504 3.0778403 1.333137
2.6860845 3.0876839 1.3480296
2.6713102 3.0904071 1.3489355
2.6780386 3.0810566 1.3376473
2.6622808 3.1013284 1.3408375
2.6654708 3.103766 1.3370064
2.6654284 3.109179 1.3401952
2.659585 3.0987067 1.3329327
2.6475725 3.1054428 1.3344762
2.6562567 3.11587 1.3509552
2.6484659 3.1075318 1.3418101
2.6459386 3.1240523 1.3387734
2.6382987 3.1300826 1.3347301
2.6315598 3.1271307 1.3376129
2.6335275 3.1327155 1.3370502
2.6186802 3.1257894 1.3352134
2.6199968 3.143126 1.3350846
2.604497 3.1389287 1.3407838
2.6017299 3.1470339 1.3495258
2.4825358 3.0055561 1.4208565
2.4779801 3.0030355 1.4243188
2.4842746 3.0023186 1.4206264
2.4675274 3.0182977 1.4192952
2.466732 3.0118787 1.4113491
2.4688148 3.0117733 1.4253305
2.47033 3.0211718 1.408735
2.4500036 3.036243 1.4258311
2.4495437 3.0401759 1.4150912
2.4547782 3.0257077 1.4088238
2.44875 3.0343821 1.4200395
2.4381988 3.0426781 1.425279
2.4311054 3.0414507 1.4263515
2.4403148 3.0476627 1.4199588
2.4281883 3.0572712 1.4237087
2.4281108 3.053159 1.4239208
2.4220102 3.0547633 1.4101048
2.4193094 3.0602472 1.4079392
2.4136999 3.0694818 1.4262916
2.3973458 3.0681667 1.426767
2.3947198 3.0650434 1.4125137
2.4033048 3.0755944 1.4231592
2.3971245 3.0832815 1.4091861
2.3920121 3.0844126 1.4180398
2.3805025 3.0776563 1.4131225
2.3727381 3.0950665 1.4207196
2.3851812 3.0906248 1.4265534
2.3638034 3.0877357 1.4145094
2.3602557 3.1034949 1.4083446
2.3550558 3.1071627 1.4175148
2.3503265 3.1124718 1.4202182
2.3513396 3.1106381 1.4101348
2.3429935 3.1069007 1.4244066
2.3406696 3.1223321 1.4164838
2.3471951 3.1105399 1.4184848
2.3287988 3.115274 1.4145824
2.3379948 3.1167459 1.4229304
2.3330202 3.1211402 1.4250873
2.3159971 3.126291 1.4197078
2.3128045 3.1305509 1.4147063
2.3187778 3.1343951 1.4117304
2.3074501 3.1435704 1.4236428
2.3060341 3.1487222 1.4085462
2.2988858 3.1558778 1.4256154
2.3038099 3.1538904 1.4076329
2.2907307 3.1578429 1.4111309
2.1851745 3.0054677 1.4887023
2.1767414 3.0021765 1.4915779
2.1704609 3.0062122 1.496369
2.1787968 3.0114105 1.5021907
2.1621268 3.0269411 1.4886335
2.1624768 3.0155075 1.5010346
2.1547351 3.0270264 1.4953767
2.1518924 3.0357695 1.4936695
2.1461151 3.0338137 1.4867764
2.1423509 3.0431607 1.5006431
2.1420805 3.0399075 1.488813
2.1435287 3.032402 1.4906629
2.1278481 3.0428014 1.4935257
2.1169548 3.0457263 1.4985696
2.1318789 3.056175 1.4961326
2.1132417 3.0511718 1.4992568
2.1070015 3.0626287 1.4909003
2.1150994 3.0554495 1.4882932
2.101486 3.0667031 1.5007427
2.1009753 3.0584073 1.4995571
2.0943272 3.07406 1.4921423
2.095845 3.0753837 1.4942521
2.0792089 3.0652542 1.4837972
2.0854311 3.0684621 1.4933088
2.0766933 3.0708299 1.4903169
2.0655146 3.0787995 1.4993751
2.077456 3.0847728 1.4969499
2.0610368 3.0830915 1.4844108
2.0620065 3.0920484 1.5001968
2.0554218 3.0847504 1.4847643
2.0476475 3.0950644 1.5020679
2.0524545 3.0911601 1.4977844
2.039367 3.0948873 1.5004665
2.035821 3.1091089 1.4834579
2.0417824 3.0988691 1.4859239
2.0247478 3.1017303 1.4934729
2.0367677 3.1208172 1.4841143
2.0263586 3.1077731 1.4901994
2.0234063 3.1199906 1.5023727
2.0162361 3.1299198 1.4843851
2.0136294 3.1163745 1.4938545
2.0083227 3.1319404 1.4965687
1.9987283 3.1387269 1.5001652
1.9918122 3.1262794 1.4951448
1.9878837 3.1441092 1.4970516
1.9864173 3.1292248 1.498993
1.9924961 3.1306839 1.4972006
1.9892124 3.1460614 1.4995494
1.9720099 3.1428185 1.4913071
1.9669769 3.1567409 1.4901915
1.9639524 3.1523964 1.4927341
1.9703937 3.1470885 1.4880521
1.9595451 3.1565337 1.4873724
1.9522893 3.1634138 1.491467
1.9400095 3.1707206 1.4906192
1.9496325 3.1609197 1.4921209
1.8446605 3.0036733 1.5681703
1.8346456 3.0052621 1.5609949
1.8269759 3.0140197 1.5678287
1.8310604 3.0221186 1.5658433
1.8340256 3.0115714 1.5767781
1.8195299 3.0318477 1.5596753
1.8203487 3.0256615 1.5692945
1.8204844 3.0366094 1.5630766
1.8047111 3.0396709 1.5614544
1.8080865 3.0367529 1.5673267
1.7929599 3.0297968 1.571141
1.7980307 3.0370102 1.5739865
1.7959225 3.0407417 1.5630373
1.7806447 3.0327492 1.5776408
1.783378 3.0519168 1.5591569
1.7770426 3.0407875 1.5784147
1.7736011 3.0546789 1.5689578
1.779775 3.0529115 1.5679259
1.7597278 3.0595801 1.5674388
1.7580551 3.0538368 1.5615228
1.7622511 3.057183 1.5661455
1.7502582 3.0698195 1.5754824
1.7611072 3.0645709 1.5660576
1.7410036 3.0682712 1.5661528
1.7355002 3.0789347 1.5629343
1.7315094 3.0674963 1.5661108
1.7267731 3.0768533 1.5607092
1.7325766 3.0766249 1.5710768
1.7173449 3.0805929 1.5656551
1.7216227 3.0871353 1.5720382
1.7199812 3.0821245 1.5593216
1.7029591 3.0893748 1.5768017
1.7152704 3.0917315 1.5665992
1.6981536 3.0982456 1.577669
1.7011288 3.0835202 1.5769804
1.7008822 3.089072 1.5624372
1.6838088 3.0941582 1.5748409
1.6813306 3.1093223 1.5646118
1.6892166 3.0935321 1.5759526
1.6716777 3.1063011 1.5714437
1.6805186 3.1017127 1.5595379
1.6766398 3.1043897 1.572502
1.6702378 3.1036692 1.5654486
1.6536301 3.1101263 1.5625411
1.6480889 3.1238558 1.5625461
1.6618559 3.1216397 1.5657467
1.6410766 3.1266546 1.5716832
1.6526976 3.1334984 1.5704396
1.6340865 3.132539 1.5710679
1.6268129 3.1183548 1.5621328
1.6350273 3.1373284 1.5662833
1.6313326 3.1367438 1.570791
1.620599 3.1340806 1.5722641
1.6228089 3.1391368 1.5778862
1.6221082 3.142982 1.5749362
1.6014094 3.1449275 1.5674741
1.6039079 3.15043 1.5627372
1.5923399 3.1518931 1.5625604
1.5995251 3.1390879 1.5591466
1.5873356 3.1433554 1.5592769
1.5862079 3.1601863 1.5761155
1.5892277 3.157675 1.57011
1.5767521 3.1487856 1.5591881
1.5657464 3.1664648 1.5710752
1.5603598 3.167805 1.5645663
1.5720202 3.172811 1.5777677
1.5562155 3.1646838 1.5742427
1.5556709 3.1693594 1.5699581
1.5549463 3.1655948 1.5706517
1.5508051 3.1740177 1.5734022
1.5467911 3.1656933 1.5707791
1.5396128 3.1847723 1.5634464
1.5264258 3.1757619 1.5650321
1.5223142 3.1801355 1.5621108
1.5300865 3.1835151 1.5783498
1.5113471 3.1829505 1.5774212
1.5258061 3.19098 1.5661978
1.5167372 3.1828666 1.5774884
1.5033807 3.1984334 1.5628591
1.510715 3.1942663 1.5745034
1.5007967 3.1904962 1.5756805
1.4882525 3.2039614 1.5737995
1.4883728 3.2086563 1.5607777
1.567705 3.361649 1.4941561
1.5662493 3.3789549 1.4846447
1.5610296 3.3819466 1.4924566
1.5548782 3.3838253 1.4861921
1.5375004 3.3810661 1.4897145
1.5314103 3.3893845 1.48671
1.5306878 3.3894739 1.4974513
1.5216068 3.3840852 1.5023414
1.5336998 3.3905945 1.4986216
1.5239089 3.38167 1.497528
1.5210931 3.3988967 1.4993746
1.5075017 3.3993537 1.4963628
1.504396 3.3992801 1.4941846
1.5090991 3.397747 1.4917338
1.487535 3.4035311 1.4843791
1.4894902 3.407923 1.4832044
1.5622954 3.5659757 1.4241388
1.5517448 3.5700719 1.4134079
1.5460812 3.5709677 1.427068
1.5366948 3.586782 1.4096916
1.5462118 3.5844929 1.4074366
1.5375725 3.5933278 1.42354
1.5259184 3.583775 1.4174775
1.532083 3.5836468 1.4077964
1.515794 3.5866785 1.4218204
1.5121472 3.5963924 1.418164
1.5073228 3.5897839 1.4208122
1.4992787 3.5975947 1.4253947
1.5005007 3.6047146 1.4087176
1.4953799 3.6074238 1.4257067
1.5634065 3.7757223 1.3424169
1.5584097 3.7693677 1.3416764
1.5495132 3.7763436 1.3492559
1.5545512 3.7744715 1.334587
1.5499051 3.7813005 1.3408363
1.5392801 3.7894759 1.3346931
1.5249956 3.777823 1.3398422
1.5333564 3.7831252 1.3507096
1.5262967 3.794651 1.3466115
1.522557 3.7860613 1.3431442
1.5158035 3.799979 1.3348105
1.5016059 3.7941496 1.3379598
1.5066649 3.8046763 1.3459295
1.4993006 3.8054967 1.349879
1.4972644 3.8069296 1.3385171
1.4814745 3.8029988 1.3331971
1.4795387 3.8100483 1.3340985
1.4627491 3.8107259 1.3381832
1.4568241 3.8096144 1.3316827
1.4667982 3.8100367 1.3344885
1.4533021 3.8089817 1.3491157
1.4514695 3.8190081 1.3358245
1.4527833 3.819376 1.3509783
1.4420642 3.8176644 1.344878
1.4352918 3.8192046 1.3381437
1.4371545 3.8302457 1.3454192
1.4336947 3.8246446 1.3376919
1.4111333 3.8275506 1.3485978
1.4126539 3.8298309 1.3363546
1.4076713 3.8273873 1.3425038
1.4054919 3.8367529 1.3455755
1.3979369 3.8295937 1.3366586
1.3970881 3.8490591 1.3461019
1.3913901 3.8431184 1.3318334
1.3795893 3.8357217 1.3371122
1.3810515 3.8355069 1.3314469
1.3697865 3.8571539 1.3382026
1.3707917 3.8415642 1.3458937
1.3627 3.8528223 1.3339022
1.3623626 3.8444278 1.3375117
1.3481717 3.8591864 1.3485384
1.33705 3.8517256 1.3504654
1.3370087 3.8487539 1.3499244
1.3264081 3.8654253 1.3415173
1.3215364 3.8556392 1.3437952
1.321941 3.8726616 1.3439474
1.3166777 3.8637679 1.3438435
1.3181676 3.8612309 1.3462538
1.3073461 3.8759561 1.3380338
1.3045305 3.8757007 1.3395385
1.2853218 3.8666139 1.3339285
1.2971374 3.871767 1.3389918
1.2908776 3.8822436 1.3392252
1.2840742 3.8874869 1.3342789
1.2688613 3.8732281 1.3377033
1.2759237 3.8847463 1.3363142
1.263136 3.8763759 1.344203
1.2502418 3.8948727 1.3477339
1.2597555 3.887928 1.3441767
1.2410468 3.8835502 1.3385583
1.2438403 3.8853483 1.3420547
1.2410215 3.8843498 1.3489138
1.2232636 3.9024813 1.3444663
1.2257367 3.8992021 1.3434863
1.2232612 3.9061046 1.3464794
1.2042078 3.905467 1.3392301
1.2037628 3.8974414 1.3418574
1.2112044 3.9019239 1.3412361
1.2021744 3.9013247 1.3319321
1.189585 3.9074242 1.3365198
1.1913749 3.9017265 1.3411833
1.1766589 3.918622 1.3431329
1.1687998 3.9031739 1.3415064
1.1764908 3.9156153 1.3349004
1.1631995 3.9110005 1.3335044
1.1528993 3.9127536 1.3497859
1.1553473 3.9194853 1.3363645
1.1404204 3.9190845 1.3457559
1.14487 3.9150825 1.332886
1.1400135 3.9239216 1.3444608
1.1397425 3.9199836 1.3486911
1.1241328 3.926765 1.3481774
1.1304703 3.9311247 1.3505837
1.1151793 3.9286151 1.3438075
1.1132801 3.9382567 1.3507997
1.1099828 3.9230421 1.3379359
1.1029649 3.9357224 1.3502026
1.1025234 3.9389246 1.3404748
1.0914713 3.9320271 1.3451589
1.0875472 3.9457266 1.3371036
1.0751958 3.9446104 1.3435394
1.0670725 3.9333422 1.3351932
1.0584335 3.9338713 1.3496511
1.0521988 3.944571 1.3400517
1.0591856 3.9388361 1.3385533
1.0531627 3.9552698 1.3403078
1.0542741 3.9501541 1.3332175
1.04765 3.9500675 1.3478118
1.0312961 3.9444015 1.3339992
1.0196245 3.9602859 1.3323838
1.0198954 3.9492958 1.3481579
1.0266001 3.9556613 1.3511767
1.0049567 3.9588687 1.3332456
0.99776936 3.9613242 1.344543
1.0009805 3.9562519 1.3486415
1.0026915 3.9506438 1.3477176
0.98615509 3.9716358 1.3402297
0.9825263 3.9714952 1.3512144
0.97349 3.9604936 1.3350999
0.97063917 3.9633157 1.3334445
0.96617115 3.9719057 1.3393811
0.9574753 3.9726994 1.3502733
0.95179647 3.977351 1.3429705
0.94818473 3.9803181 1.3367287
0.93586844 3.9720013 1.3440275
0.94764888 3.9709022 1.3443389
0.93850362 3.9787757 1.3442708
0.92186868 3.9685309 1.3426982
0.91621667 3.9747624 1.348768
0.91444832 3.9836576 1.3363112
0.91102272 3.9736011 1.3511039
0.91353208 3.9803669 1.3453573
0.90693176 3.986974 1.3429369
0.89302695 3.9754913 1.3421661
0.89287853 3.977216 1.3317685
0.88002729 3.9962466 1.3389698
0.88748574 3.9916594 1.3327502
0.87487441 3.9959664 1.3349991
0.86068881 3.9801524 1.3422008
0.85257125 3.9881027 1.3370262
0.85199541 3.9981618 1.3405318
0.84621048 3.9962666 1.3495475
0.85467732 3.993309 1.3439223
0.8407222 4.0019865 1.3455739
0.82599455 3.9960568 1.3477178
0.82086778 4.0028191 1.3476676
0.82294077 4.0025849 1.3418132
0.81879246 3.9952857 1.3390565
0.81689155 3.9993494 1.3392842
0.80219066 4.0008454 1.3462685
0.80231375 4.0073171 1.342126
0.78594089 4.013557 1.3349102
0.79858214 4.0138183 1.3435663
0.78559661 4.0056815 1.3397371
0.77426124 4.0083747 1.3488234
0.76506829 4.0115013 1.3435251
0.77582365 4.0022616 1.3368529
0.76072311 4.0144372 1.3417501
0.76286441 4.0102758 1.3495871
0.74523199 4.0169797 1.337804
0.75458246 4.0093741 1.3313843
0.73978901 4.0109649 1.350104
0.73777819 4.0107675 1.3479927
0.7244221 4.0231571 1.3366596
0.72723544 4.0097847 1.3469427
0.71913368 4.0127945 1.3392829
0.70573217 4.0121365 1.3413223
0.70565718 4.0219555 1.3344831
0.69047809 4.019496 1.3424369
0.7031346 4.0249848 1.3360565
0.68400669 4.0254068 1.3410404
0.67845774 4.0166187 1.3465924
0.67162716 4.0314059 1.3509326
0.66268396 4.0184231 1.3466552
0.66240633 4.0338421 1.3480064
0.65241057 4.0267487 1.3313762
0.65475374 4.0318446 1.3331044
0.65913504 4.0224581 1.3436763
0.63667595 4.0234861 1.3508208
0.64216948 4.0227656 1.3424942
0.64128125 4.028513 1.3336374
0.62537569 4.0343094 1.3350484
0.61502111 4.0388741 1.3503098
0.60900545 4.0400963 1.3316599
0.61871123 4.0466418 1.3475082
0.60976702 4.0287943 1.3353502
0.60419142 4.0388947 1.347383
0.60034281 4.038981 1.3491319
0.58706504 4.0422153 1.3510193
0.58093065 4.0365505 1.3513043
0.58646858 4.0356069 1.3364633
0.5631485 4.0443678 1.3465527
0.56123841 4.0483851 1.3403487
0.55458856 4.052 1.3345164
0.54928786 4.0509343 1.3343872
0.53983432 4.0465393 1.3355763
0.53822166 4.0421853 1.3460385
0.52864087 4.0395994 1.3357685
0.54080796 4.0493546 1.3479216
0.53486139 4.0385947 1.3336068
0.52919883 4.0589933 1.3375531
0.50869423 4.0416937 1.3494729
0.51827812 4.0481071 1.3446308
0.50165707 4.0534945 1.3426317
0.49920264 4.059206 1.3388031
0.51853776 4.2448468 1.2739749
0.51688474 4.2307758 1.2598929
0.50569296 4.2327518 1.262485
0.52538002 4.4163709 1.1982511
0.51581275 4.4158554 1.1983815
0.51192981 4.415308 1.1981941
0.49199215 4.4198871 1.1799984
0.50409591 4.6036453 1.1116662
0.51097715 4.6124811 1.1038771
0.49585831 4.604497 1.1211145
0.51626188 4.8036079 1.04371
0.50807607 4.8029404 1.0473837
0.52464527 4.9810724 0.95649296
0.50471067 4.9795637 0.96053976
0.49638987 4.9746389 0.96336675
1.0171528 -4.8913283 0.95419264
1.0305146 -4.8878837 0.95327157
1.0329872 -4.8767395 0.96109617
1.0373298 -4.8710413 0.95598769
1.0448452 -4.8693051 0.95757091
1.0409948 -4.8675704 0.95627022
1.0217543 -4.6856103 1.0426936
1.0247577 -4.6943707 1.0444326
1.0353284 -4.6941342 1.0316049
1.0268389 -4.6885281 1.0305037
1.0517083 -4.6939354 1.0338693
1.0403774 -4.6928048 1.039273
1.0079062 -4.5153871 1.1102536
1.0232226 -4.5011392 1.1096579
1.0334284 -4.5061946 1.1093634
1.0252155 -4.5019169 1.1093589
1.0357 -4.5049915 1.1088933
1.056757 -4.491622 1.1182574
1.0178221 -4.3139467 1.1822883
1.0075349 -4.3116679 1.1946485
1.0161443 -4.3110738 1.1801643
1.0281173 -4.308363 1.1853647
1.0454922 -4.3044558 1.185891
1.0379968 -4.3115282 1.1992568
1.0499036 -4.3146887 1.1861501
1.018025 -4.1324773 1.2717443
1.009378 -4.126009 1.2569804
1.0202631 -4.1247716 1.2741426
1.0205103 -4.1270266 1.2672348
1.0289379 -4.1256013 1.2612032
1.0297235 -4.1215968 1.2743547
1.0360231 -4.1116481 1.2687978
1.047521 -4.1103511 1.2657201
1.0140479 -3.9431944 1.3499824
1.0191833 -3.9295967 1.3337907
1.0312102 -3.9304092 1.3384807
1.0329804 -3.925637 1.3482385
1.0399849 -3.9357452 1.3378248
1.0441496 -3.93137 1.3437396
1.0414045 -3.924329 1.3496549
1.0526257 -3.9222624 1.3381416
1.0569962 -3.9196539 1.3351361
1.0558081 -3.9313033 1.3319788
1.07154 -3.9166844 1.3351414
1.0756835 -3.9224312 1.3505006
1.0836332 -3.9216506 1.3436379
1.0762709 -3.924597 1.3401309
1.0786643 -3.9260347 1.3450912
1.090642 -3.9088008 1.3329947
1.1085322 -3.9198039 1.3464994
1.1123357 -3.9050751 1.3406234
1.1046237 -3.911463 1.3359007
1.113904 -3.9045246 1.3380659
1.1200249 -3.9073374 1.3333796
1.1293063 -3.9114881 1.3414683
1.1339447 -3.9131682 1.3488519
1.1317183 -3.9076877 1.3317955
1.1459826 -3.9052889 1.3318005
1.1452051 -3.8963857 1.3475305
1.1523288 -3.8950627 1.3507411
1.1529549 -3.8954051 1.3471566
1.1677028 -3.888926 1.3356526
1.1777258 -3.8986311 1.3495476
1.1699116 -3.8876777 1.3390828
1.1774089 -3.8929029 1.3429128
1.1929927 -3.8789477 1.3435003
1.1959578 -3.8926747 1.3479984
1.2018641 -3.8775909 1.3333179
1.2077731 -3.888736 1.3459555
1.2094098 -3.8782067 1.3383234
1.2142549 -3.872498 1.3487486
1.2155131 -3.8774862 1.3440447
1.2252648 -3.8778939 1.3480202
1.2289093 -3.871556 1.341326
1.2420864 -3.8631587 1.3477759
1.2390913 -3.8646133 1.3465426
1.2366811 -3.8685362 1.3499364
1.2587668 -3.871984 1.3467603
1.2661694 -3.8749514 1.3507777
1.2662073 -3.8617084 1.3436559
1.2586107 -3.8690445 1.3405665
1.2814367 -3.8605442 1.3508048
1.2795564 -3.8677115 1.3389438
1.2816491 -3.8566515 1.3317218
1.2970451 -3.8578289 1.3511903
1.2988886 -3.8474138 1.3474902
1.2994963 -3.8448186 1.3381451
1.3034952 -3.8455453 1.3436233
1.3043154 -3.8442745 1.3443971
1.3091507 -3.8483684 1.3366693
1.3268616 -3.845459 1.3398534
1.3214805 -3.8451216 1.3497783
1.3263351 -3.8320596 1.3507688
1.3393261 -3.8422978 1.3410445
1.3450927 -3.8425303 1.3483608
1.3503251 -3.8263071 1.3443024
1.3518547 -3.8348615 1.3410419
1.3640367 -3.8248 1.3352499
1.3616941 -3.8392987 1.3489164
1.3601228 -3.8343399 1.3366693
1.370821 -3.8170452 1.3455042
1.3847007 -3.8305044 1.3328416
1.3885026 -3.8244791 1.3313987
1.3932922 -3.8108304 1.3378677
1.388355 -3.8167801 1.3422469
1.4107313 -3.8228598 1.3409843
1.4090465 -3.8127694 1.3492949
1.4040984 -3.8158545 1.345787
1.4133556 -3.8066366 1.3458934
1.4162767 -3.804342 1.3490636
1.4269478 -3.7966983 1.3476263
1.426451 -3.8005216 1.3508199
1.4332889 -3.8058867 1.3381215
1.4386811 -3.7918036 1.3371472
1.4505396 -3.8079963 1.3482909
1.4467744 -3.7871485 1.3314153
1.4617438 -3.7933187 1.3426827
1.4650209 -3.7897673 1.3489106
1.4647875 -3.7822864 1.3423944
1.4846574 -3.7972095 1.3362033
1.4876947 -3.7867835 1.3356789
1.4892919 -3.7821739 1.3493471
1.4940798 -3.7760429 1.3356581
1.5061665 -3.7698338 1.334053
1.4972758 -3.7770772 1.3342487
1.499526 -3.7733941 1.3332779
1.5048977 -3.7800472 1.3441156
1.5215338 -3.7687256 1.3364757
1.5243949 -3.7629375 1.3342804
1.5207368 -3.7625763 1.3351183
1.5308846 -3.764472 1.3443309
1.5405052 -3.7700617 1.3360946
1.5437909 -3.7561519 1.3319234
1.5533845 -3.755441 1.331888
1.5613701 -3.7489033 1.3425283
1.5695484 -3.7453952 1.3347638
1.5567529 -3.7617922 1.3382508
1.574792 -3.7468266 1.3509563
1.5851883 -3.7542713 1.3473397
1.5733861 -3.7506418 1.3419669
1.5824187 -3.7421293 1.3325733
1.6006608 -3.7492585 1.3354577
1.5906637 -3.7383611 1.3501122
1.5964921 -3.7431262 1.3433306
1.602282 -3.7251585 1.3409324
1.6187093 -3.7242627 1.3398806
1.6273688 -3.7214096 1.3402628
1.6195122 -3.7257614 1.3334339
1.6243579 -3.7249579 1.3369769
1.625584 -3.7211945 1.3419584
1.6414341 -3.7136333 1.3332537
1.6478873 -3.7130618 1.3352143
1.6572218 -3.7077162 1.3458592
1.6612077 -3.7217679 1.3495189
1.6584088 -3.7152522 1.3489186
1.6732082 -3.7175286 1.3469791
1.6669527 -3.7163618 1.3456506
1.6810762 -3.7082646 1.3377208
1.6883675 -3.7005317 1.3483377
1.6791986 -3.6967797 1.340454
1.6950079 -3.7023814 1.33786
1.7021093 -3.6867304 1.3335589
1.7111681 -3.6869421 1.3323176
1.7108682 -3.6883624 1.3347315
1.7142251 -3.6977723 1.3413606
1.7169781 -3.6775706 1.3434057
1.7177883 -3.6888089 1.3443029
1.7372665 -3.6911051 1.3509749
1.7288117 -3.671288 1.3430505
1.7309705 -3.6858146 1.3365413
1.7452422 -3.6697032 1.3420867
1.7569166 -3.671659 1.3409319
1.7442865 -3.6697209 1.3372071
1.7504116 -3.6732442 1.3496965
1.7589473 -3.6585693 1.3504032
1.7741085 -3.6662965 1.3489317
1.7713116 -3.658365 1.3338346
