# .PCD v0.7 - Point Cloud Data file format
VERSION 0.7
FIELDS x y z
SIZE 4 4 4
TYPE F F F
COUNT 1 1 1
WIDTH 1547
HEIGHT 1
VIEWPOINT 0 0 0 1 0 0 0
POINTS 1547
DATA ascii
-1.9334468 3.1446407 1.47498
-1.9472961 3.1510627 1.4739637
-1.9380817 3.1467597 1.4688361
-1.9561502 3.13621 1.4597678
-1.9465231 3.1403127 1.4688007
-1.960883 3.1302669 1.4685199
-1.9546947 3.1260524 1.4692976
-1.9644272 3.1333015 1.4757354
-1.97638 3.1306233 1.4749438
-1.9683253 3.119375 1.4655313
-1.9791502 3.1096132 1.4753025
-1.9845233 3.1103709 1.4742165
-1.9909089 3.104708 1.4715542
-2.002418 3.1053383 1.4610752
-2.0029917 3.0999534 1.4574379
-1.9945284 3.104562 1.4665
-2.0063422 3.099709 1.4740988
-2.017374 3.0894697 1.471704
-2.0219643 3.09162 1.4693946
-2.0273423 3.086163 1.4586061
-2.0221288 3.0942159 1.4608312
-2.0271401 3.0812263 1.4665955
-2.0332334 3.0861778 1.4694848
-2.0419853 3.0839431 1.4757981
-2.0412118 3.085454 1.4595259
-2.0440719 3.0797429 1.4706683
-2.0578659 3.0665293 1.4597696
-2.0440569 3.066591 1.4614491
-2.0526388 3.066366 1.4681027
-2.0635259 3.065062 1.4721293
-2.0651977 3.0532672 1.4670446
-2.0646403 3.0607524 1.4718121
-2.0783143 3.0464318 1.4643791
-2.0690951 3.0476429 1.4575652
-2.0735586 3.0539069 1.4751219
-2.09429 3.0415864 1.4698333
-2.0838752 3.0397437 1.4742029
-2.1043549 3.0359774 1.461512
-2.1031508 3.0278928 1.4714795
-2.0952892 3.0331802 1.463033
-2.1033969 3.0410516 1.4656872
-2.116585 3.0337319 1.4587281
-2.1250014 3.0169854 1.460356
-2.120847 3.0137014 1.4661084
-2.1235023 3.0101931 1.4610443
-2.1285965 3.0101886 1.4665849
-2.1389754 3.0048301 1.473214
-2.1449804 3.0032189 1.4590139
-2.2512736 3.1569085 1.382473
-2.2602026 3.1526544 1.3913677
-2.2575738 3.1445067 1.3910886
-2.2722867 3.1473813 1.3864505
-2.2739539 3.1460454 1.3880324
-2.2739887 3.1330662 1.3893028
-2.2682669 3.1416297 1.3900435
-2.2876046 3.1292922 1.3937638
-2.2813971 3.1307657 1.3951156
-2.2885561 3.1304193 1.3978522
-2.2899108 3.1155624 1.3874061
-2.2906029 3.1161625 1.3958639
-2.3023956 3.1237733 1.3793384
-2.3144629 3.1210485 1.3888576
-2.3111639 3.1210294 1.3802174
-2.3062782 3.1053438 1.3817805
-2.3201177 3.0997441 1.3950955
-2.3332121 3.0991662 1.3792677
-2.3225815 3.1091509 1.3881142
-2.3305948 3.0963271 1.3798212
-2.3358667 3.0864947 1.3798842
-2.3315802 3.080312 1.3837665
-2.3388312 3.086674 1.3984845
-2.3426032 3.0853012 1.3937089
-2.3568513 3.0715556 1.3921515
-2.3597353 3.0670195 1.3981515
-2.3610513 3.0729628 1.3818012
-2.3690476 3.0701263 1.3881285
-2.3728673 3.0622303 1.3877016
-2.3678358 3.0706267 1.3977184
-2.3710928 3.0580523 1.3811762
-2.3742819 3.0540605 1.381731
-2.393584 3.0471096 1.391933
-2.3981636 3.040674 1.3840536
-2.3875139 3.0442727 1.3857262
-2.3984172 3.0492656 1.3861659
-2.4033155 3.0372159 1.3958582
-2.4045596 3.0414386 1.3860294
-2.4194717 3.0261056 1.391626
-2.4148059 3.0200639 1.3889463
-2.4201186 3.0350201 1.3970252
-2.4219685 3.0310373 1.3844517
-2.4232593 3.0119982 1.3882724
-2.4343431 3.0126202 1.3890084
-2.4333014 3.0081279 1.3967
-2.5673821 3.1597862 1.3155484
-2.5644181 3.1477876 1.302915
-2.5717566 3.138767 1.317879
-2.5689189 3.1390514 1.3208905
-2.5804799 3.1282139 1.321247
-2.5747151 3.1362717 1.3199519
-2.5808666 3.1266823 1.3180724
-2.5995865 3.1200006 1.3205578
-2.5944805 3.1264284 1.3070753
-2.6086338 3.1180866 1.3125163
-2.5950899 3.1166477 1.3102152
-2.6054935 3.1025515 1.3195064
-2.6085255 3.1054897 1.3033737
-2.6165886 3.0956342 1.3111284
-2.6216347 3.0985816 1.3116548
-2.6263194 3.0916517 1.3038542
-2.6322939 3.1029236 1.3100854
-2.6401427 3.0998242 1.3132623
-2.6455009 3.0861738 1.3065007
-2.6443367 3.0827086 1.3150367
-2.6377263 3.0771201 1.3057793
-2.6534116 3.0654559 1.3060774
-2.6598008 3.0750828 1.3129715
-2.6623173 3.0609646 1.3136737
-2.657074 3.0661128 1.3209929
-2.671299 3.050884 1.305058
-2.6733193 3.053983 1.304077
-2.6691034 3.0535305 1.3036845
-2.6817052 3.052012 1.3133352
-2.6810634 3.0359445 1.3032206
-2.6918805 3.0507696 1.3112234
-2.6919496 3.0341856 1.3112738
-2.6917155 3.0354843 1.3046689
-2.704582 3.0385327 1.3076693
-2.6967409 3.0310857 1.3195477
-2.701575 3.0136695 1.3199329
-2.7223392 3.0184834 1.3071588
-2.7240787 3.011759 1.31768
-2.7262056 3.0166728 1.3104359
-2.843076 3.1427171 1.2336847
-2.8458462 3.1457465 1.2327228
-2.8606081 3.1329312 1.2389485
-2.8553138 3.1245689 1.2302499
-2.8766189 3.1275542 1.2283828
-2.874918 3.1225886 1.2428576
-2.8813331 3.116992 1.2437108
-2.8873575 3.1148293 1.2331787
-2.8861501 3.1151197 1.2397287
-2.8944161 3.1174703 1.235005
-2.8899205 3.1115317 1.2438902
-2.9049711 3.1071899 1.2398027
-2.9009781 3.0924475 1.2269039
-2.9107537 3.0873547 1.229653
-2.9092221 3.0853066 1.2394034
-2.9095519 3.0893037 1.2282106
-2.9154015 3.0712247 1.2354496
-2.9203918 3.0714543 1.2245603
-2.9359086 3.0772188 1.2380016
-2.9248695 3.0590394 1.2378401
-2.9385486 3.0696716 1.2357926
-2.9433367 3.0495636 1.233462
-2.9522066 3.0577536 1.2404534
-2.9539695 3.0404673 1.2264225
-2.9529774 3.049006 1.2344204
-2.9622293 3.0415025 1.230498
-2.9626682 3.0324321 1.232585
-2.9758623 3.0426474 1.2389964
-2.9799397 3.0216167 1.2352728
-2.9705703 3.0158901 1.2374762
-2.9813564 3.0207436 1.2344244
-2.9741843 3.0250623 1.235383
-2.9893367 3.0047593 1.2286559
-3.1280355 3.1373146 1.1515738
-3.1303976 3.1445365 1.1643656
-3.1247559 3.1267369 1.1537963
-3.1430304 3.1327231 1.1583046
-3.1392119 3.1297336 1.1571821
-3.1489758 3.1268795 1.1591889
-3.142457 3.1176021 1.1596347
-3.1537287 3.1017396 1.1491058
-3.1480463 3.097245 1.1670731
-3.1613989 3.1017873 1.1489209
-3.1614723 3.1023581 1.1571338
-3.1614225 3.0849264 1.1569462
-3.1685748 3.0774903 1.1633426
-3.1862903 3.0761273 1.1601146
-3.179491 3.0829244 1.158293
-3.1938081 3.0642929 1.1580191
-3.1861122 3.0765092 1.1528755
-3.1979642 3.0617771 1.1562835
-3.2003388 3.0570443 1.1596166
-3.2047398 3.0632696 1.1519181
-3.2072868 3.0537262 1.1492221
-3.2216148 3.0485308 1.1535327
-3.2161241 3.0404754 1.1548511
-3.2242305 3.0389907 1.1592565
-3.2355585 3.028585 1.1549149
-3.2287021 3.0281358 1.1564038
-3.2421131 3.0196497 1.154577
-3.2406616 3.0235729 1.162492
-3.2357955 3.0093763 1.150154
-3.3833041 3.1400151 1.071328
-3.3829653 3.1271718 1.0846496
-3.3853157 3.1242366 1.0772732
-3.4033489 3.1110215 1.0863453
-3.4000571 3.1139235 1.078442
-3.4123533 3.1097143 1.0846484
-3.4089842 3.0965722 1.0749266
-3.4041197 3.0942233 1.0812461
-3.4210753 3.0975244 1.0760218
-3.4301093 3.0898831 1.0811398
-3.4314747 3.0946326 1.0764534
-3.4344599 3.0840745 1.0836639
-3.4441171 3.0755129 1.0726855
-3.4411438 3.0732582 1.0732443
-3.4490919 3.058629 1.0814635
-3.4449363 3.0560305 1.0702379
-3.4545677 3.0611215 1.0706408
-3.4539142 3.0553904 1.0734714
-3.4669342 3.0570109 1.0843858
-3.4651721 3.0338976 1.0724473
-3.4782848 3.0337126 1.070053
-3.4760776 3.0348294 1.0819013
-3.4866526 3.0305693 1.0899945
-3.4881997 3.033556 1.0806457
-3.4891808 3.0128615 1.0814862
-3.4819362 3.0205827 1.0845529
-3.626071 3.1229057 1.0003417
-3.6298027 3.1299534 1.0124351
-3.6506965 3.1282203 1.0109912
-3.6406691 3.1124828 1.0112823
-3.6425729 3.1078582 0.9962427
-3.6468639 3.1096606 1.00718
-3.6592994 3.1051004 0.99872297
-3.6636345 3.103199 0.99812454
-3.6773114 3.0845153 1.0017095
-3.6701407 3.0772686 0.997899
-3.6798959 3.0702333 1.0013212
-3.676656 3.0638123 0.99688196
-3.6813157 3.0608363 0.99580705
-3.6874118 3.0722194 1.0040977
-3.6932099 3.0660231 0.99287307
-3.6940401 3.0598536 1.0085661
-3.7039258 3.0455587 1.0048205
-3.7022614 3.0512321 1.0043007
-3.7211881 3.0275245 1.0102308
-3.7165227 3.0352767 0.9940536
-3.7156603 3.0175552 0.99598658
-3.7313685 3.0273485 0.99664986
-3.7315087 3.0167494 0.99949443
-3.7327166 3.0043142 0.99888539
-3.8897283 3.125551 0.92005032
-3.8940163 3.114785 0.91742009
-3.8826036 3.1183715 0.92567623
-3.8949289 3.1078537 0.92479265
-3.9077663 3.102633 0.92539454
-3.8946662 3.0862944 0.91894752
-3.8977356 3.0950272 0.91998386
-3.9188643 3.0922542 0.91602391
-3.9193223 3.0735354 0.92668134
-3.9169278 3.0777965 0.93012601
-3.9151347 3.073328 0.92481875
-3.9349699 3.0689051 0.93418092
-3.9374278 3.0602212 0.93257117
-3.9316216 3.0435305 0.92589104
-3.9466915 3.0383132 0.91944373
-3.9411516 3.0304995 0.92211723
-3.9420512 3.023912 0.91898924
-3.9619067 3.0204837 0.91855955
-3.9657145 3.0208783 0.92488879
-3.9588568 3.0079401 0.92096263
-3.9685471 3.00106 0.91805738
-4.1109543 3.109545 0.83902568
-4.1167288 3.1086733 0.85401058
-4.124105 3.0978498 0.85781205
-4.1381531 3.0961905 0.84190941
-4.1386409 3.0842977 0.84371215
-4.1364465 3.0957241 0.84445256
-4.1373725 3.0915062 0.84729576
-4.13872 3.0676839 0.85607034
-4.1537299 3.0749149 0.85744935
-4.152658 3.056644 0.85749686
-4.1544833 3.0675633 0.84064102
-4.158133 3.0570354 0.84867972
-4.1667895 3.0434508 0.85166705
-4.1716366 3.0401289 0.83877337
-4.1723776 3.0406229 0.83977115
-4.1913085 3.0276058 0.85798562
-4.1894903 3.0179501 0.85777849
-4.1848207 3.0112255 0.83955151
-4.1913686 3.013762 0.85436386
-0.25755295 4.9988565 0.95436627
-0.25063795 4.8236132 1.0341953
-0.26174682 4.8200254 1.0333776
-0.24521372 4.6297979 1.1094619
-0.24926482 4.4349108 1.1883588
-0.26386935 4.4397125 1.1960166
-0.2510393 4.267468 1.2672379
-0.25875166 4.2602139 1.2728944
-0.25834426 4.0705342 1.3483195
-0.25806177 4.0746331 1.3472713
-0.26801983 4.0814505 1.3365438
-0.27140906 4.0720773 1.3357331
-0.27081755 4.0782952 1.3317047
-0.27104309 4.0771666 1.3425848
-0.29103249 4.0675898 1.3436931
-0.28797323 4.069591 1.3499707
-0.29725561 4.0792513 1.3490908
-0.3111648 4.0671225 1.3413254
-0.29941687 4.0694551 1.3489354
-0.30809194 4.0777349 1.3410132
-0.31781456 4.0617204 1.3402845
-0.31826407 4.0679803 1.3505671
-0.33952364 4.0604949 1.3474602
-0.34481093 4.0584464 1.3436245
-0.33921745 4.0620699 1.3506203
-0.35251495 4.0744143 1.3400335
-0.35953414 4.0631371 1.3395308
-0.3674325 4.0636106 1.3473312
-0.36309567 4.061492 1.337904
-0.37114802 4.0563564 1.3372041
-0.36712188 4.0671573 1.3409456
-0.38382369 4.0631657 1.3314104
-0.39024204 4.0635719 1.3348613
-0.39976662 4.0643468 1.3367428
-0.39312616 4.0563712 1.3427353
-0.39948905 4.0607524 1.3415674
-0.41643786 4.0637693 1.3496252
-0.41388857 4.0645409 1.3386678
-0.42353806 4.0553026 1.3461101
-0.42261392 4.0636635 1.3489442
-0.42238882 4.0617023 1.3431134
-0.43842143 4.0486898 1.3338338
-0.44398823 4.0549088 1.3455107
-0.44610339 4.0572524 1.3385211
-0.44633612 4.0518847 1.3441218
-0.4605754 4.0458016 1.3346783
-0.47598165 4.0484161 1.3488336
-0.46332914 4.059226 1.3443506
-0.48163322 4.0460315 1.3512268
-0.49249393 4.0594053 1.3470701
-0.48051968 4.0586476 1.3415657
-0.4943752 4.0474997 1.3436704
-0.4975093 4.0564265 1.3326235
-0.50896549 4.0488791 1.3445574
-0.50741035 4.0467386 1.3317686
-0.52025348 4.0559978 1.3335499
-0.52253902 4.0554891 1.3386067
-0.53066838 4.0532694 1.3351424
-0.54327965 4.0383821 1.3391601
-0.54901356 4.0382695 1.3372362
-0.53890312 4.0357652 1.3352469
-0.55429596 4.0450387 1.3428103
-0.54758304 4.0368104 1.3400086
-0.57191592 4.042757 1.3503755
-0.56431383 4.0358891 1.3393261
-0.56949931 4.0418077 1.3382678
-0.57290244 4.0310688 1.3374403
-0.59124756 4.0378275 1.3351409
-0.5930559 4.0376015 1.3387098
-0.59084541 4.0372663 1.3429291
-0.61055756 4.0326662 1.3454154
-0.61225778 4.0382957 1.3379542
-0.60639352 4.0362601 1.3430514
-0.62332964 4.0355124 1.3348904
-0.62989759 4.0279865 1.3406639
-0.62751371 4.0208936 1.3331664
-0.62618697 4.036015 1.3357483
-0.64568645 4.0384073 1.3459153
-0.64748406 4.0246067 1.3366902
-0.64571154 4.0186305 1.347972
-0.65971833 4.0185547 1.3355031
-0.67123759 4.0223904 1.3495214
-0.67021674 4.0177007 1.3423696
-0.68409729 4.0216837 1.3353434
-0.68613768 4.0247073 1.3416723
-0.68240303 4.0157208 1.3417974
-0.68616462 4.0136671 1.3379406
-0.68734294 4.0177174 1.337381
-0.69835293 4.0255737 1.3439331
-0.69858658 4.0208039 1.3454293
-0.707537 4.0076275 1.3477778
-0.72895497 4.0085311 1.3348981
-0.71635312 4.0160532 1.3382723
-0.73090172 4.0152912 1.3465813
-0.73247516 4.0180836 1.3388731
-0.74771816 4.0102048 1.343146
-0.74283469 4.0041566 1.3463398
-0.76180649 4.002521 1.3345672
-0.76133639 4.0154657 1.3316414
-0.75431263 4.0137644 1.3449442
-0.76579118 4.0086999 1.3460772
-0.77491963 4.0078025 1.3491278
-0.7769264 4.0050912 1.3407223
-0.79555732 3.9934139 1.3325847
-0.78587765 4.0057445 1.3482774
-0.80390471 4.0084114 1.3371365
-0.79765731 4.0015402 1.3410006
-0.80821449 4.0012741 1.3442903
-0.81054264 3.9870534 1.3415929
-0.815795 4.0054302 1.338271
-0.82774293 3.9979007 1.3509688
-0.83855629 3.9868138 1.3438616
-0.82631749 3.999289 1.3351429
-0.84248233 3.9987011 1.3358545
-0.84678316 3.9933591 1.3500122
-0.85538971 3.9955547 1.3479602
-0.85513544 3.9895606 1.3401682
-0.87101537 3.9785709 1.333249
-0.86360395 3.9908128 1.3332555
-0.87888813 3.9833605 1.3327934
-0.87749249 3.989517 1.345964
-0.88339728 3.9904151 1.3492172
-0.89640766 3.9891055 1.3461236
-0.89813495 3.9771826 1.3436276
-0.89914876 3.9865091 1.3369827
-0.90600312 3.9727774 1.3337344
-0.91490763 3.9848466 1.3457006
-0.91160238 3.9665811 1.3478937
-0.9152146 3.9812701 1.3435528
-0.9388184 3.9662168 1.3329917
-0.9428826 3.9780989 1.3498268
-0.93377435 3.9696143 1.3488075
-0.94141096 3.9736557 1.3477337
-0.95213938 3.9615047 1.3360002
-0.96536189 3.9738727 1.3348638
-0.96522737 3.9649172 1.3412741
-0.96833932 3.9525869 1.3410399
-0.97948307 3.969089 1.3438339
-0.98843193 3.9675047 1.3426186
-0.98171967 3.9478407 1.3476592
-0.98556662 3.9496346 1.345899
-0.99257654 3.9460568 1.336979
-1.0006037 3.9603608 1.333433
-1.0097027 3.9494529 1.3390762
-1.0105332 3.9508371 1.3384351
-1.0124981 3.9578686 1.3501945
-1.0280508 3.947299 1.3509865
-1.0238355 3.9510944 1.3496521
-1.0368245 3.9514482 1.348112
-1.0310265 3.9440193 1.3482943
-1.0401859 3.9382467 1.3316646
-1.0511035 3.9309654 1.3328589
-1.0509388 3.9411561 1.3497666
-1.0543183 3.9277451 1.3371838
-1.0720525 3.9389992 1.3474101
-1.0704256 3.9337814 1.3461003
-1.0770373 3.9385023 1.3356613
-1.0828547 3.9329276 1.3504658
-1.0900046 3.9398515 1.3470795
-1.0986923 3.9380586 1.3377278
-1.1071955 3.9325893 1.3440742
-1.1123263 3.9216838 1.3446181
-1.1162606 3.9164219 1.3368388
-1.1232851 3.9132574 1.3371426
-1.12289 3.9178338 1.350202
-1.1322665 3.9095099 1.3395528
-1.1429507 3.9200449 1.3351414
-1.1440715 3.9102311 1.3466799
-1.1503856 3.9187338 1.3466746
-1.1600838 3.9040132 1.346416
-1.1591314 3.9062514 1.3422358
-1.1518303 3.908819 1.3487051
-1.1639831 3.91291 1.331475
-1.1639129 3.9154322 1.332651
-1.1835364 3.9038029 1.3399813
-1.1900985 3.9082482 1.3405734
-1.1873074 3.9074585 1.3332937
-1.1889253 3.8909948 1.337801
-1.1990023 3.8936613 1.3324194
-1.2090822 3.8920722 1.3339335
-1.2194184 3.8968754 1.3393093
-1.2139325 3.8944175 1.3488841
-1.221975 3.8852422 1.3441886
-1.227245 3.8815706 1.3436619
-1.2313366 3.8837061 1.3331599
-1.2280954 3.8847084 1.3487649
-1.2442598 3.8739278 1.3452495
-1.2477015 3.8869534 1.3469473
-1.2466335 3.8753238 1.332996
-1.2509445 3.8790331 1.3391477
-1.273739 3.8778231 1.331802
-1.2711551 3.8675139 1.3437057
-1.278994 3.8745739 1.3481489
-1.2715259 3.861774 1.3506427
-1.2845819 3.8702896 1.3370018
-1.2881374 3.8674514 1.3461006
-1.2960854 3.8738511 1.3461639
-1.3075461 3.8622093 1.3410052
-1.2973067 3.857033 1.3459768
-1.2608984 3.6779184 1.4122742
-1.2582091 3.6765087 1.4232882
-1.2628629 3.6830733 1.4257754
-1.2756106 3.687187 1.4171132
-1.2639126 3.6841543 1.4174485
-1.2697183 3.6734486 1.4081049
-1.2891623 3.6845679 1.4177357
-1.2795051 3.6731172 1.4155867
-1.289782 3.675581 1.4236236
-1.3052151 3.6736574 1.4083196
-1.295674 3.6733949 1.4107664
-1.3156816 3.6609449 1.4135697
-1.2416313 3.4949715 1.5005596
-1.2478898 3.4954479 1.4975951
-1.262808 3.4927385 1.4933857
-1.2573884 3.489337 1.5002654
-1.26131 3.4916029 1.5000665
-1.2755982 3.4886351 1.4902261
-1.272033 3.4804964 1.484666
-1.2804284 3.4820285 1.4990057
-1.2841252 3.4782028 1.4949133
-1.2853726 3.4794681 1.500209
-1.3038143 3.4768384 1.4953666
-1.3111123 3.472801 1.4927644
-1.3013722 3.4586933 1.4892231
-1.3158389 3.4748511 1.484058
-1.2569933 3.2992051 1.5787917
-1.2645329 3.2869298 1.5764996
-1.2619104 3.2830582 1.5678663
-1.2648456 3.2956274 1.5625696
-1.2734386 3.2893331 1.5752584
-1.2661214 3.2866225 1.5710305
-1.2735062 3.2902985 1.5659976
-1.2857307 3.2715025 1.5787586
-1.2805551 3.2872698 1.5592502
-1.298918 3.2733912 1.5777445
-1.3024435 3.2767463 1.5751697
-1.3070816 3.2771366 1.562085
-1.3140093 3.2647212 1.5669007
-1.3095676 3.2739401 1.5660638
-1.3104199 3.2591331 1.5607172
-1.2485484 3.0849116 1.6502997
-1.2606956 3.0992618 1.6495069
-1.2578733 3.0859473 1.651722
-1.2622875 3.0823655 1.6515144
-1.2662077 3.084976 1.6392449
-1.271631 3.0886133 1.6521534
-1.2796267 3.0921621 1.6472812
-1.2807045 3.0733304 1.6518292
-1.2769641 3.0834854 1.6474383
-1.2940582 3.0773299 1.6500887
-1.2964963 3.0675528 1.6516684
-1.305198 3.0699263 1.6493614
-1.29469 3.0794172 1.6355089
-1.3019645 3.0687871 1.6398499
-1.3094438 3.058527 1.6485823
-1.3091902 3.0671315 1.6427391
-1.3160255 3.072026 1.6422377
-1.3277303 3.0601254 1.6447039
-1.3348845 3.0562456 1.6391298
-1.3264271 3.0595496 1.6492113
-1.3353168 3.0646911 1.6513327
-1.3426238 3.0454032 1.6376506
-1.3522354 3.060894 1.6352886
-1.3556969 3.0533779 1.6441312
-1.3548146 3.0426476 1.6445547
-1.3651973 3.0564334 1.6354296
-1.3614206 3.0476441 1.6530517
-1.3581426 3.0514073 1.640632
-1.3723959 3.0322711 1.6461973
-1.3722203 3.0458446 1.6369373
-1.3819606 3.0347779 1.654695
-1.3895768 3.0406511 1.6350479
-1.3908724 3.041157 1.6527798
-1.3945272 3.0224433 1.64489
-1.3893368 3.0288508 1.6481701
-1.4037201 3.0291121 1.6471424
-1.4072257 3.0173841 1.6392376
-1.4131064 3.0331647 1.637014
-1.4114043 3.0189209 1.6375784
-1.4241339 3.0290782 1.653646
-1.4261209 3.0137181 1.6405829
-1.4303472 3.0149622 1.6353347
-1.4342179 3.0191286 1.6525402
-1.4403539 3.0038548 1.6529855
-1.434377 3.0179834 1.6417977
-1.525767 3.1684992 1.5769879
-1.5177642 3.1730425 1.5782697
-1.5376635 3.1759086 1.5773094
-1.5397832 3.1646779 1.5640881
-1.5413356 3.1649153 1.563013
-1.5468174 3.1673613 1.5685725
-1.5453593 3.1697733 1.5773768
-1.5491462 3.1525044 1.5723536
-1.5557247 3.1532865 1.574069
-1.5618548 3.1642296 1.5719312
-1.5591697 3.1486139 1.5757723
-1.5654426 3.1454117 1.5662992
-1.5704305 3.1467185 1.5618409
-1.5763756 3.1503105 1.5683066
-1.575539 3.1367519 1.577171
-1.5957743 3.1421106 1.5706486
-1.5904469 3.1333232 1.5687115
-1.5963123 3.1451418 1.5716852
-1.6071976 3.1347716 1.5776265
-1.5963645 3.1426582 1.5767026
-1.6076659 3.1376135 1.562361
-1.6151232 3.1306767 1.5670214
-1.6120503 3.1231296 1.5751987
-1.6134326 3.1140118 1.5691842
-1.6283461 3.1301019 1.5718335
-1.6343918 3.1103251 1.56207
-1.6269569 3.1202407 1.5657538
-1.6414558 3.1086531 1.5634968
-1.6529778 3.1105392 1.5731165
-1.6585553 3.107614 1.5728756
-1.6450535 3.0977402 1.5698493
-1.66589 3.1047585 1.5621511
-1.6620629 3.099196 1.5691769
-1.6700552 3.0965941 1.569362
-1.6640587 3.1034191 1.5679207
-1.6754096 3.0885351 1.5689919
-1.6765206 3.0854194 1.5622741
-1.6739447 3.0921354 1.5662702
-1.6936225 3.0916564 1.5744599
-1.6836771 3.0899241 1.5620381
-1.6939694 3.086014 1.5620619
-1.7072847 3.0855851 1.5714297
-1.7082949 3.0732975 1.5775667
-1.7022759 3.0773287 1.5634398
-1.7160683 3.0716639 1.5784816
-1.7112988 3.0789528 1.5609889
-1.7254547 3.0694318 1.5627365
-1.726325 3.0667846 1.5735619
-1.7231958 3.0687542 1.5662762
-1.7318736 3.0649605 1.5596318
-1.7329698 3.0551624 1.5714574
-1.7340387 3.0563338 1.5652398
-1.7457365 3.060776 1.5691262
-1.7512937 3.0555155 1.5594418
-1.7509744 3.0407369 1.5664963
-1.75561 3.0549994 1.5632493
-1.7577348 3.0393736 1.5728972
-1.7781085 3.047142 1.5623194
-1.7676532 3.0423009 1.576139
-1.7844803 3.0330398 1.5685983
-1.7879483 3.0269368 1.5736991
-1.7795871 3.0240159 1.5624166
-1.7974402 3.0336447 1.578028
-1.7914032 3.0219605 1.5708361
-1.7950472 3.0348363 1.571329
-1.8116331 3.0273135 1.5685534
-1.8114624 3.0218999 1.5726273
-1.8016404 3.0203431 1.5669508
-1.8223926 3.0134683 1.55892
-1.8293216 3.0139897 1.5641209
-1.8237879 3.0152633 1.5657177
-1.9298881 3.1668758 1.4910494
-1.9307491 3.1669517 1.4843693
-1.9359949 3.1572735 1.4885213
-1.9284288 3.1481571 1.4880714
-1.9403658 3.146657 1.5026271
-1.9550747 3.1495259 1.4943033
-1.9457059 3.1464119 1.4869626
-1.9620098 3.1467373 1.4952928
-1.9663407 3.1443217 1.4866961
-1.9654667 3.1316242 1.5019307
-1.9629922 3.1337454 1.4935797
-1.9793334 3.1394033 1.4880091
-1.9823508 3.1242092 1.495471
-1.9812124 3.120971 1.4965332
-1.9805199 3.1301818 1.4988179
-1.9852678 3.129066 1.4867007
-1.9983356 3.1216974 1.4942046
-1.9987404 3.1223996 1.4847752
-2.0108111 3.1231415 1.4956775
-2.0114741 3.1091247 1.4966356
-2.0168991 3.1019452 1.5024747
-2.0106707 3.1027839 1.4967374
-2.0300093 3.1049604 1.4985776
-2.0218818 3.0926273 1.4999574
-2.0326884 3.105334 1.493332
-2.0412061 3.0976369 1.4883807
-2.0418372 3.1012115 1.4988569
-2.0349603 3.0887177 1.4928373
-2.0375087 3.0884852 1.490368
-2.0491509 3.0919175 1.496696
-2.0598311 3.0742495 1.4986649
-2.0646679 3.0871298 1.4842987
-2.0552382 3.0849881 1.4949416
-2.0639641 3.0752861 1.4960896
-2.0713062 3.0790863 1.4927889
-2.0852697 3.0586729 1.4846414
-2.0841804 3.061929 1.5029253
-2.0926108 3.0563586 1.4915775
-2.0870569 3.0525322 1.5028658
-2.0839679 3.061352 1.500461
-2.094547 3.0437763 1.4832685
-2.1031532 3.045644 1.501843
-2.1061213 3.041218 1.5011681
-2.1184425 3.0523386 1.4936898
-2.1096113 3.0403852 1.4929159
-2.1240768 3.038733 1.4946389
-2.1266856 3.0424299 1.5025344
-2.1310065 3.0219529 1.4877818
-2.1266711 3.0312817 1.4921309
-2.131043 3.0279477 1.488234
-2.1378157 3.0182784 1.4897015
-2.1417766 3.0242426 1.4959829
-2.1471586 3.0114746 1.5007902
-2.1532116 3.010617 1.4996759
-2.1667385 3.0028179 1.489572
-2.2695916 3.1546516 1.4249368
-2.2823701 3.1580689 1.422823
-2.2872486 3.1413801 1.4232134
-2.2868755 3.1532376 1.4159201
-2.2821486 3.1449292 1.4082861
-2.3013141 3.1340506 1.4139818
-2.2990077 3.143409 1.4086469
-2.2904153 3.1315792 1.4135548
-2.2970114 3.137886 1.4206219
-2.3047171 3.1348515 1.4229124
-2.3225222 3.1217015 1.4101901
-2.3091092 3.1201589 1.4240713
-2.3178055 3.1181197 1.4244558
-2.3261068 3.1208308 1.4198959
-2.3216968 3.1126413 1.4102321
-2.3449163 3.1096549 1.4129002
-2.3424356 3.1133385 1.4081433
-2.3452852 3.1099739 1.4147793
-2.3432224 3.104368 1.410951
-2.3540878 3.0954068 1.407323
-2.362658 3.0929863 1.4137858
-2.363946 3.0883203 1.4219532
-2.3713481 3.0792944 1.4113344
-2.3783612 3.0862997 1.4266858
-2.3699296 3.0820425 1.4171131
-2.3711569 3.0788887 1.407825
-2.3897116 3.0825346 1.4254979
-2.3930185 3.0676446 1.4230894
-2.3896847 3.0591269 1.4183645
-2.3901744 3.0640485 1.4079738
-2.3942876 3.0647001 1.4184641
-2.4119334 3.0483596 1.4075956
-2.4014068 3.0489075 1.4110148
-2.4214945 3.0467291 1.4247584
-2.4262261 3.0372639 1.4175702
-2.4205256 3.0508485 1.4105599
-2.4241085 3.0301507 1.4105325
-2.4300139 3.0304139 1.4189584
-2.4383228 3.038274 1.4222162
-2.4313519 3.0299027 1.4137508
-2.434767 3.021672 1.4092983
-2.4476869 3.0200446 1.4118721
-2.4514706 3.0131881 1.4183671
-2.4518304 3.0104837 1.4260627
-2.4584415 3.0072827 1.4076779
-2.5899887 3.1567752 1.3504199
-2.5909879 3.1439829 1.3317096
-2.5920098 3.1495059 1.3366652
-2.5846002 3.1309354 1.3328894
-2.5939281 3.1435468 1.3441569
-2.6117163 3.1369493 1.3506138
-2.6139519 3.1216333 1.3388696
-2.6136086 3.1267302 1.343701
-2.606765 3.1156595 1.3492659
-2.6122208 3.1221645 1.3350736
-2.6160562 3.1190572 1.3510606
-2.6212959 3.1193271 1.3378752
-2.6252408 3.102947 1.3338388
-2.6442249 3.0983429 1.3348643
-2.6469793 3.1087723 1.3321394
-2.6384616 3.1057701 1.3464617
-2.6434815 3.0848835 1.3491185
-2.6602404 3.0886865 1.3405288
-2.6521628 3.0836742 1.3445312
-2.658515 3.0775421 1.3387073
-2.659054 3.0719054 1.3334509
-2.6636014 3.0653548 1.3321455
-2.6813285 3.07918 1.3381468
-2.6830871 3.0583367 1.3432369
-2.6838148 3.0590491 1.3424555
-2.6872621 3.0525844 1.3423768
-2.696382 3.0453999 1.3451226
-2.7028396 3.0457513 1.3353884
-2.6978817 3.03847 1.3443651
-2.7089162 3.0491211 1.3509387
-2.7057693 3.0435121 1.3356106
-2.7078736 3.0376298 1.3374729
-2.711278 3.0382891 1.3369075
-2.7286756 3.0214536 1.3392516
-2.7209778 3.0281487 1.3460671
-2.734056 3.0156496 1.3501828
-2.7272077 3.0182784 1.3508848
-2.7376082 3.0186918 1.3357149
-2.8628953 3.1446183 1.2611977
-2.8742328 3.1472499 1.2569687
-2.8789909 3.1372547 1.2709252
-2.8790717 3.1293766 1.2628
-2.8772843 3.1223102 1.2591403
-2.8960569 3.1220565 1.2624573
-2.8924797 3.1137059 1.2562873
-2.9020815 3.1164768 1.2614422
-2.9075618 3.1102908 1.2730557
-2.9123342 3.1178935 1.2689184
-2.912271 3.109551 1.2582315
-2.9108706 3.0942397 1.2741985
-2.9136934 3.0985332 1.2641987
-2.922554 3.0871036 1.2703552
-2.9195342 3.0818129 1.2734858
-2.9401684 3.0820961 1.2604092
-2.9374797 3.070297 1.2630348
-2.9409552 3.0732312 1.2724903
-2.9392703 3.0750146 1.2598245
-2.9459658 3.0763488 1.2588323
-2.9567931 3.0620642 1.2735744
-2.9583013 3.0534923 1.2570881
-2.9638367 3.0464041 1.2689843
-2.9593663 3.0547559 1.2735459
-2.9687335 3.0504229 1.256918
-2.9749644 3.0497453 1.2646801
-2.9742661 3.0360398 1.2647562
-2.990936 3.0431368 1.2718856
-2.9981449 3.036191 1.2649232
-2.9980137 3.0268161 1.2634259
-2.9988689 3.0308745 1.271781
-3.004976 3.0176797 1.2557069
-3.0075636 3.0231984 1.2566934
-3.1495528 3.1478391 1.1943378
-3.1358528 3.1367586 1.1876587
-3.1587746 3.1236784 1.1844683
-3.153928 3.1355224 1.191745
-3.1489992 3.1149163 1.1902971
-3.1569347 3.111315 1.1860877
-3.1718266 3.1120534 1.1966934
-3.1682093 3.1161389 1.1955538
-3.1762311 3.0983136 1.1854211
-3.1803207 3.1020913 1.185015
-3.1834176 3.0993683 1.183055
-3.1930149 3.0947061 1.1944172
-3.1892853 3.0914769 1.1971085
-3.1887398 3.0774426 1.1960589
-3.2009113 3.0726795 1.1988243
-3.2145243 3.0643172 1.1824157
-3.2123406 3.065393 1.1911789
-3.2195449 3.0544095 1.1884669
-3.2278826 3.0597222 1.1923749
-3.2263465 3.0452569 1.1845123
-3.2252104 3.0519998 1.198384
-3.226028 3.0534441 1.1920571
-3.2354767 3.0429111 1.1869705
-3.2422283 3.03721 1.1923249
-3.2500229 3.0236177 1.1973978
-3.2550457 3.0206864 1.1985959
-3.2564707 3.0242066 1.1853631
-3.2491264 3.0247838 1.1856463
-3.2644875 3.0212789 1.1957476
-3.3924091 3.128545 1.120046
-3.4118867 3.136013 1.1114533
-3.4174855 3.1268997 1.1088281
-3.4094048 3.1125672 1.120199
-3.426404 3.1157069 1.1104037
-3.4180422 3.1152692 1.111557
-3.4246006 3.1140192 1.1143259
-3.4299543 3.0955486 1.1051674
-3.4285343 3.0886207 1.121145
-3.4468241 3.0905232 1.1181818
-3.4550059 3.0851643 1.1220689
-3.4430339 3.0846815 1.1181906
-3.4596479 3.0829465 1.109972
-3.4588802 3.0736325 1.1121998
-3.4667351 3.0716524 1.1223522
-3.4643784 3.0623612 1.1168579
-3.4608614 3.0508316 1.1149106
-3.4745691 3.0582614 1.1192961
-3.4774282 3.0514181 1.1215626
-3.484303 3.0505846 1.1105468
-3.4941342 3.0458627 1.1189935
-3.5000715 3.0373993 1.1117846
-3.4898801 3.0366018 1.1076738
-3.5079007 3.0208449 1.1190881
-3.5036864 3.0214994 1.1133673
-3.5093131 3.0087702 1.1232064
-3.6613483 3.1237614 1.030524
-3.6545703 3.1291432 1.0459833
-3.6633995 3.115905 1.0394681
-3.669955 3.120024 1.0369943
-3.6675191 3.0985374 1.0346795
-3.6766293 3.0953319 1.0287879
-3.6729412 3.1065295 1.0469911
-3.6933568 3.0839117 1.034336
-3.6823511 3.0897059 1.0472395
-3.6970587 3.0740647 1.0323241
-3.70192 3.0714941 1.0373651
-3.7036078 3.0800464 1.0329067
-3.7098291 3.0641069 1.0403347
-3.7025583 3.0659428 1.0370127
-3.7177539 3.054538 1.037341
-3.7152572 3.0583391 1.0396067
-3.7186449 3.0501375 1.0382191
-3.7238221 3.0458221 1.0393685
-3.721647 3.0368073 1.0314733
-3.7265611 3.0373724 1.0331039
-3.7463834 3.0173564 1.0373368
-3.7411575 3.0199256 1.0353009
-3.7403827 3.0205398 1.0425106
-3.8968723 3.1280472 0.9608984
-3.8921375 3.1290443 0.96892685
-3.9070671 3.1167817 0.96595937
-3.919723 3.1053681 0.95999891
-3.9137592 3.0930071 0.9549377
-3.9266381 3.1070428 0.96608227
-3.9274046 3.1003795 0.9630183
-3.9265327 3.0781012 0.96517062
-3.9414203 3.0852492 0.95513046
-3.9383364 3.0773649 0.9709484
-3.9480348 3.0618765 0.96415955
-3.9434891 3.0554621 0.96382558
-3.950907 3.05845 0.95669311
-3.9612849 3.0531056 0.96361721
-3.9576156 3.0380416 0.96365607
-3.9589996 3.0344074 0.96321297
-3.9692314 3.0343077 0.96159446
-3.9625194 3.0393732 0.96319193
-3.9736474 3.0338368 0.95743752
-3.9748077 3.0156627 0.96930498
-3.9801424 3.0120606 0.97119623
-4.1402774 3.1283395 0.87634242
-4.1328745 3.1101758 0.88584906
-4.1525955 3.1058817 0.89554125
-4.1453843 3.1094959 0.8957054
-4.1581264 3.095958 0.8777771
-4.1513033 3.0964122 0.88529688
-4.166091 3.0877945 0.88343585
-4.1592727 3.0722573 0.88159806
-4.1782007 3.0797606 0.88715154
-4.1652532 3.0661221 0.89467406
-4.1704063 3.064553 0.89298004
-4.1745563 3.0547197 0.87891221
-4.1891913 3.0494893 0.8863458
-4.1941261 3.0357862 0.88319564
-4.1988883 3.033649 0.89231533
-4.201571 3.022635 0.887703
-4.1967254 3.0211253 0.88029295
-4.2137327 3.0307174 0.88317156
-4.2125697 3.0056572 0.87938529
-0.2492585 4.8368382 1.0631658
-0.23971061 4.6422105 1.1423016
-0.2586408 4.6470098 1.1413448
-0.24786232 4.4625239 1.2297375
-0.25602153 4.4468355 1.2219085
-0.26136255 4.264267 1.2963098
-0.25341582 4.262939 1.3010954
-0.25874847 4.2643933 1.3020986
-0.26053834 4.2797885 1.2981551
-0.2790606 4.2757845 1.294275
-0.27929989 4.268549 1.2924263
-0.28522995 4.2672286 1.3016409
-0.28651801 4.2734385 1.2960209
-0.30876219 4.2660165 1.2915797
-0.29710722 4.2766361 1.2918189
-0.31328076 4.2767277 1.2951257
-0.30954659 4.2707067 1.2974744
-0.32102618 4.2652926 1.3016557
-0.33150187 4.264029 1.3016187
-0.32592043 4.2701821 1.2979721
-0.34421834 4.2620344 1.2874931
-0.34436426 4.2738943 1.2961051
-0.35529497 4.2704039 1.2913465
-0.35184497 4.270606 1.2995943
-0.37283543 4.2683992 1.2988977
-0.373586 4.2559547 1.2987372
-0.37102896 4.2531791 1.2930083
-0.38612258 4.2648582 1.3023269
-0.39703408 4.2519951 1.2908512
-0.3879818 4.2506471 1.3060062
-0.40257534 4.2569327 1.2934995
-0.40764713 4.2490048 1.2933472
-0.40410599 4.2560768 1.290207
-0.42532259 4.2525291 1.2877799
-0.41829067 4.2539201 1.3036652
-0.43195444 4.2604899 1.2876333
-0.44577795 4.2555447 1.2893616
-0.44532943 4.2614331 1.3033131
-0.45556137 4.2623363 1.3049542
-0.45726815 4.2582178 1.3058075
-0.46381903 4.2454309 1.2935157
-0.46287572 4.2534962 1.2938728
-0.46208376 4.2510262 1.3018875
-0.484431 4.253262 1.2869483
-0.48920447 4.2484512 1.2940024
-0.49809167 4.255898 1.2882365
-0.5030098 4.2554407 1.2981439
-0.50619864 4.2413516 1.2945664
-0.51543498 4.2429485 1.2925277
-0.50302929 4.2487564 1.2870138
-0.50976926 4.2539296 1.2893646
-0.52879995 4.2459617 1.3004407
-0.5274725 4.2447004 1.2897149
-0.53812921 4.2470059 1.3019015
-0.54372418 4.2504501 1.2899622
-0.54226398 4.2509193 1.3061626
-0.54656857 4.2323813 1.3026073
-0.5609647 4.2365642 1.3056724
-0.55893713 4.2374191 1.2910525
-0.57894719 4.236588 1.3029662
-0.58446997 4.2349238 1.3007878
-0.58764082 4.2401342 1.291384
-0.59973443 4.2325773 1.3014699
-0.60255265 4.2402673 1.2946202
-0.59318316 4.2282648 1.2919822
-0.61575174 4.2436242 1.2905891
-0.62211871 4.2405796 1.2914416
-0.61203974 4.2290378 1.297269
-0.6188944 4.2254224 1.304752
-0.64036781 4.2276936 1.2922125
-0.62992615 4.2303381 1.2988255
-0.64166176 4.2357068 1.2914745
-0.64279985 4.2348757 1.2973996
-0.65385073 4.2171187 1.2918564
-0.65175015 4.2346225 1.2951607
-0.67228609 4.2154479 1.2946821
-0.67421395 4.215795 1.2920253
-0.67528796 4.2321095 1.2987015
-0.69053322 4.2274556 1.3026447
-0.6982941 4.2272134 1.2897503
-0.69859308 4.2232971 1.3003998
-0.69227767 4.2135277 1.2973253
-0.71331191 4.2085023 1.2943351
-0.70841956 4.2183056 1.2945118
-0.72906905 4.2160888 1.2931246
-0.72641295 4.2192135 1.293503
-0.72423381 4.2062869 1.2951776
-0.74471009 4.2181611 1.2941231
-0.7385087 4.2206635 1.2893795
-0.74836266 4.2012777 1.3053671
-0.75110954 4.2074637 1.2984198
-0.76320547 4.2058344 1.3026929
-0.75837445 4.2090392 1.3029381
-0.77653205 4.2030034 1.2939928
-0.7745114 4.2021832 1.3038448
-0.77387649 4.2098832 1.2978441
-0.79286152 4.2056246 1.299947
-0.79017049 4.2067509 1.2949632
-0.80853248 4.1999383 1.2935289
-0.81163639 4.2091298 1.2937639
-0.81875104 4.2014313 1.3012482
-0.81281143 4.2074919 1.2881751
-0.82259709 4.2042375 1.2993865
-0.83213598 4.1886773 1.3056499
-0.8306185 4.2009883 1.2921892
-0.83924735 4.1997838 1.2875329
-0.85387534 4.1854415 1.2997307
-0.84639859 4.1996365 1.2941754
-0.86390406 4.1813135 1.3029363
-0.86284208 4.18573 1.3020258
-0.86154342 4.1888728 1.2945619
-0.87275875 4.1837955 1.2943119
-0.87704545 4.1747699 1.2919687
-0.89011902 4.1820421 1.2952352
-0.89692742 4.1766667 1.2919908
-0.89719468 4.1884952 1.2887275
-0.90211654 4.1715279 1.2923162
-0.91483891 4.1878667 1.2913021
-0.91311473 4.1725283 1.2931758
-0.92262775 4.1840782 1.3006843
-0.9330495 4.1827517 1.2925626
-0.9309333 4.1760325 1.3005979
-0.94906527 4.1708484 1.3008509
-0.94953853 4.1784101 1.2896273
-0.94674343 4.1649809 1.2942873
-0.96719098 4.1771011 1.2920437
-0.97089988 4.1701136 1.2941079
-0.97101814 4.1562157 1.2937946
-0.9721486 4.1698532 1.2994348
-0.99140346 4.1597862 1.2979248
-0.98314786 4.1651049 1.2963963
-1.0030121 4.1583452 1.2894651
-0.99483895 4.1592565 1.2986739
-1.0064108 4.1654963 1.2967767
-1.0092045 4.1603308 1.3027911
-1.007336 4.1605158 1.3022741
-1.0277091 4.1427875 1.2961261
-1.0260161 4.1507349 1.2974455
-1.0246344 4.1433444 1.2937752
-1.0376104 4.142489 1.301419
-1.0520943 4.1556778 1.2957706
-1.0481046 4.1547885 1.3047594
-1.0510442 4.1478562 1.296065
-1.064773 4.1351352 1.2950237
-1.0603967 4.1454005 1.2902384
-1.070004 4.1433129 1.2870674
-1.080126 4.1466289 1.2876059
-1.076394 4.1374121 1.2975377
-1.0913404 4.1353493 1.3015326
-1.0899551 4.1260815 1.3061341
-1.1009238 4.1280975 1.3053941
-1.1175387 4.1198697 1.3052425
-1.1051625 4.1344662 1.2996453
-1.1214787 4.1210966 1.3028207
-1.118834 4.1178632 1.2977638
-1.1409724 4.1307802 1.2921296
-1.1462795 4.1193314 1.2913294
-1.1510458 4.1173682 1.3028387
-1.1458781 4.1262097 1.2938197
-1.1567131 4.1221867 1.2970749
-1.1629444 4.1129422 1.3038967
-1.1699136 4.1128278 1.304049
-1.177032 4.1108322 1.3003646
-1.1697453 4.1182613 1.3048848
-1.1792809 4.1140738 1.2877542
-1.1938709 4.1134844 1.3051312
-1.1940929 4.1133218 1.2926579
-1.1951127 4.0941248 1.2998279
-1.204621 4.1058254 1.2974545
-1.2031459 4.0924182 1.2926804
-1.218413 4.0985045 1.3002921
-1.2268561 4.1033449 1.2894282
-1.2351445 4.0867872 1.2982154
-1.2271148 4.1032348 1.2960865
-1.2345625 4.0958624 1.2914327
-1.2391384 4.0996137 1.28786
-1.2463348 4.0888543 1.3058034
-1.2660021 4.0827837 1.3062364
-1.2584968 4.0929117 1.3000644
-1.2733625 4.0902195 1.3021877
-1.2729999 4.077961 1.2921081
-1.285023 4.0829597 1.2885871
-1.2879074 4.0853667 1.2902349
-1.2820021 4.0814977 1.2900646
-1.2982231 4.0758734 1.3042642
-1.2990955 4.0713634 1.3039656
-1.2461916 3.8888161 1.3691599
-1.2524416 3.8888946 1.3755559
-1.2582563 3.8821611 1.373854
-1.2702404 3.8862419 1.3712417
-1.2800988 3.8963633 1.3781612
-1.2800343 3.880137 1.3718772
-1.2834883 3.8866987 1.3698059
-1.2852918 3.8848362 1.36568
-1.2872633 3.8724203 1.3777515
-1.2950325 3.8847971 1.3671423
-1.3030978 3.8783939 1.3723514
-1.2604098 3.6955283 1.4538984
-1.2511288 3.6879692 1.4359905
-1.2635472 3.693835 1.4439439
-1.2585754 3.6952491 1.4438065
-1.2666817 3.6821315 1.4492384
-1.2810694 3.6909616 1.4430354
-1.2775258 3.6833873 1.4367802
-1.2781057 3.6792378 1.4399272
-1.2866117 3.692713 1.4372768
-1.3057243 3.6835141 1.4500567
-1.2996252 3.6823416 1.4374377
-1.3064708 3.675591 1.439024
-1.2482369 3.5069654 1.5227418
-1.2447882 3.5031312 1.5151582
-1.2614743 3.4963245 1.5162429
-1.2727259 3.5002618 1.5279506
-1.2701783 3.4928715 1.5138842
-1.2738833 3.4900279 1.5174757
-1.2744387 3.4838023 1.5163571
-1.2776421 3.4835856 1.5278612
-1.288063 3.4945869 1.5200217
-1.2911005 3.4838588 1.5272677
-1.2925491 3.4934938 1.5223265
-1.3047715 3.4914448 1.5153131
-1.3045752 3.4775748 1.5232625
-1.3032916 3.4773157 1.5169247
-1.2439121 3.3111331 1.5994737
-1.2647399 3.2995272 1.5864743
-1.2619737 3.2922211 1.5890454
-1.2603239 3.3065646 1.5932027
-1.2671672 3.2953374 1.5901711
-1.2818476 3.2859206 1.5982281
-1.2692795 3.2999008 1.5977433
-1.2816501 3.2865009 1.5970395
-1.2810315 3.2981379 1.6043026
-1.292461 3.2958963 1.5931501
-1.2902259 3.2914836 1.5909966
-1.2999332 3.2908337 1.5990013
-1.3026376 3.2775381 1.6014706
-1.3027683 3.270478 1.6000606
-1.3187391 3.2811575 1.5892069
-1.2477382 3.1098349 1.6652207
-1.2584385 3.1076589 1.6625166
-1.2496212 3.0976882 1.6682155
-1.2615051 3.0929096 1.6673605
-1.2661234 3.1012723 1.6660794
-1.2618917 3.0964386 1.6622075
-1.2798111 3.0864635 1.6595141
-1.2897233 3.0983472 1.6653596
-1.2771636 3.094661 1.6659861
-1.2860115 3.0795619 1.6591396
-1.2857105 3.090019 1.6747268
-1.3038872 3.0940886 1.6699004
-1.3047657 3.0912862 1.6768717
-1.2999426 3.0809078 1.6608386
-1.315972 3.0702169 1.6749486
-1.31328 3.0680606 1.6660115
-1.3144573 3.0722859 1.6688915
-1.3183254 3.0708969 1.6654537
-1.3363454 3.0663633 1.6601338
-1.3337363 3.077275 1.6615256
-1.3379711 3.0727782 1.6751906
-1.3466159 3.0743928 1.6747476
-1.3400847 3.0594141 1.6733307
-1.3465796 3.0535417 1.6633698
-1.3491048 3.0559201 1.6645583
-1.3575172 3.0652685 1.665437
-1.3548642 3.0577149 1.6723931
-1.3693286 3.0505657 1.6598186
-1.3672282 3.0496666 1.6645749
-1.3704448 3.055644 1.662113
-1.3722669 3.0416515 1.6770306
-1.3804214 3.0432763 1.6754447
-1.3890162 3.035692 1.6607686
-1.3990251 3.0458696 1.662114
-1.3989921 3.0377765 1.6677381
-1.3977679 3.0455225 1.6646165
-1.3956623 3.0401704 1.675853
-1.4065977 3.0446005 1.6618583
-1.410105 3.0353744 1.6688882
-1.4088533 3.027173 1.6638253
-1.4300606 3.0213876 1.6667054
-1.4163475 3.031683 1.673152
-1.4242175 3.0176167 1.6739616
-1.4267608 3.0177717 1.6669027
-1.4279559 3.022187 1.6737098
-1.443524 3.0120511 1.6702281
-1.442211 3.0082428 1.6633655
-1.4496586 3.0177181 1.66291
-1.451098 3.0079026 1.6752114
-1.4655046 3.0035527 1.6613002
-1.5467925 3.168807 1.5891039
-1.5436088 3.1652672 1.603698
-1.5539755 3.1780624 1.5862324
-1.5635295 3.1725166 1.5909342
-1.5601394 3.1699748 1.6020693
-1.5699391 3.1560616 1.5850927
-1.5632175 3.167655 1.5863378
-1.5833554 3.1559916 1.5990942
-1.5839456 3.1670768 1.6040766
-1.5922314 3.1479409 1.5867567
-1.5944253 3.1535201 1.5901437
-1.594318 3.1466954 1.5921644
-1.5996135 3.1539125 1.5891601
-1.6023715 3.155982 1.6027958
-1.6004246 3.1458442 1.596082
-1.6073395 3.1503065 1.5976533
-1.6112278 3.1458869 1.5930222
-1.6138678 3.1457233 1.5989386
-1.6237482 3.12936 1.5981569
-1.628643 3.1290984 1.600462
-1.6308545 3.1310275 1.5905755
-1.629676 3.1374447 1.5960991
-1.6464734 3.1229448 1.5910814
-1.6462719 3.1300619 1.5903803
-1.6524316 3.1234977 1.601795
-1.6453017 3.1143873 1.5999315
-1.6565974 3.1257544 1.5959142
-1.6725208 3.1188436 1.5940052
-1.6625247 3.1064117 1.5980108
-1.6733068 3.1134412 1.6040387
-1.6817808 3.1026118 1.5942856
-1.6801379 3.0973108 1.5932461
-1.6929681 3.0995588 1.600009
-1.6908126 3.1063514 1.596197
-1.6893549 3.0913246 1.5881354
-1.6964792 3.0877643 1.5932838
-1.7054638 3.0972416 1.5921258
-1.6984622 3.0951262 1.5863895
-1.7133664 3.0873339 1.5905602
-1.7242616 3.0930831 1.6041049
-1.7091256 3.0746789 1.5891709
-1.7237391 3.0822349 1.5912929
-1.719389 3.0812745 1.5980254
-1.7282724 3.0667803 1.5939194
-1.7409645 3.0780511 1.5971613
-1.7417148 3.0665016 1.5992237
-1.7373133 3.0702682 1.5931506
-1.7540663 3.0653338 1.5873549
-1.7565522 3.0697892 1.5961657
-1.754864 3.0676401 1.5931306
-1.7596276 3.0649142 1.5941023
-1.7593217 3.0518587 1.5850466
-1.7768905 3.0474341 1.5974536
-1.7677233 3.0584033 1.5977952
-1.7826586 3.0409539 1.5918424
-1.7743485 3.047025 1.596781
-1.7839724 3.0417643 1.5879329
-1.799666 3.0440142 1.596603
-1.8011518 3.0480385 1.5921874
-1.7938232 3.0380077 1.5880872
-1.8095263 3.0274665 1.6037318
-1.8042542 3.041481 1.5887975
-1.8080341 3.0221732 1.591921
-1.8194034 3.0362754 1.588502
-1.8304275 3.0196819 1.5901282
-1.827401 3.0156345 1.6003255
-1.8194323 3.0261955 1.5877684
-1.8403081 3.0252919 1.5999734
-1.8325101 3.007128 1.5987207
-1.8491242 3.0205145 1.5899611
-1.9475225 3.1602383 1.5186958
-1.9528053 3.1714907 1.5184751
-1.9530185 3.1631744 1.5214881
-1.9501045 3.167696 1.5211509
-1.9706055 3.1653976 1.5267736
-1.9694766 3.150326 1.510908
-1.9781464 3.1474199 1.5281686
-1.9793694 3.1478314 1.5270964
-1.9883835 3.1402304 1.5104373
-1.9786466 3.1402013 1.5297472
-1.9776654 3.1436441 1.5135479
-1.9934514 3.1262028 1.5113319
-1.989454 3.1329439 1.5235366
-2.0024397 3.1269903 1.5230062
-1.9957589 3.1249235 1.5229267
-2.0034513 3.1283691 1.5105312
-2.0070055 3.1275251 1.5179913
-2.0132952 3.109834 1.5286305
-2.020653 3.107501 1.5144426
-2.0246661 3.1192734 1.5230056
-2.0293651 3.1163914 1.5177974
-2.0302594 3.1020842 1.5179402
-2.033366 3.0961308 1.5276222
-2.0442636 3.1015444 1.5141551
-2.0556879 3.0979879 1.5214317
-2.0471873 3.0910838 1.5149704
-2.0510786 3.0849667 1.5104876
-2.0675056 3.0968969 1.5111425
-2.0732894 3.0858023 1.5122991
-2.073257 3.0750241 1.5280688
-2.0646574 3.0838718 1.5238035
-2.0812624 3.0761466 1.5280837
-2.0777199 3.0696321 1.5292693
-2.0844917 3.0765328 1.5187337
-2.0847263 3.076319 1.5275126
-2.0976803 3.0689106 1.5122643
-2.0970917 3.0619123 1.5137818
-2.1009815 3.0627842 1.5101186
-2.1042125 3.0621655 1.5182559
-2.1062827 3.0458684 1.5185161
-2.1125789 3.0624559 1.5105309
-2.1231365 3.0467196 1.5177336
-2.1294098 3.0388024 1.5213407
-2.1344929 3.0483866 1.5147736
-2.1301076 3.0420048 1.5109235
-2.1369395 3.0469339 1.522602
-2.1390154 3.0367122 1.5102249
-2.1395695 3.0268571 1.5216688
-2.1437826 3.0380235 1.5154487
-2.1598542 3.031368 1.5158923
-2.1556616 3.0226603 1.5158899
-2.1594496 3.0276351 1.5231237
-2.1760309 3.0105724 1.525419
-2.1690006 3.0126584 1.5202829
-2.1685333 3.0033569 1.5117553
-2.2814193 3.1613097 1.4366589
-2.2933242 3.1513901 1.448837
-2.2976017 3.1451311 1.4541682
-2.3104308 3.1388693 1.4536797
-2.3094757 3.1407425 1.4495555
-2.3080723 3.1310103 1.4397492
-2.3066669 3.1416879 1.4379494
-2.318023 3.1399779 1.4421245
-2.3270793 3.1294875 1.4514287
-2.3212671 3.1236494 1.4544806
-2.3239779 3.1186137 1.4486779
-2.3472865 3.1260588 1.4361695
-2.3384123 3.1136076 1.440622
-2.3442023 3.112704 1.4420389
-2.350476 3.1171281 1.4485612
-2.3608696 3.1073232 1.4485897
-2.3610649 3.103287 1.4425403
-2.3630552 3.0922532 1.4380314
-2.3608658 3.0965176 1.4462887
-2.3693678 3.0909436 1.4519708
-2.3748128 3.0870039 1.4358859
-2.3860562 3.0840962 1.450521
-2.3898034 3.0943985 1.4359859
-2.3890934 3.0832424 1.4438343
-2.3869617 3.0701392 1.4393997
-2.398303 3.0709646 1.4484595
-2.4096112 3.0759122 1.4367881
-2.4069641 3.0631826 1.4373943
-2.4088211 3.0569506 1.445582
-2.422416 3.0665205 1.4515189
-2.4103243 3.0549443 1.4368453
-2.4143126 3.0564191 1.4425994
-2.423661 3.0584366 1.4419972
-2.4275398 3.0454495 1.453586
-2.4435656 3.0388741 1.4554248
-2.444021 3.0452335 1.4414482
-2.4354119 3.0445559 1.4357846
-2.4584696 3.0307915 1.4407624
-2.460916 3.0394318 1.4428854
-2.4551702 3.0187342 1.4379615
-2.4634826 3.0143807 1.4448502
-2.4664636 3.0302863 1.4366089
-2.463686 3.0210862 1.4537859
-2.4815056 3.0122452 1.4413826
-2.6062329 3.1544685 1.3713226
-2.6108146 3.1574428 1.3655349
-2.6093678 3.1532495 1.362494
-2.6135795 3.1502173 1.3691193
-2.6128082 3.1289523 1.3678213
-2.6099088 3.1376424 1.3692679
-2.6319282 3.1222246 1.3698092
-2.6270537 3.1280251 1.36971
-2.6304154 3.1207981 1.3638706
-2.636595 3.1199412 1.3726562
-2.6351726 3.1170435 1.3642801
-2.6493108 3.1139436 1.3625212
-2.6492317 3.1166649 1.3802181
-2.6521883 3.0995438 1.3785383
-2.6485143 3.1075585 1.3792548
-2.6661332 3.1028316 1.3723291
-2.6623001 3.1004393 1.373659
-2.6779206 3.0872703 1.3644692
-2.6736352 3.0950832 1.371738
-2.6751838 3.0810554 1.3618417
-2.6879416 3.0727835 1.3727455
-2.6890702 3.0747013 1.3642534
-2.6919525 3.0810215 1.3621926
-2.6971326 3.0687032 1.366727
-2.7039874 3.0643716 1.3629979
-2.7101202 3.0667286 1.37827
-2.7031734 3.0572212 1.3748839
-2.7148914 3.0563903 1.362069
-2.7157941 3.0441368 1.3808132
-2.7294226 3.0546215 1.3692816
-2.7329419 3.0366297 1.3732362
-2.7255523 3.0417855 1.3628726
-2.7266493 3.0283301 1.3625994
-2.7298017 3.0339603 1.3737838
-2.7484145 3.0169961 1.3644186
-2.750751 3.0181544 1.3611985
-2.7578099 3.0105093 1.3722647
-2.7482495 3.0153909 1.3662999
-2.7514989 3.0036089 1.3718873
-2.8820994 3.1386278 1.2972769
-2.8983152 3.1379845 1.3029866
-2.8905709 3.1289539 1.2976757
-2.9131842 3.1230443 1.3027387
-2.9160652 3.1181943 1.2972671
-2.9077561 3.1189389 1.2986727
-2.9088066 3.1215484 1.3050835
-2.9130714 3.1212955 1.2877022
-2.9262643 3.1147938 1.2990613
-2.9254162 3.1092284 1.302503
-2.9389751 3.1033435 1.2886389
-2.9326444 3.1056075 1.2981842
-2.9405982 3.0999751 1.3027574
-2.9538572 3.0960829 1.3054856
-2.9420474 3.0936573 1.2874348
-2.9557035 3.083883 1.2942054
-2.9679482 3.077395 1.2876686
-2.9737763 3.0709727 1.3049678
-2.97698 3.0756826 1.2998602
-2.9688187 3.0655596 1.2932884
-2.9772098 3.0661917 1.3049387
-2.979459 3.0574622 1.3029664
-2.9921575 3.0450811 1.2994809
-2.9802768 3.0437372 1.2962283
-2.985662 3.0384939 1.2946814
-2.9890921 3.0438793 1.2874975
-3.0057459 3.0412989 1.2979685
-3.0089304 3.037164 1.3061665
-3.0148101 3.0340929 1.3032296
-3.0057914 3.0234449 1.2943308
-3.0233386 3.0086615 1.2902311
-3.0292296 3.0158792 1.3015749
-3.1691451 3.1450696 1.2302223
-3.1606641 3.1397676 1.216205
-3.1754293 3.1333129 1.2211351
-3.1717353 3.1276546 1.2156473
-3.1752191 3.1295631 1.2317817
-3.1882255 3.1125016 1.2279898
-3.1930277 3.1137698 1.2253411
-3.1807606 3.1082597 1.2162647
-3.1973863 3.1093993 1.2166312
-3.1981051 3.1088393 1.2284472
-3.207474 3.1046073 1.2232645
-3.213695 3.0932178 1.217208
-3.213927 3.0914183 1.229131
-3.2092226 3.0776618 1.219836
-3.2099998 3.0847642 1.2168961
-3.2146361 3.0631971 1.2213475
-3.2230582 3.0611582 1.2315254
-3.2341228 3.0557103 1.2206578
-3.2342572 3.0579553 1.2154007
-3.234019 3.0637929 1.2140603
-3.2419584 3.0445671 1.2129707
-3.2550743 3.0434196 1.2249804
-3.25424 3.0463333 1.2196852
-3.2614765 3.0382378 1.2251343
-3.2580016 3.0336459 1.2221928
-3.2574604 3.0286915 1.2221968
-3.2724612 3.0195827 1.2246805
-3.2772777 3.0236714 1.2262414
-3.2729554 3.0118804 1.2145776
-3.4111133 3.1295514 1.1387937
-3.4335501 3.1383593 1.1428208
-3.4370697 3.1182876 1.1502491
-3.4285731 3.1232793 1.1451453
-3.445365 3.1052582 1.1565063
-3.4367008 3.1149287 1.1478415
-3.4509718 3.1093514 1.1387943
-3.4452317 3.092977 1.1452165
-3.4570012 3.0959842 1.1403109
-3.4672031 3.0875051 1.1482043
-3.4690621 3.0822825 1.1533896
-3.472204 3.0789764 1.1521758
-3.4713118 3.0764966 1.1556894
-3.4829845 3.0668533 1.1490002
-3.4797544 3.0647507 1.149101
-3.4851565 3.0556386 1.1436899
-3.4992166 3.0565751 1.1575246
-3.5023172 3.047564 1.1398147
-3.4989886 3.0510898 1.1499475
-3.5005586 3.0487125 1.1564426
-3.5142286 3.028769 1.1425627
-3.5027063 3.0299692 1.1502301
-3.5123909 3.0363407 1.1402771
-3.5185552 3.0153112 1.1455463
-3.5314016 3.0217776 1.1535845
-3.5241404 3.0071003 1.1573879
-3.6639583 3.1225264 1.0725167
-3.668427 3.1189876 1.0780182
-3.6905985 3.1230152 1.0719405
-3.6826298 3.1097038 1.0683869
-3.688159 3.1069465 1.0697967
-3.6875608 3.0999291 1.0773197
-3.6992879 3.0874376 1.076133
-3.7009609 3.0929856 1.0788417
-3.7173574 3.0898838 1.0729473
-3.7057085 3.0782332 1.077312
-3.7102489 3.0726225 1.0821335
-3.7251592 3.0668867 1.0685623
-3.7345605 3.0633156 1.0641707
-3.7300322 3.0520422 1.0716258
-3.7290502 3.059562 1.0814883
-3.7466512 3.0519943 1.0695034
-3.7367218 3.0370069 1.0702034
-3.7479718 3.0446467 1.0816337
-3.7565057 3.0401831 1.0751505
-3.750927 3.0316544 1.0822111
-3.7609758 3.0228634 1.0688614
-3.766196 3.0234337 1.074982
-3.7649801 3.0188665 1.0827441
-3.9136002 3.1183856 0.9899568
-3.9294667 3.1276317 1.0044074
-3.9354634 3.1035187 0.99652058
-3.9334371 3.11357 0.99888229
-3.9307032 3.0965984 0.99412596
-3.9365311 3.0953128 0.99015385
-3.9488347 3.0838189 1.0029067
-3.9540699 3.0864813 0.99212819
-3.952647 3.0881219 1.0071856
-3.965096 3.0751688 1.0029472
-3.969775 3.063231 1.008204
-3.9727395 3.0597634 1.0081931
