# .PCD v0.7 - Point Cloud Data file format
VERSION 0.7
FIELDS x y z
SIZE 4 4 4
TYPE F F F
COUNT 1 1 1
WIDTH 1509
HEIGHT 1
VIEWPOINT 0 0 0 1 0 0 0
POINTS 1509
DATA ascii
-6.0874891 4.6999426 0.18560784
-6.0946517 4.6914973 0.17611147
-6.1031747 4.6784034 0.18868877
-6.1046548 4.6720867 0.18278794
-6.1126862 4.6672645 0.18870747
-6.1196356 4.6502991 0.18386841
-6.122982 4.6413374 0.18824279
-6.1425004 4.6455584 0.17552604
-5.9867258 4.5227938 0.25583255
-5.9934106 4.5126419 0.256226
-6.0068874 4.5004077 0.24857344
-6.0170169 4.4875407 0.24100229
-6.0166306 4.4926686 0.24887316
-6.0236554 4.4828234 0.23897186
-6.0365691 4.4714413 0.25280228
-6.0435514 4.4595919 0.25823027
-6.0553613 4.4508672 0.24326886
-6.0427847 4.4490824 0.24110951
-6.0629129 4.4393816 0.25743747
-6.0717607 4.4292741 0.25200295
-6.0602026 4.4119549 0.24273206
-6.0762854 4.4107609 0.24900118
-6.0799274 4.3961954 0.24881412
-6.0956864 4.380836 0.24720606
-6.1013355 4.3787818 0.2426488
-6.0931416 4.3759522 0.25468409
-6.0995083 4.3675084 0.2464449
-6.1208243 4.3578248 0.24488007
-6.1242876 4.3541842 0.24208248
-6.1314111 4.3478565 0.25765339
-6.1239572 4.3392348 0.24439022
-6.145762 4.3206663 0.25842658
-6.1412859 4.3045807 0.24639967
-6.0030069 4.1914949 0.31656125
-6.0001526 4.1864295 0.32415059
-6.001843 4.1756468 0.31743813
-6.011487 4.1645746 0.31081802
-6.0093579 4.1582522 0.32305881
-6.0287824 4.1545196 0.32021227
-6.0309925 4.1497045 0.31959951
-6.0376201 4.1383734 0.3189351
-6.0374985 4.1312542 0.30828097
-6.0433292 4.1146173 0.31012797
-6.0611749 4.1082749 0.31483781
-6.0578847 4.1106191 0.32287088
-6.0669932 4.0970922 0.30851802
-6.0628018 4.0797305 0.31149799
-6.0852194 4.0702944 0.31656823
-6.0753841 4.0672183 0.32632676
-6.0883832 4.0677061 0.31969962
-6.1019835 4.0473275 0.31017831
-6.0962362 4.0528197 0.32198343
-6.101131 4.0382195 0.32560468
-6.104167 4.0314994 0.31134477
-6.1224809 4.0137839 0.30789825
-6.1127501 4.0126629 0.31940249
-6.1173601 4.0014234 0.32203013
-6.1389785 3.9934452 0.32371455
-6.1355143 3.9809697 0.31082445
-6.1422796 3.9811499 0.32693076
-5.997746 3.8718994 0.38021269
-6.0004945 3.855722 0.37847453
-6.011426 3.8402696 0.39066863
-5.9987245 3.8473887 0.38468316
-6.0202713 3.8417897 0.38953078
-6.0252528 3.8315055 0.38181335
-6.0187182 3.8221831 0.39142036
-6.0295444 3.8168027 0.38162118
-6.0386744 3.8004344 0.38792592
-6.0406828 3.7828369 0.38299817
-6.0465727 3.7773829 0.37888882
-6.0482063 3.7745512 0.38698423
-6.0515666 3.7661467 0.38801676
-6.0627208 3.7557909 0.38456568
-6.0598483 3.7492242 0.38392016
-6.0721164 3.7429996 0.38140237
-6.0720901 3.7286217 0.37798172
-6.0824451 3.7287178 0.37760749
-6.0825877 3.7049725 0.38929927
-6.0964131 3.7044959 0.39183509
-6.0951548 3.7033942 0.37736595
-6.0979934 3.6859121 0.38852143
-6.1127253 3.6703115 0.3797363
-6.1064124 3.6687865 0.38906661
-6.1235385 3.6553516 0.38030842
-6.1212983 3.6548545 0.39381129
-6.1215644 3.6395776 0.38142902
-6.1252384 3.6391282 0.37764311
-6.1292753 3.6237071 0.37861943
-6.1416082 3.6196189 0.38763374
-6.1513934 3.6019361 0.38406813
-6.1556354 3.606549 0.39154947
-5.9864211 3.5072339 0.46100354
-6.0081377 3.4938886 0.4484387
-6.0005116 3.4885166 0.45098945
-6.0016327 3.4704721 0.46160066
-6.0092387 3.4572372 0.46549982
-6.0092154 3.4653914 0.45752138
-6.0329661 3.4545605 0.46270064
-6.0357289 3.4364364 0.45237762
-6.0294657 3.4335546 0.45296463
-6.0467563 3.4314463 0.44676459
-6.0365534 3.421267 0.46417585
-6.0459223 3.4142313 0.45662931
-6.0478439 3.3996699 0.45210472
-6.0472031 3.3888242 0.45793641
-6.0559392 3.3751976 0.4589408
-6.0607643 3.3664074 0.45651379
-6.0735559 3.3586679 0.45167693
-6.0811567 3.3529551 0.45714369
-6.0790682 3.338284 0.44816318
-6.0763812 3.3310885 0.46551552
-6.0798821 3.33885 0.46113625
-6.0859599 3.3219857 0.45817575
-6.0995727 3.3079305 0.4491148
-6.0976977 3.2992351 0.4576759
-6.1099792 3.3065109 0.46108446
-6.1212444 3.2936571 0.4641836
-6.1149249 3.2726951 0.44803053
-6.1134305 3.2688041 0.45465881
-6.1264567 3.2716615 0.45511627
-6.1284518 3.2618539 0.45688519
-6.1330829 3.2531817 0.45492911
-6.1420808 3.2430558 0.46462849
-6.1540275 3.2239299 0.44879895
-6.1550231 3.2112794 0.45280689
-6.1474452 3.2109358 0.45262983
-5.9897447 3.1176245 0.51718169
-5.9955149 3.1017096 0.52028638
-5.997427 3.0918427 0.52805859
-6.0126987 3.0934904 0.52725291
-6.0075011 3.077672 0.5252108
-6.0205231 3.0817401 0.52307385
-6.0154896 3.0613155 0.51939476
-6.0207443 3.0534375 0.5251798
-6.0218172 3.0490453 0.52691054
-6.0388708 3.0367 0.5169003
-6.0360889 3.0398102 0.52846682
-6.0377812 3.0214748 0.53250068
-6.0363569 3.0055411 0.51505584
-6.2153893 3.0818768 0.45861554
-6.2270908 3.0842254 0.46379444
-6.2208223 3.0778301 0.46144769
-6.2366786 3.0607347 0.44708842
-6.2362018 3.0626388 0.45326933
-6.229928 3.0477128 0.46348211
-6.2419109 3.0399647 0.44977957
-6.2438922 3.0192175 0.44762307
-6.2542944 3.0209856 0.45557311
-6.2606506 3.008374 0.45603716
-6.4338264 3.0900373 0.38901371
-6.4251194 3.0831685 0.38207033
-6.4312205 3.066844 0.37743196
-6.4396558 3.0589271 0.38440457
-6.4424376 3.0557387 0.38199356
-6.4390264 3.0430639 0.3933748
-6.4453897 3.0226333 0.38573208
-6.4654427 3.024437 0.38607213
-6.4676399 3.0200412 0.37691632
-6.6322637 3.0722275 0.31485355
-6.6461315 3.0658181 0.31135646
-6.6379724 3.0723948 0.30998045
-6.656743 3.057137 0.32127598
-6.66014 3.037698 0.31365663
-6.6565509 3.0397184 0.31185684
-6.6553597 3.0293789 0.32639605
-6.6627746 3.0168927 0.30952448
-6.8490777 3.0853968 0.25444496
-6.8438759 3.0788159 0.25303835
-6.8478169 3.0621793 0.25410783
-6.84477 3.0559509 0.25804886
-6.8652072 3.0421443 0.25785393
-6.8670063 3.0338161 0.25169432
-6.8574967 3.0263281 0.25539467
-6.8755932 3.0066531 0.25042027
-7.0475826 3.0873015 0.17538017
-7.0530171 3.069571 0.18620776
-7.0553098 3.0609806 0.1780223
-7.0636306 3.0618706 0.17282376
-7.0733447 3.0430849 0.18056215
-7.061975 3.0315983 0.17165156
-7.0666509 3.0239136 0.17851976
-7.0715075 3.0186548 0.18665121
-7.2554426 3.0801122 0.1078548
-7.2628331 3.0744355 0.10802362
-7.2551832 3.0530608 0.10352813
-7.2735224 3.0505278 0.11115727
-7.2610197 3.0299644 0.12005723
-7.2766886 3.0253289 0.11971425
-7.2775416 3.0152142 0.11045878
-6.1157026 5.0125413 0.16334854
-6.1272779 4.9993224 0.17633168
-6.1369209 4.9818449 0.16388056
-6.144701 4.9757094 0.16947125
-5.991478 4.8482723 0.23821244
-6.0091724 4.8471694 0.23963688
-6.0193744 4.8443346 0.23826218
-6.0180163 4.8253531 0.22935331
-6.0302401 4.8268824 0.23327751
-6.0318503 4.8177547 0.23574823
-6.043714 4.7989306 0.23186386
-6.0451832 4.7954922 0.24331737
-6.0536571 4.7893596 0.2258607
-6.0545707 4.7823839 0.23084515
-6.0698814 4.7690535 0.2351248
-6.0641031 4.7647762 0.22669277
-6.0768881 4.7570338 0.24382664
-6.0910358 4.7373743 0.23038901
-6.0940809 4.732204 0.22690034
-6.0931897 4.7321243 0.24271299
-6.1098161 4.7268705 0.22813977
-6.1103148 4.7068257 0.23857585
-6.119348 4.7049723 0.2313363
-6.1258264 4.6888599 0.24558724
-6.1273079 4.6840787 0.23498313
-6.1444979 4.6717067 0.22858691
-6.0000453 4.5595775 0.31060576
-6.0083508 4.5537071 0.29380462
-6.0100827 4.5313873 0.30034569
-6.0152912 4.5365419 0.29532912
-6.0246754 4.511642 0.29358983
-6.0286212 4.5128021 0.30034572
-6.022119 4.511477 0.2937977
-6.0428443 4.4902096 0.29969567
-6.0493073 4.4939842 0.30938011
-6.0463624 4.4870811 0.29526928
-6.0498018 4.4610672 0.31120569
-6.0588746 4.4530773 0.30965734
-6.0647364 4.4496732 0.29418319
-6.064045 4.4473667 0.31226656
-6.0883584 4.4419703 0.29386139
-6.0943995 4.4189105 0.30503726
-6.0936728 4.4086242 0.30331728
-6.0994821 4.4038711 0.30876788
-6.0993814 4.3989019 0.30644
-6.1095843 4.3831139 0.30566412
-6.1138864 4.3901095 0.30733877
-6.1222401 4.3742442 0.30949628
-6.1321301 4.3587179 0.29673147
-6.1374822 4.3500705 0.31015036
-6.1447392 4.343286 0.30667168
-5.9964542 4.2283401 0.37630454
-5.9907651 4.2287736 0.37650335
-6.0067844 4.2095389 0.38047376
-6.0173416 4.2165341 0.36800867
-6.0102148 4.1994429 0.36829704
-6.0238519 4.184155 0.36413145
-6.0358028 4.1866074 0.37265986
-6.0255847 4.1652508 0.37422904
-6.0481191 4.1646113 0.37572694
-6.0372233 4.1627727 0.37902477
-6.0497942 4.1413293 0.36425456
-6.0603838 4.1314573 0.37830427
-6.0707631 4.1314368 0.36151367
-6.0771599 4.1267185 0.38012069
-6.0760098 4.114974 0.37004757
-6.0745597 4.115428 0.37310579
-6.0772634 4.0897551 0.36704323
-6.0914264 4.0801125 0.3680594
-6.1040087 4.0737357 0.37687966
-6.0950809 4.0640435 0.37231278
-6.1028438 4.0675573 0.3747623
-6.1053648 4.0462461 0.37580764
-6.1138239 4.0403094 0.36530828
-6.1190619 4.0337167 0.37857425
-6.1256809 4.0340037 0.36858779
-6.1423607 4.0214586 0.36755517
-6.1359706 4.0119157 0.36935735
-5.9977241 3.8914974 0.43769634
-5.9962134 3.8868055 0.44051868
-6.0058708 3.8767118 0.44218042
-6.0000834 3.8845139 0.4358955
-6.0118351 3.8754416 0.436847
-6.0225291 3.8635447 0.44041693
-6.0237112 3.8520327 0.44595769
-6.0316153 3.8395123 0.44035658
-6.0294943 3.8359108 0.43078926
-6.0483942 3.8242862 0.44026577
-6.0454798 3.8185761 0.4403246
-6.0418782 3.7997966 0.4440735
-6.0554428 3.7967677 0.44611794
-6.0673332 3.7849231 0.44436136
-6.0654974 3.7867119 0.44193694
-6.0626979 3.7831798 0.43602759
-6.0763164 3.7638273 0.4470256
-6.0843825 3.7619202 0.43393028
-6.0780377 3.7474723 0.4456678
-6.1012487 3.7394507 0.43422264
-6.0949712 3.7396581 0.44551659
-6.1086226 3.7287695 0.44648772
-6.0985136 3.7096074 0.43289432
-6.106348 3.7038336 0.43592778
-6.1159272 3.7051632 0.42922902
-6.1279187 3.6945477 0.44748431
-6.1258078 3.6755569 0.43488058
-6.1326866 3.6737318 0.42887071
-6.1326489 3.6634712 0.43692109
-6.140862 3.6552079 0.44546553
-6.1405082 3.6384182 0.44274005
-5.9866581 3.5376832 0.5053196
-5.9938817 3.5279343 0.50961077
-5.9946871 3.5355115 0.49667266
-6.0124474 3.5186582 0.51361585
-6.0168948 3.51495 0.50850236
-6.0230751 3.4984779 0.51296431
-6.0218472 3.5002394 0.50417435
-6.0266175 3.4871397 0.51370418
-6.0233259 3.4709158 0.50355816
-6.0314779 3.4601231 0.50521708
-6.0423436 3.4660552 0.51022065
-6.0382814 3.4496834 0.51385736
-6.0499167 3.4374142 0.5134604
-6.0544777 3.4322813 0.50460607
-6.0620842 3.4275858 0.50044638
-6.0547919 3.4215829 0.50822407
-6.063026 3.401669 0.50617975
-6.0800385 3.4018345 0.49945876
-6.0875087 3.3901293 0.50494403
-6.0851135 3.3750982 0.50807321
-6.0810475 3.3740158 0.50557798
-6.0919662 3.3617978 0.51516116
-6.0992355 3.3627355 0.5009321
-6.1068907 3.3438909 0.51003361
-6.1033878 3.3422072 0.5029099
-6.104033 3.3325708 0.4982602
-6.1168885 3.3194437 0.50218028
-6.1117764 3.3140361 0.5147559
-6.1333733 3.3058777 0.50412315
-6.1294727 3.3048227 0.50696272
-6.1424313 3.2925296 0.49722967
-6.1378732 3.2740023 0.50379515
-6.1437197 3.2728777 0.49982136
-6.1437831 3.2687585 0.50553256
-6.1547337 3.2527907 0.49809608
-6.1527953 3.2408142 0.50956583
-5.9887123 3.1533988 0.56412113
-6.0073581 3.1431496 0.57416075
-5.9934168 3.1359046 0.56460398
-6.0100961 3.1171489 0.58256036
-6.0039244 3.1100118 0.57679856
-6.0074739 3.1119983 0.58109069
-6.024446 3.0926914 0.57284564
-6.0253806 3.097862 0.56907535
-6.0205917 3.0766118 0.5779373
-6.0232277 3.0818172 0.58342952
-6.0343823 3.0688281 0.57732743
-6.0386333 3.0615649 0.56936234
-6.0528326 3.052603 0.58254457
-6.0565772 3.0313101 0.56536955
-6.0623536 3.0405257 0.569462
-6.0538797 3.0305164 0.58395141
-6.0611024 3.0078478 0.56755054
-6.2453628 3.0917716 0.49707928
-6.2446928 3.0813127 0.50145
-6.2351489 3.0724952 0.49946043
-6.2401004 3.0567892 0.51292235
-6.251142 3.0610862 0.50756764
-6.2501359 3.0554261 0.50170362
-6.2559361 3.030252 0.50300503
-6.2588987 3.0235202 0.50198615
-6.2777567 3.0094693 0.49942815
-6.2821126 3.0123911 0.50267768
-6.4528084 3.0849011 0.44744402
-6.4564614 3.0812707 0.43813837
-6.4557314 3.0714598 0.44874474
-6.4569778 3.0609601 0.4323805
-6.4647503 3.0436702 0.42905471
-6.4778643 3.0316243 0.42881617
-6.47683 3.0380054 0.43215677
-6.4744816 3.0256379 0.43752488
-6.4731393 3.0186143 0.43760708
-6.6652961 3.0701432 0.36171842
-6.6633468 3.0661471 0.37391961
-6.6689544 3.0627761 0.37151045
-6.6638551 3.0444005 0.36831614
-6.6681361 3.0490308 0.36365417
-6.6687684 3.0301292 0.37073997
-6.6727133 3.0223408 0.37482381
-6.6768842 3.0198016 0.37433821
-6.8695226 3.0806174 0.30287713
-6.8650656 3.069921 0.3011176
-6.8805127 3.0621982 0.30123544
-6.8841715 3.0606985 0.30666915
-6.8756156 3.037852 0.29804954
-6.8894558 3.0243533 0.30037805
-6.8864765 3.0308082 0.29666671
-6.8881459 3.0208528 0.30338931
-7.0753851 3.0860417 0.24400149
-7.0659623 3.0761347 0.2390855
-7.0770116 3.0695934 0.22753431
-7.0918441 3.0517862 0.23488566
-7.0884223 3.0427952 0.2441192
-7.0848694 3.0343952 0.24146414
-7.0958686 3.0187876 0.24557954
-7.0954733 3.0135632 0.22581887
-7.2862306 3.0684748 0.17447837
-7.287292 3.0727239 0.17048071
-7.2816172 3.0465858 0.16643213
-7.287652 3.0341442 0.16236387
-7.2985888 3.0349133 0.16164775
-7.3010626 3.0250959 0.17302376
-7.2961702 3.0029325 0.165314
-7.5091534 3.0094593 0.10029939
-5.9992909 4.8964429 0.28227371
-5.9993715 4.8889284 0.29411188
-6.0050144 4.8757844 0.28746256
-6.0077786 4.8640037 0.29895005
-6.0165172 4.8516693 0.29607472
-6.0247521 4.8432255 0.29208744
-6.0294566 4.8358679 0.29676944
-6.0298305 4.839951 0.29891855
-6.036644 4.8306494 0.28887507
-6.0429792 4.809298 0.2946859
-6.0658965 4.8033862 0.28935567
-6.0725775 4.8041949 0.28489533
-6.067409 4.78615 0.29568523
-6.0888777 4.7721181 0.28309792
-6.0788469 4.7761135 0.2865895
-6.0916796 4.7586279 0.29005972
-6.1084876 4.7631803 0.29460436
-6.1006017 4.7540889 0.2916739
-6.1105552 4.7449026 0.2878924
-6.1105399 4.7360888 0.29121986
-6.124702 4.7310519 0.29710525
-6.1241822 4.7060175 0.2922782
-6.1481104 4.7128234 0.29789433
-5.9911032 4.5905137 0.36426267
-5.9966459 4.5793986 0.35684705
-5.9986849 4.5620871 0.36046192
-6.0172424 4.5545912 0.35715461
-6.0112433 4.5415936 0.35329056
-6.028163 4.5452433 0.34878436
-6.0288525 4.5354972 0.3640171
-6.0462022 4.5181651 0.36277565
-6.0376554 4.5079174 0.36507124
-6.0539236 4.5002942 0.3627533
-6.0645638 4.5060849 0.36102191
-6.05511 4.492702 0.35656467
-6.07306 4.4836378 0.36319387
-6.0673833 4.4823618 0.35073441
-6.0850024 4.4734192 0.35369334
-6.0864735 4.4538794 0.34872672
-6.0924387 4.4399605 0.3624472
-6.1031594 4.4349909 0.36727816
-6.1151094 4.4248552 0.35031283
-6.1047521 4.4247265 0.35418409
-6.1167011 4.4202213 0.35231471
-6.1303692 4.4114213 0.36554012
-6.1284823 4.3909111 0.35818741
-6.1399546 4.3823056 0.3580538
-5.989995 4.2730851 0.42376748
-5.9907913 4.2580252 0.43216735
-5.9965429 4.2431927 0.41516957
-6.0085621 4.2438202 0.42173159
-6.0157385 4.2386661 0.42669615
-6.0198684 4.2300262 0.42007905
-6.0201154 4.2155833 0.41751212
-6.0422201 4.2136049 0.43470934
-6.0310874 4.1996341 0.41996899
-6.0472956 4.2003007 0.42520431
-6.0436258 4.1831441 0.4190211
-6.0605168 4.1711245 0.42616123
-6.068996 4.1592746 0.42686027
-6.0744615 4.1613154 0.41658661
-6.0733528 4.142077 0.42956716
-6.0872674 4.1445951 0.42232436
-6.0877876 4.13274 0.42906281
-6.0908628 4.1246433 0.42225567
-6.0967288 4.1135297 0.42991883
-6.0973234 4.1120467 0.42669746
-6.1126709 4.1000609 0.43477723
-6.1141896 4.0969996 0.41930273
-6.1285558 4.0912628 0.42045191
-6.1222115 4.0658522 0.43212327
-6.1261287 4.0673304 0.43304619
-6.1370535 4.0606618 0.42498481
-6.1352086 4.0392299 0.43357444
-6.1466141 4.0404663 0.42258105
-5.986784 3.9184556 0.49528232
-5.9971652 3.9249058 0.48874435
-6.010756 3.9017177 0.49875847
-6.0162554 3.9027078 0.49425715
-6.0172176 3.8950169 0.49257272
-6.0170188 3.8793435 0.49403971
-6.0251365 3.8854141 0.48555467
-6.03232 3.8662093 0.49897879
-6.0475531 3.8544865 0.49955603
-6.0341845 3.8569837 0.48996356
-6.0517979 3.8468943 0.49007562
-6.062984 3.831881 0.48502621
-6.0606966 3.8287227 0.48518464
-6.0683832 3.8254993 0.49473697
-6.0805593 3.8067362 0.48500937
-6.0744081 3.7935827 0.4880271
-6.0867777 3.7977099 0.48554176
-6.0876207 3.780041 0.49228549
-6.0950274 3.7725143 0.49574763
-6.1018453 3.7637198 0.49015597
-6.0982437 3.7626641 0.48293114
-6.1145177 3.7557621 0.48915696
-6.1158299 3.7364757 0.50069588
-6.116971 3.7348194 0.49749011
-6.1285486 3.7262914 0.48400736
-6.1298413 3.7092078 0.48586452
-6.1281047 3.7050352 0.50034988
-6.1288409 3.7052889 0.48567456
-6.1428218 3.683393 0.49198839
-6.1533284 3.6799245 0.49803075
-5.987205 3.5688846 0.55783397
-5.9903698 3.5634251 0.55298656
-6.007297 3.5618634 0.55739772
-6.0126734 3.5443583 0.54870474
-6.021244 3.5404618 0.56004339
-6.0232859 3.5404463 0.56286514
-6.0234585 3.5273299 0.55008835
-6.0291338 3.5186272 0.56614637
-6.0294733 3.5010819 0.54889673
-6.0434866 3.4981558 0.55677414
-6.031446 3.4842579 0.55862087
-6.0458765 3.4921629 0.56339121
-6.0451427 3.4680967 0.55499005
-6.0599861 3.4635985 0.55748081
-6.0635104 3.4554622 0.56447911
-6.0556841 3.4502053 0.55987298
-6.0650244 3.4496851 0.55056828
-6.0671296 3.4283864 0.56098539
-6.0731654 3.4316347 0.56228864
-6.0764384 3.4257431 0.54910427
-6.0918221 3.4167542 0.55046701
-6.0853477 3.3981855 0.5481866
-6.0940905 3.3851888 0.55029881
-6.1112227 3.3821759 0.55637813
-6.1058521 3.3804533 0.56279337
-6.1134715 3.3713603 0.55243057
-6.1256852 3.3577182 0.55003297
-6.1271915 3.3467503 0.55482918
-6.1182685 3.3345146 0.55137235
-6.1280308 3.3237615 0.55052966
-6.1309652 3.3223686 0.54921049
-6.132525 3.3121824 0.5578413
-6.136353 3.2979736 0.56200099
-6.1580567 3.2913406 0.55167979
-6.1536694 3.2947745 0.5481748
-5.9961295 3.1869061 0.63040817
-5.9955425 3.1800969 0.62126482
-5.9973412 3.1764424 0.62971187
-6.0143318 3.1663594 0.61448801
-6.0147681 3.1511514 0.61708248
-6.0160346 3.157634 0.62686175
-6.018609 3.1471698 0.61503911
-6.0325408 3.1374786 0.61759818
-6.0223012 3.1306725 0.62212145
-6.0223708 3.1128309 0.61868215
-6.0459337 3.1103692 0.62435174
-6.0335379 3.0929241 0.63159561
-6.0502739 3.0980988 0.6235745
-6.0585504 3.0906887 0.61386621
-6.0620394 3.0672376 0.61735177
-6.062922 3.0669024 0.6157279
-6.0540133 3.0483644 0.63205403
-6.0569158 3.0402541 0.62710917
-6.0772467 3.0467312 0.6237846
-6.0730429 3.0374746 0.63105077
-6.0722666 3.0289793 0.62429357
-6.0858088 3.0171926 0.62853593
-6.261456 3.0961764 0.56011695
-6.2558675 3.0877302 0.55903083
-6.2599754 3.0800722 0.56295604
-6.2605853 3.0557969 0.55501467
-6.2828069 3.0446835 0.55700964
-6.2686901 3.0349095 0.55937463
-6.2795057 3.0290337 0.55670309
-6.2936339 3.0315797 0.55326712
-6.2804832 3.0191081 0.54983401
-6.4644709 3.0983591 0.49683174
-6.4739237 3.0741975 0.49440384
-6.4654965 3.0799105 0.492282
-6.4781432 3.0657897 0.49126041
-6.4868517 3.055321 0.49472764
-6.483489 3.0468805 0.49585161
-6.4981189 3.0367942 0.49597749
-6.4903708 3.0201173 0.49900961
-6.5052819 3.0135252 0.49337557
-6.675014 3.0832074 0.4177773
-6.6768785 3.0843208 0.41544524
-6.6854463 3.0602703 0.41799492
-6.6964288 3.0689232 0.4153069
-6.6895199 3.0491934 0.42755362
-6.7036195 3.045006 0.41839296
-6.6942391 3.02842 0.42985898
-6.7037215 3.0214303 0.42031187
-6.7130651 3.0064015 0.42316696
-6.8917394 3.0774257 0.36222863
-6.8837652 3.0772996 0.36742646
-6.8850904 3.0595939 0.36307377
-6.8887334 3.0575926 0.3640126
-6.9098134 3.0488682 0.36295235
-6.9135685 3.0312984 0.35151622
-6.9050627 3.0238616 0.3652527
-6.9057045 3.0100255 0.35176888
-7.0880895 3.085747 0.29438055
-7.0868893 3.0612438 0.29762736
-7.1028204 3.0546227 0.28451851
-7.11339 3.0402501 0.30091354
-7.1187472 3.0288138 0.28923887
-7.1084437 3.0379817 0.28520492
-7.1171875 3.0103037 0.30209419
-7.3009233 3.0762284 0.22478113
-7.3022375 3.0814862 0.21597737
-7.3098011 3.070296 0.22300297
-7.3108344 3.0541239 0.22058824
-7.3029552 3.0434227 0.22358933
-7.3118148 3.0210476 0.22989456
-7.3137693 3.0123463 0.23175818
-7.319314 3.002517 0.23212244
-7.5112715 3.0783961 0.16531132
-7.5125957 3.0582998 0.16705726
-7.5170159 3.0526011 0.15154585
-7.5124483 3.0298641 0.15149571
-7.5166698 3.0238252 0.15046477
-7.5338511 3.0210006 0.16347699
-5.9928384 4.9273801 0.35649124
-6.0005093 4.9088192 0.35712764
-6.0013552 4.9041524 0.34259278
-6.0194683 4.894578 0.34637737
-6.029377 4.8858776 0.35885474
-6.0343513 4.8722639 0.34687313
-6.0271077 4.8771648 0.34156543
-6.0417461 4.8695645 0.35823175
-6.0493107 4.8616133 0.3571378
-6.0553689 4.8540668 0.34906572
-6.0711322 4.8361635 0.34548673
-6.0602498 4.8374305 0.35173339
-6.0687194 4.8246818 0.34170979
-6.071712 4.8206377 0.35051772
-6.0909081 4.7934918 0.33904114
-6.0976148 4.788166 0.34237576
-6.0962911 4.7768664 0.33904585
-6.1002636 4.7776999 0.35655937
-6.1075573 4.7777281 0.35457522
-6.1159334 4.7584453 0.3535074
-6.1323695 4.7501354 0.34300849
-6.1323729 4.7394314 0.34225851
-5.9960833 4.6117439 0.42215618
-5.9996786 4.6032 0.42160505
-5.9944544 4.6021485 0.42241758
-6.0006948 4.6010671 0.40642345
-6.0235891 4.5879741 0.40765858
-6.0298018 4.5775619 0.41826481
-6.0384889 4.5664968 0.41744611
-6.0291486 4.5536842 0.40590131
-6.040864 4.5510535 0.41461203
-6.0430665 4.5350242 0.42119372
-6.0460076 4.5318441 0.40389821
-6.0539441 4.5314889 0.40644243
-6.0624204 4.5227666 0.41632798
-6.0700722 4.5142012 0.41353378
-6.0737062 4.5091267 0.40605712
-6.0960932 4.4842138 0.41658765
-6.087862 4.4769754 0.40448132
-6.1004376 4.4654279 0.40800008
-6.1045461 4.468503 0.4173339
-6.1199322 4.4557023 0.41909364
-6.1087246 4.4462757 0.4061369
-6.1148005 4.4352155 0.42129767
-6.13832 4.4419699 0.41621786
-6.1319423 4.4273524 0.41106284
-6.1483464 4.4153686 0.40933248
-5.9982519 4.2973332 0.47610235
-5.991425 4.2839079 0.47924504
-5.9966927 4.2841392 0.47936538
-6.0184302 4.2664819 0.471095
-6.0108218 4.2596474 0.47856656
-6.0214419 4.2502165 0.48516273
-6.0250072 4.2408948 0.46925843
-6.0334001 4.2342257 0.48867744
-6.0468607 4.2200952 0.48205605
-6.0454645 4.2157092 0.47203642
-6.0457873 4.2135906 0.48249587
-6.0642333 4.2042699 0.48791796
-6.0595255 4.1956415 0.48196745
-6.0746846 4.1912236 0.4867644
-6.0781031 4.1803498 0.47313955
-6.0740376 4.1647806 0.47850537
-6.0833645 4.1715593 0.48297876
-6.0885835 4.1558456 0.46922088
-6.0943713 4.1525607 0.46977848
-6.1067691 4.1365495 0.47440404
-6.1091743 4.126081 0.48537338
-6.1211081 4.1230206 0.47549289
-6.1276083 4.1105103 0.48546264
-6.1200466 4.1086702 0.47950137
-6.127676 4.089231 0.47116169
-6.1489186 4.0796633 0.47575602
-6.144783 4.0665636 0.47563997
-5.9981647 3.9699888 0.55323535
-6.0031447 3.9576564 0.55116791
-6.0075555 3.9386857 0.54162455
-6.007329 3.9430571 0.55015653
-6.0161209 3.9212296 0.5441795
-6.014782 3.9186261 0.53425163
-6.0234618 3.9092953 0.55105162
-6.0380907 3.8980348 0.53698778
-6.0410476 3.8912194 0.5419398
-6.0393982 3.8942151 0.54238373
-6.0578532 3.8714952 0.5388912
-6.0636067 3.8693018 0.55145299
-6.0514154 3.8681927 0.55343831
-6.0687561 3.8527935 0.54819691
-6.0775528 3.8540733 0.54953784
-6.0723147 3.8421519 0.53669244
-6.0769925 3.8269987 0.54294127
-6.0848584 3.8226528 0.54636204
-6.0867763 3.8207743 0.55140758
-6.1037302 3.805958 0.54789644
-6.1002283 3.7980871 0.55012065
-6.1002073 3.7898524 0.53861439
-6.1076126 3.7791855 0.53446937
-6.1130204 3.7765441 0.54340285
-6.1236577 3.7504594 0.5421015
-6.1329417 3.7549546 0.53737146
-6.1350598 3.7401021 0.54598862
-6.1309166 3.7427018 0.53876764
-6.1433411 3.7286897 0.53818333
-6.1507077 3.7230177 0.55130512
-5.9993582 3.6087985 0.60999155
-5.9878521 3.5974295 0.60407495
-6.0078406 3.603914 0.61603636
-6.0119624 3.5902376 0.61390817
-6.0071387 3.5711591 0.61425471
-6.0236049 3.5680192 0.60766321
-6.0247893 3.5679724 0.61479306
-6.017345 3.5572679 0.61310381
-6.0371099 3.5393264 0.60599089
-6.037447 3.5391932 0.60180187
-6.0446506 3.5333574 0.60932833
-6.0380616 3.5240431 0.61386919
-6.0573773 3.5197442 0.61328524
-6.0647197 3.4963155 0.60742253
-6.0541787 3.5026908 0.6108858
-6.0632792 3.4775684 0.5996207
-6.0789595 3.4762187 0.61672735
-6.0674977 3.4672585 0.61155486
-6.0777135 3.4634669 0.61687297
-6.0950303 3.4442596 0.61049712
-6.0965242 3.4427588 0.60673141
-6.0904799 3.432745 0.60210437
-6.0998831 3.4283018 0.60163814
-6.109858 3.4213908 0.60620987
-6.1056833 3.4098835 0.60563016
-6.1180339 3.3941264 0.60840833
-6.1216378 3.3875284 0.6183235
-6.1281228 3.3772192 0.60777223
-6.1197686 3.3815095 0.60192984
-6.1260839 3.3732865 0.60538745
-6.1387634 3.348361 0.61585796
-6.1351967 3.3542597 0.60483527
-6.1562448 3.3355236 0.61789662
-6.1577473 3.3315682 0.61258072
-6.1546659 3.3165314 0.604298
-5.9853759 3.2245848 0.673711
-5.9999475 3.2232792 0.68017429
-6.0045924 3.200197 0.66488868
-5.9997764 3.1901655 0.68246031
-6.0207915 3.1985035 0.68038231
-6.0183372 3.1788344 0.68195903
-6.0254006 3.167393 0.67802095
-6.0234747 3.1595519 0.66393965
-6.0284762 3.1548452 0.67450267
-6.0387812 3.1578448 0.67863488
-6.0373578 3.1479704 0.66872436
-6.0514145 3.1280007 0.66589421
-6.0389962 3.1278508 0.66837406
-6.041852 3.1169693 0.66922104
-6.0471244 3.1095142 0.66681045
-6.0544624 3.0889425 0.67314172
-6.0602126 3.0857253 0.67644852
-6.0698886 3.0888395 0.68033761
-6.0736341 3.0713468 0.66794944
-6.0868044 3.0679309 0.66699618
-6.0758309 3.0503097 0.66461033
-6.0947561 3.0429902 0.67070258
-6.0964999 3.0324359 0.66509873
-6.0957513 3.0233614 0.6770733
-6.0941443 3.0133381 0.67005849
-6.0949359 3.020288 0.67094409
-6.2792912 3.0889678 0.61218488
-6.2905369 3.0888424 0.60992938
-6.2778811 3.0692475 0.59867114
-6.2976012 3.0607462 0.6124931
-6.2982621 3.0474706 0.61719561
-6.3012967 3.0395105 0.60308659
-6.2982273 3.0340352 0.60693711
-6.3007488 3.0335252 0.61023277
-6.3112836 3.0188272 0.61203057
-6.4797597 3.0885687 0.54440433
-6.4965119 3.0867662 0.53572077
-6.4871054 3.0780029 0.53569233
-6.4999418 3.0661683 0.54485542
-6.5040236 3.0588739 0.53430957
-6.5142703 3.0351665 0.53928655
-6.5198026 3.0326605 0.54510748
-6.5194306 3.0174479 0.53426355
-6.5151954 3.0239253 0.55172557
-6.6995959 3.0829506 0.47840601
-6.690352 3.0695014 0.48752314
-6.7038155 3.0635872 0.48391008
-6.7059498 3.0513542 0.48061222
-6.7080994 3.0505469 0.47456402
-6.7210727 3.0299072 0.47031173
-6.7245784 3.023257 0.47144836
-6.7230945 3.0152988 0.47918111
-6.7357764 3.0119238 0.48080942
-6.9122105 3.0736992 0.41312334
-6.918355 3.0702453 0.41960403
-6.9129 3.0603185 0.4220013
-6.9183145 3.0411978 0.40785617
-6.9273286 3.0441995 0.41085577
-6.9196267 3.0292957 0.4224318
-6.9379597 3.0256491 0.42275769
-6.9405317 3.0027139 0.40582886
-7.1157203 3.0802481 0.34543779
-7.1094999 3.0742683 0.35598433
-7.1216373 3.0489538 0.34100243
-7.1365414 3.0417666 0.35222715
-7.1249509 3.0442929 0.34319142
-7.130949 3.0256495 0.34470725
-7.1310782 3.0222237 0.33890325
-7.3226843 3.0837965 0.28297406
-7.3283119 3.0779181 0.2779938
-7.3335996 3.0536587 0.2797744
-7.3358016 3.0521548 0.27401015
-7.3334751 3.0411396 0.29221639
-7.3405876 3.0222409 0.27506438
-7.3426681 3.0126784 0.28068751
-7.5287046 3.070303 0.21389951
-7.528667 3.074527 0.22334775
-7.5270982 3.06282 0.21935011
-7.5313191 3.0381813 0.21383205
-7.5465488 3.0321872 0.21267086
-7.5467439 3.0251639 0.21749148
-7.5451436 3.0201821 0.21105553
-7.7251782 3.0714109 0.15895191
-7.731204 3.0698423 0.16311421
-7.7343664 3.0503943 0.14797902
-7.7318907 3.044292 0.14936911
-7.7512822 3.0224991 0.14550447
-7.7412105 3.0265317 0.16046001
-5.996654 4.9404073 0.41313931
-6.0027208 4.9395733 0.3995834
-6.0140123 4.9421296 0.40228167
-6.0098181 4.9271951 0.40937018
-6.0193992 4.9121475 0.41376868
-6.0360813 4.8989873 0.39598507
-6.0370755 4.901782 0.39612174
-6.0337672 4.8984079 0.39822367
-6.0559225 4.8764067 0.39594489
-6.047761 4.8805923 0.4126476
-6.0532684 4.859993 0.4131265
-6.0625339 4.8602085 0.40115979
-6.0853438 4.8560033 0.4001472
-6.0854435 4.8428507 0.41260794
-6.0984426 4.8269634 0.39843845
-6.0870309 4.8212295 0.3995353
-6.0933914 4.8213243 0.41186342
-6.1196032 4.8115387 0.40926355
-6.1237016 4.8063979 0.41311759
-6.1300664 4.7962065 0.40962228
-6.1397161 4.7872834 0.41400179
-6.1288757 4.7758594 0.40708107
-5.9999065 4.6524467 0.46796939
-6.0018592 4.6318159 0.46068668
-6.0113397 4.6249156 0.46602881
-6.0149779 4.6161432 0.47415856
-6.0175076 4.6077156 0.4709141
-6.0276971 4.5997691 0.46642455
-6.0404754 4.5944066 0.46534395
-6.029387 4.5893483 0.46263081
-6.0417829 4.5812979 0.45956314
-6.049787 4.5707335 0.47364888
-6.0647001 4.5656886 0.46884018
-6.0622344 4.5451508 0.47178739
-6.067039 4.5415807 0.47622937
-6.0864902 4.5408092 0.46030352
-6.0777998 4.5239325 0.4643636
-6.0923419 4.5232792 0.46890005
-6.0913615 4.5162492 0.47650525
-6.1114497 4.5066972 0.46749273
-6.1142392 4.491127 0.47887886
-6.1200848 4.4939184 0.46815875
-6.1118321 4.4681516 0.46086097
-6.128377 4.4711924 0.46150136
-6.1419621 4.4557586 0.46705654
-6.1310935 4.4471927 0.46033368
-5.9822555 4.3227863 0.52875799
-6.0030737 4.3211856 0.54151917
-5.9993443 4.3068485 0.53577065
-6.0079975 4.2986946 0.52899873
-6.005652 4.2940111 0.53519446
-6.0119081 4.2897291 0.53272825
-6.0288725 4.2799358 0.53304988
-6.0331235 4.2798214 0.52497631
-6.0367217 4.2723336 0.53004169
-6.0547533 4.2619147 0.53512228
-6.0594959 4.2526383 0.53522426
-6.0593233 4.2485652 0.54210925
-6.0663781 4.234231 0.52304924
-6.0591693 4.2172413 0.52423567
-6.078721 4.2085838 0.52914697
-6.0720644 4.1996446 0.5381937
-6.087863 4.1997032 0.52587235
-6.0833273 4.1814623 0.54187053
-6.1068535 4.1855617 0.53882313
-6.1053028 4.1775575 0.5338071
-6.118659 4.1707263 0.52797347
-6.1119018 4.149971 0.52653331
-6.118247 4.1480536 0.53923416
-6.123641 4.1392245 0.52342886
-6.1278362 4.136713 0.52745759
-6.1471086 4.1267138 0.53104675
-6.1373215 4.1067615 0.52320254
-6.001893 3.9922175 0.58915466
-5.9882593 3.9851487 0.60420966
-5.9976611 3.9854398 0.59979278
-6.0120673 3.9781721 0.59708512
-6.0122952 3.9634471 0.60217106
-6.0139513 3.9481499 0.59389603
-6.0228953 3.9532206 0.60535699
-6.0276327 3.9398456 0.60287899
-6.0283294 3.9329364 0.59898281
-6.0454254 3.9215393 0.60372299
-6.0503535 3.9133334 0.58747584
-6.0528393 3.9043167 0.5925439
-6.0602579 3.8914418 0.58629519
-6.0720816 3.889693 0.60117829
-6.0666013 3.8732362 0.58974391
-6.0760231 3.8806317 0.59142751
-6.0737081 3.8645799 0.58660471
-6.0799203 3.8492758 0.5968374
-6.0885983 3.8387482 0.58859891
-6.101161 3.8365862 0.59740931
-6.1089711 3.8349454 0.58646727
-6.1130171 3.8162572 0.59496951
-6.1119828 3.8155763 0.59906566
-6.1171851 3.808486 0.58988905
-6.1274924 3.7922783 0.59273952
-6.1292224 3.7920396 0.59147668
-6.1292567 3.7794948 0.60266095
-6.1341019 3.7661045 0.58704758
-6.1487026 3.7693911 0.58942044
-6.1515293 3.7454584 0.59815264
-5.983326 3.6407931 0.65729409
-5.9881239 3.6358814 0.6627624
-6.0044074 3.6373117 0.65609342
-6.016583 3.6188352 0.65088522
-6.0179238 3.6153352 0.65802789
-6.0164022 3.5953772 0.65349782
-6.0161314 3.6006448 0.66499597
-6.0246649 3.5863154 0.65168458
-6.0288 3.5826213 0.65024769
-6.0305505 3.5613246 0.65347326
-6.0435567 3.5512352 0.65888947
-6.0409312 3.5614114 0.66777718
-6.0528255 3.5403552 0.66648555
-6.0513768 3.5321631 0.65511477
-6.0551248 3.5276582 0.66864836
-6.0717177 3.509691 0.65063542
-6.0728292 3.516999 0.66630846
-6.0824308 3.500766 0.65607744
-6.0853319 3.4853792 0.65058488
-6.0896578 3.493211 0.65223479
-6.0907464 3.4729939 0.65224165
-6.0864072 3.4603479 0.65087783
-6.0931678 3.4607418 0.65691799
-6.1012087 3.447506 0.66323298
-6.1006079 3.4354329 0.65351695
-6.106462 3.4316649 0.65431452
-6.1103168 3.4316721 0.65090752
-6.1184869 3.4069524 0.65976197
-6.1368756 3.4041946 0.66173071
-6.1407452 3.401962 0.66003925
-6.1429529 3.3834798 0.66664535
-6.1451421 3.3741646 0.66912711
-6.1486826 3.3829038 0.66053092
-6.1461711 3.3684061 0.66723406
-5.9906454 3.2688551 0.71392697
-5.9913845 3.258908 0.72187901
-5.9913149 3.2498741 0.71839327
-5.9946404 3.2374263 0.71874958
-6.0090995 3.2313335 0.72491646
-6.0215783 3.2261033 0.71742564
-6.0157366 3.2233853 0.72003436
-6.0232773 3.203187 0.72191596
-6.0283241 3.204144 0.72113162
-6.021956 3.1922967 0.71445078
-6.0288725 3.1739602 0.72727215
-6.0326056 3.1794186 0.71852809
-6.0483747 3.1694691 0.72913796
-6.0476179 3.1607049 0.71569407
-6.0464931 3.1419804 0.72455794
-6.0591898 3.1352646 0.71659833
-6.0593648 3.1388657 0.71433395
-6.0569196 3.1193902 0.72029036
-6.0725813 3.1193197 0.71562934
-6.069015 3.1100578 0.72755289
-6.0721178 3.0983081 0.72957784
-6.0823874 3.0872421 0.72550511
-6.081389 3.0848117 0.71993321
-6.0897694 3.0675313 0.71405357
-6.0915813 3.0557575 0.71791208
-6.1045175 3.0556569 0.72352344
-6.1054015 3.0397387 0.72121084
-6.1085377 3.0306118 0.72790349
-6.1057057 3.0301576 0.72301251
-6.1275229 3.017592 0.71735281
-6.1174045 3.0062339 0.72844231
-6.2956944 3.0920532 0.65344959
-6.3077154 3.0797715 0.66805881
-6.3052964 3.0633843 0.6539048
-6.3087449 3.069448 0.6564998
-6.3083224 3.0468264 0.66752315
-6.3222761 3.04756 0.65116316
-6.3185306 3.0293844 0.654217
-6.3280797 3.0182559 0.66536343
-6.3225074 3.0095139 0.65249681
-6.5140586 3.0960813 0.59330952
-6.5031447 3.077744 0.58887893
-6.5236897 3.0716689 0.60097462
-6.5096126 3.0522835 0.6054973
-6.5296769 3.0537088 0.60490388
-6.5271335 3.0398028 0.59051502
-6.5335541 3.0361772 0.60569173
-6.5363216 3.0205193 0.5915308
-6.5360231 3.0195217 0.59508526
-6.7170453 3.0871325 0.53522611
-6.7185512 3.0797729 0.53331125
-6.7157097 3.0676129 0.54216021
-6.7372856 3.0591803 0.53404075
-6.7267528 3.0490844 0.53564894
-6.7316842 3.0431714 0.5278011
-6.737196 3.0240362 0.53517205
-6.7370834 3.0227022 0.52804804
-6.9151316 3.0797169 0.47088146
-6.9340839 3.0840771 0.46538094
-6.9294682 3.0640788 0.47780052
-6.9411774 3.0668554 0.4722558
-6.9347878 3.0567408 0.46395183
-6.9395351 3.029304 0.47662216
-6.9523888 3.0366411 0.4686096
-6.9636207 3.0232749 0.46410286
-7.1368856 3.0835781 0.40636453
-7.1286716 3.0729861 0.400244
-7.1475677 3.0618851 0.40366724
-7.1400957 3.056114 0.40113518
-7.1581097 3.0392272 0.40829518
-7.1436906 3.0348868 0.40792805
-7.1548018 3.0211785 0.40714848
-7.1542034 3.0069506 0.40864047
-7.3359456 3.0770998 0.34366259
-7.3507628 3.0669582 0.33855969
-7.3500729 3.0619378 0.34851956
-7.3635855 3.0494101 0.3378624
-7.363204 3.0422506 0.34608507
-7.3593855 3.0268145 0.33852348
-7.3580842 3.0176008 0.34406808
-7.5453391 3.078331 0.27175003
-7.5573158 3.0606115 0.27924937
-7.5500574 3.0476854 0.28253135
-7.5612922 3.052223 0.27296305
-7.5539689 3.0262117 0.28351977
-7.5717335 3.0251451 0.27932888
-7.579524 3.0148056 0.27288878
-7.754375 3.0786541 0.2060526
-7.764667 3.0607052 0.21759172
-7.762506 3.0482543 0.21021339
-7.7747846 3.0484614 0.22256564
-7.7758451 3.0209594 0.20775178
-7.7693911 3.0249684 0.21057111
-7.9566355 3.0700817 0.14497216
-7.956532 3.0583935 0.1474544
-7.965857 3.0531492 0.15944703
-7.9593568 3.0443082 0.15168327
-7.9792814 3.0212138 0.14877582
-7.9825053 3.0120881 0.15876061
-5.9929614 4.9831429 0.45411298
-5.9973817 4.9706421 0.45779917
-6.0028896 4.9575396 0.47166497
-6.0181975 4.9557295 0.45492244
-6.0185618 4.9523077 0.45985985
-6.0349154 4.9279957 0.46843719
-6.0451055 4.928381 0.4615683
-6.0527625 4.915061 0.46038958
-6.0517607 4.902112 0.45846823
-6.047554 4.8946924 0.46363395
-6.0698619 4.8984709 0.45809913
-6.0750885 4.8847513 0.46845308
-6.0766172 4.8724337 0.45410341
-6.0842681 4.8717074 0.46635237
-6.0886497 4.8575029 0.46359804
-6.0880818 4.8538203 0.4649598
-6.0989251 4.8468108 0.45514467
-6.1166253 4.8389964 0.46045646
-6.1154919 4.8190231 0.46127608
-6.1162682 4.8100843 0.46314263
-6.1318665 4.805654 0.45726368
-6.132988 4.8028016 0.46615034
-5.9936218 4.668581 0.53334808
-5.9985523 4.6703315 0.52619016
-6.0112219 4.65447 0.53334183
-6.0066342 4.6459332 0.525334
-6.0206728 4.6332984 0.51884955
-6.0245152 4.6296973 0.53309268
-6.0430336 4.6339507 0.51591432
-6.0407209 4.6241374 0.51835829
-6.05653 4.605423 0.52494228
-6.0582056 4.5922732 0.51725328
-6.0509834 4.5950413 0.52056468
-6.0586848 4.5793781 0.53401548
-6.0735326 4.5775328 0.52000225
-6.0812163 4.5667505 0.52585894
-6.0768962 4.5483932 0.52749687
-6.0990491 4.5526457 0.53395838
-6.1069465 4.5448203 0.53310716
-6.1120105 4.5257359 0.53088558
-6.1146183 4.5172596 0.51840162
-6.1106305 4.5135121 0.52122861
-6.1143198 4.5033803 0.51529372
-6.1346855 4.4919286 0.52217436
-6.1415887 4.4919987 0.51569712
-6.1424932 4.4707427 0.52693403
-6.0035839 4.3686161 0.59045261
-5.9968143 4.342422 0.58460456
-6.003571 4.3346534 0.579454
-6.0111675 4.3281307 0.58375108
-6.0209742 4.3252988 0.58811259
-6.0232525 4.3127413 0.57727629
-6.0226922 4.3027692 0.58486664
-6.0280552 4.2986941 0.58957225
-6.0465255 4.2939668 0.58292395
-6.0514612 4.2745738 0.5836041
-6.0451484 4.2663722 0.58228737
-6.0574389 4.2709999 0.58316386
-6.0755653 4.2549176 0.58466691
-6.0788302 4.2572756 0.58805132
-6.0777864 4.2358508 0.57701612
-6.0923696 4.2381601 0.58184403
-6.0977769 4.2270308 0.58512902
-6.0955815 4.216527 0.59277642
-6.1086693 4.2135301 0.58414215
-6.1083932 4.1915631 0.58456922
-6.1074247 4.1818624 0.58525711
-6.1277614 4.185813 0.57904333
-6.1272097 4.177567 0.58522677
-6.1251431 4.1719742 0.58225518
-6.1396799 4.1533313 0.58635473
-6.1452398 4.1460004 0.58126765
-6.1459599 4.1391444 0.59356308
-6.0053439 4.0346985 0.64600891
-5.9949603 4.0089002 0.64185303
-6.0131993 4.0092254 0.64426661
-6.0109992 3.9963539 0.64552426
-6.0080996 3.9889688 0.63928574
-6.0314021 3.9879472 0.65336263
-6.0285096 3.9747918 0.65041596
-6.0285769 3.972887 0.65740389
-6.0445323 3.9511979 0.64564615
-6.0455637 3.9545519 0.65562606
-6.0542874 3.9462345 0.65541732
-6.0526872 3.9338927 0.65779936
-6.0552306 3.9288926 0.64890313
-6.0753493 3.9116614 0.65553981
-6.0741978 3.9028866 0.64320397
-6.0792737 3.8963547 0.65826643
-6.09026 3.8982489 0.64860129
-6.0841818 3.8855979 0.64546686
-6.0911036 3.8825011 0.64908636
-6.1097713 3.8638716 0.64451087
-6.0984468 3.8620048 0.64007658
-6.1073194 3.847213 0.6517669
-6.1137981 3.8353403 0.64693105
-6.1291609 3.8288 0.65334541
-6.1178751 3.8288503 0.63947409
-6.1389132 3.8092525 0.64756757
-6.144877 3.8040836 0.64605975
-6.1404939 3.7903965 0.64041275
-6.1392331 3.7951796 0.64018857
-5.9921546 3.6875036 0.7119953
-5.9916873 3.6759179 0.70833617
-5.9956431 3.6608157 0.71842718
-6.0078964 3.6445796 0.70519483
-6.0049739 3.6383128 0.71397936
-6.0156255 3.6286526 0.71137851
-6.0201368 3.6232626 0.71775168
-6.0165424 3.6172059 0.70753503
-6.0344443 3.6208167 0.71221799
-6.0379815 3.610961 0.71027809
-6.0417309 3.591258 0.708435
-6.0557957 3.5771327 0.70338827
-6.0535073 3.5841506 0.71162885
-6.0611162 3.5640018 0.71202958
-6.0619459 3.5518506 0.71456724
-6.0739789 3.5541117 0.71585518
-6.0686011 3.5369134 0.72017092
-6.076838 3.5283492 0.70685446
-6.0752802 3.5269117 0.70558065
-6.0890274 3.5269535 0.70288992
-6.0847025 3.5082507 0.70894212
-6.1022086 3.5004764 0.70932168
-6.1047497 3.4999714 0.7051788
-6.0990381 3.4768269 0.70935392
-6.1129141 3.4778106 0.70985162
-6.1242409 3.4717069 0.70109087
-6.1142673 3.455915 0.70361936
-6.119966 3.4568081 0.70607811
-6.1389694 3.4441695 0.71560055
-6.1392345 3.4426823 0.71367288
-6.1421781 3.4304068 0.70155734
-6.1390581 3.4254994 0.71018916
-6.1555462 3.4029138 0.70684475
-6.1561651 3.3908906 0.70889115
-5.9858875 3.2984667 0.78259689
-6.0016823 3.2911401 0.77661425
-6.0062261 3.2786021 0.76339537
-6.0082297 3.2651689 0.77963197
-6.0077629 3.2575238 0.77179921
-6.0177617 3.2543929 0.77105498
-6.0096765 3.2530859 0.76661754
-6.0136952 3.2396545 0.76586199
-6.0290704 3.2344787 0.7711165
-6.0277781 3.2134154 0.77295005
-6.0444274 3.2206397 0.7823323
-6.0494933 3.1966496 0.77277052
-6.0405293 3.1926839 0.77905995
-6.0447731 3.1912718 0.78031158
-6.0527678 3.1748714 0.7823199
-6.068584 3.1730056 0.7696057
-6.0651321 3.1637464 0.76399881
-6.0661063 3.1549783 0.77338147
-6.0678239 3.1553335 0.76601535
-6.0842752 3.1414673 0.76601934
-6.0788813 3.1354263 0.78168738
-6.0840931 3.1287825 0.78181118
-6.0988545 3.1155536 0.76642162
-6.0873151 3.1025205 0.77807814
-6.0945115 3.1059198 0.7817989
-6.0996885 3.077919 0.77212453
-6.0975671 3.0777736 0.78166783
-6.1210408 3.0610461 0.7709263
-6.1151204 3.0669813 0.76902914
-6.1165538 3.0608337 0.78176105
-6.1179709 3.0444367 0.7769534
-6.1237087 3.0271726 0.77400947
-6.1293101 3.0194795 0.76635009
-6.1302896 3.0276473 0.77417725
-6.1396003 3.0129271 0.77392936
-6.3161521 3.0804384 0.71207869
-6.3115087 3.0710065 0.72075379
-6.3173089 3.0623739 0.70124525
-6.3338389 3.0639234 0.71622151
-6.3322535 3.0482888 0.71360558
-6.337924 3.0354743 0.70315415
-6.3483896 3.0411477 0.70400602
-6.3417869 3.0254328 0.70573819
-6.3428311 3.0129404 0.7042172
-6.5280404 3.0962827 0.65442765
-6.5215931 3.0770283 0.63976294
-6.5348506 3.0666993 0.64450186
-6.5394201 3.0548384 0.64944965
-6.5434852 3.0507045 0.6447944
-6.5525618 3.0324001 0.65335804
-6.544241 3.0326576 0.65796638
-6.5463591 3.0266693 0.65711337
-6.5676122 3.0114908 0.64941674
-6.740129 3.0782514 0.59597117
-6.7412553 3.0769601 0.59592825
-6.7500248 3.0663989 0.58576006
-6.7534456 3.0468502 0.59439754
-6.7521143 3.0469894 0.58031505
-6.7658219 3.0273082 0.59124553
-6.7641716 3.0227826 0.59302455
-6.7739449 3.0107965 0.58421975
-6.9529734 3.07775 0.5164575
-6.9590721 3.0705497 0.5248208
-6.9528532 3.0680218 0.53033274
-6.9579329 3.0486453 0.52397716
-6.9630423 3.0447638 0.51648992
-6.9583063 3.041713 0.51888973
-6.9649191 3.0242319 0.5308705
-6.9656005 3.0172679 0.53261757
-7.150063 3.0710702 0.4571588
-7.158112 3.0641501 0.46130702
-7.1549525 3.0562639 0.46502286
-7.1574073 3.0465589 0.47125235
-7.1714849 3.047338 0.46467373
-7.1800365 3.0272896 0.46844426
-7.1749296 3.0263708 0.45806512
-7.1772962 3.0144129 0.45437288
-7.3727994 3.0730016 0.40080938
-7.3608589 3.0619137 0.39216495
-7.367157 3.0452726 0.39217401
-7.3667655 3.0448573 0.39526817
-7.3822122 3.0318627 0.40048733
-7.3939281 3.0206604 0.40601844
-7.3794003 3.0196135 0.40235183
-7.5676918 3.0654626 0.34653214
-7.5760422 3.0691488 0.3419618
-7.5747576 3.0546598 0.3354744
-7.5771499 3.0443952 0.34467456
-7.5909576 3.0303357 0.33308434
-7.5933948 3.0142286 0.33515647
-7.7726541 3.0724978 0.284989
-7.7720556 3.069546 0.27427581
-7.7862229 3.0590851 0.28268147
-7.7748437 3.0473447 0.28036731
-7.7871161 3.0277462 0.2830067
-7.7930593 3.0240602 0.27991742
-7.8035579 3.0059078 0.27292994
-7.9780474 3.0776138 0.20414108
-7.9858975 3.0514655 0.21402903
-7.9853225 3.0470839 0.21841836
-7.9826593 3.0444779 0.22194201
-7.9880147 3.026742 0.21338111
-8.0040674 3.0190949 0.20523262
-8.1897821 3.0735962 0.15408945
-8.1798048 3.0532744 0.15636647
-8.1871719 3.0512199 0.14584853
-8.1976128 3.0428624 0.14807484
-8.1950254 3.0217144 0.14489236
-8.1990776 3.0169764 0.14671814
-5.9947815 5.0000858 0.51927066
-6.0117016 4.9893303 0.5226236
-6.0003829 4.9977469 0.52249682
-6.00774 4.9744534 0.51040721
-6.0330057 4.977478 0.52389163
-6.0311823 4.9719095 0.52486086
-6.035006 4.9598651 0.51696533
-6.0515361 4.9523697 0.51449907
-6.0414381 4.945178 0.5099991
-6.0673852 4.9268641 0.51061261
-6.073657 4.9290748 0.51349586
-6.0707965 4.9213271 0.51401311
-6.0845709 4.9118476 0.51134652
-6.0784607 4.9019504 0.51379591
-6.0844278 4.8937135 0.52768868
-6.0968986 4.8742146 0.52444178
-6.1083884 4.8777952 0.5175885
-6.1077619 4.8717375 0.51168787
-6.1095896 4.8626575 0.52705336
-6.1359057 4.8544979 0.51257211
-6.1415958 4.8469224 0.52877808
-6.1443911 4.829052 0.52572268
-5.9965076 4.7069116 0.58242655
-6.0012646 4.6952391 0.57699579
-6.0035601 4.6844082 0.57184309
-6.0119514 4.6679034 0.57571632
-6.0235777 4.6666932 0.57170427
-6.0220456 4.6528831 0.59017783
-6.026402 4.6440067 0.58812422
-6.0353813 4.6355634 0.58647346
-6.0388303 4.6281672 0.58581901
-6.0460615 4.624701 0.57587504
-6.0563359 4.6256828 0.58970851
-6.0706377 4.6084456 0.58025968
-6.0703578 4.5954385 0.58837932
-6.0752192 4.6005549 0.58840239
-6.0961952 4.5805473 0.57563323
-6.1011715 4.5685625 0.57748055
-6.1076622 4.5587006 0.57888693
-6.0961947 4.5663266 0.58029485
-6.1063662 4.5569592 0.58276039
-6.1171803 4.5468044 0.59022284
-6.1179261 4.5328069 0.58713883
-6.1248264 4.5309277 0.57529819
-6.1411638 4.5157371 0.57894045
-6.1493697 4.5020814 0.57619756
-6.0035448 4.3816032 0.64269733
-6.0043159 4.3749676 0.64498669
-6.0032282 4.3682022 0.64593953
-6.0207224 4.3592534 0.64305252
-6.0167971 4.3464704 0.63934135
-6.0303941 4.3491988 0.63402748
-6.0365167 4.3374949 0.64327705
-6.045712 4.325192 0.63921744
-6.0467362 4.3228412 0.64854544
-6.044106 4.3185625 0.63280499
-6.0642071 4.3123784 0.63741344
-6.0585389 4.2915201 0.64377594
-6.0705695 4.2778349 0.63177127
-6.081636 4.2727289 0.63922447
-6.0755768 4.2776108 0.64231002
-6.0932174 4.2549458 0.6365478
-6.0961599 4.2521958 0.64751381
-6.0898409 4.2462778 0.63461745
-6.1075697 4.2253504 0.64781928
-6.1159587 4.2330561 0.64519954
-6.1200757 4.2266521 0.64486158
-6.1195726 4.2118955 0.6321395
-6.1326952 4.1910758 0.6342147
-6.1378102 4.1851463 0.63967508
-6.1354604 4.1912193 0.63851631
-6.150013 4.1655836 0.6431998
-5.9923482 4.0563583 0.69439185
-6.001524 4.0461488 0.70744711
-6.0035849 4.0441074 0.70810723
-6.0124321 4.0395613 0.70501363
-6.0238872 4.0167713 0.70406473
-6.0156684 4.0203452 0.69691622
-6.0201602 4.0166459 0.69751334
-6.0225649 3.9936681 0.70075393
-6.0394974 3.9988654 0.69864899
-6.0375772 3.9753234 0.69949818
-6.050961 3.9772799 0.7062875
-6.053884 3.9757011 0.71125233
-6.0637398 3.95769 0.70256847
-6.0729237 3.9564493 0.69773978
-6.0651894 3.9493585 0.69852966
-6.078392 3.9360802 0.71130997
-6.0787315 3.923892 0.7088151
-6.0784616 3.9148695 0.71177471
-6.0949397 3.9144726 0.70837164
-6.0935106 3.9015431 0.70987433
-6.1112204 3.880764 0.70178896
-6.1021285 3.8825853 0.70058775
-6.1080604 3.8800619 0.70984656
-6.1226645 3.8738539 0.70634305
-6.1220846 3.8608682 0.70423514
-6.1207032 3.8401554 0.69734281
-6.1265297 3.8445671 0.70676398
-6.1348391 3.8347008 0.69567174
-6.1401763 3.8137968 0.69269949
-6.1489053 3.8197501 0.70532209
-5.9938278 3.7135508 0.76644021
-6.008976 3.7019336 0.75717658
-6.0053134 3.6897774 0.75393659
-6.0123806 3.6883981 0.75304341
-6.0229392 3.6729677 0.76772654
-6.0155945 3.6642754 0.77026653
-6.03513 3.655102 0.76579547
-6.0252323 3.6429524 0.76004267
-6.0264153 3.6307864 0.76197785
-6.050559 3.6352007 0.75846595
-6.042068 3.6176982 0.75722098
-6.0531898 3.6101933 0.7527464
-6.0535636 3.6114852 0.76451027
-6.0571651 3.5908325 0.76329702
-6.0616484 3.5847318 0.75506234
-6.0714364 3.571075 0.76655167
-6.0786724 3.5629699 0.75729096
-6.0903678 3.5698378 0.76431113
-6.0878043 3.5605865 0.76760274
-6.0832934 3.5522435 0.76375329
-6.102283 3.5374315 0.77085304
-6.1025052 3.5365264 0.75890672
-6.1071901 3.5202641 0.75671804
-6.1200995 3.5054052 0.76234937
-6.1142101 3.5110562 0.77035975
-6.1165433 3.4919002 0.75320005
-6.1273756 3.4904773 0.75642902
-6.1274562 3.4823165 0.75502646
-6.1405048 3.4616647 0.75288004
-6.13025 3.4504576 0.77090502
-6.1438322 3.445183 0.76263946
-6.1503034 3.4445963 0.76199692
-6.1487083 3.4242225 0.75362736
-5.9825716 3.3235471 0.81968319
-5.9973812 3.3261468 0.81919611
-6.004169 3.311276 0.82810861
-6.0081043 3.3104236 0.82416046
-6.0087996 3.2943289 0.8206206
-6.0108852 3.2900126 0.82500499
-6.0151057 3.2807658 0.82676488
-6.0212893 3.2827392 0.8318395
-6.0357265 3.2630327 0.82492334
-6.0307946 3.2497001 0.82623601
-6.0342207 3.2405522 0.82776123
-6.0323219 3.241221 0.82026935
-6.0508981 3.2397163 0.82629609
-6.0605497 3.218879 0.81986654
-6.0541382 3.2219377 0.82574487
-6.0512543 3.20749 0.81571573
-6.0639744 3.1933894 0.82485509
-6.0749226 3.1976612 0.82438964
-6.0807843 3.1720393 0.83264571
-6.0735507 3.1758819 0.81600344
-6.0849919 3.1608188 0.81865412
-6.0948968 3.1521635 0.83042049
-6.0922809 3.1494291 0.82913572
-6.1036267 3.1415281 0.81547308
-6.1013904 3.1245122 0.81333506
-6.1132636 3.1148417 0.82522148
-6.1151543 3.1169012 0.83148569
-6.1078935 3.1124499 0.83050609
-6.1210861 3.0865633 0.83239555
-6.1260109 3.0923247 0.82662433
-6.1275659 3.0710471 0.81429315
-6.1264582 3.0642555 0.82181603
-6.1335721 3.0644579 0.81511998
-6.1419592 3.0576816 0.82904428
-6.1439967 3.0374966 0.8144803
-6.14816 3.0297816 0.81877953
-6.1604252 3.024507 0.81367779
-6.1464138 3.0108125 0.83267075
-6.324748 3.0915399 0.75358629
-6.3299189 3.0880914 0.76956356
-6.3408489 3.0673711 0.75282699
-6.3440976 3.0720298 0.75786853
-6.3398113 3.053834 0.77168852
-6.3622084 3.0514984 0.76731384
-6.3506689 3.0313611 0.7713418
