# .PCD v0.7 - Point Cloud Data file format
VERSION 0.7
FIELDS x y z
SIZE 4 4 4
TYPE F F F
COUNT 1 1 1
WIDTH 1507
HEIGHT 1
VIEWPOINT 0 0 0 1 0 0 0
POINTS 1507
DATA ascii
-3.3509738 -3.0833864 1.5117564
-3.3354983 -3.0793524 1.5195071
-3.3426039 -3.0828977 1.5176979
-3.3394079 -3.0863996 1.5164655
-3.3319058 -3.0940075 1.5194827
-3.3214355 -3.0977459 1.5099227
-3.3288367 -3.1010268 1.5229599
-3.3194137 -3.1137455 1.5159307
-3.3150036 -3.1086068 1.5216304
-3.3000448 -3.1201286 1.5285975
-3.3088112 -3.1190989 1.5154098
-3.3014677 -3.1269052 1.5109397
-3.2863669 -3.1261358 1.5276018
-3.2930686 -3.1464949 1.5254334
-3.2809966 -3.1436834 1.5203227
-3.2859011 -3.1547391 1.5161331
-3.2803588 -3.1575408 1.5133158
-3.2817731 -3.1552699 1.5224272
-3.2702103 -3.1729465 1.5213184
-3.2729414 -3.1600275 1.5133228
-3.2686987 -3.1802456 1.510986
-3.2576377 -3.1774964 1.5254655
-3.2510402 -3.1840298 1.5253311
-3.3834279 -3.3148367 1.4473149
-3.382138 -3.3249748 1.458848
-3.3659523 -3.324419 1.4639237
-3.3739495 -3.3427296 1.45079
-3.3647573 -3.3468692 1.4645131
-3.3664474 -3.3438673 1.4651395
-3.3492396 -3.3480244 1.4632583
-3.3400207 -3.3523726 1.4657266
-3.3531322 -3.3501005 1.4555051
-3.3317578 -3.3656774 1.4633055
-3.3305111 -3.3624418 1.4580299
-3.3251407 -3.3625617 1.4473482
-3.3282306 -3.3711479 1.4619477
-3.3262384 -3.3723903 1.4629554
-3.3173733 -3.3891056 1.4645357
-3.3147786 -3.3921828 1.4538234
-3.3115511 -3.4027307 1.4636537
-3.3101983 -3.4087448 1.4538281
-3.3063707 -3.4125621 1.4509609
-3.2927582 -3.3997028 1.4571962
-3.2913387 -3.4103012 1.4513403
-3.2751887 -3.4202402 1.4500308
-3.2697136 -3.4179869 1.4647949
-3.2696328 -3.4184651 1.4629699
-3.2685378 -3.4348087 1.4490761
-3.2658563 -3.4332948 1.4567449
-3.2538805 -3.4332969 1.4584992
-3.2520683 -3.4366961 1.4588662
-3.2400751 -3.4410241 1.460036
-3.381094 -3.5950668 1.3965452
-3.3655264 -3.5940764 1.389196
-3.3558083 -3.6017113 1.3965079
-3.367393 -3.6086528 1.3906667
-3.3442073 -3.620302 1.3889339
-3.3428397 -3.6156507 1.3954372
-3.3353596 -3.6131186 1.3880279
-3.340204 -3.6234183 1.3851832
-3.3432875 -3.6367195 1.403499
-3.3259976 -3.6428475 1.40204
-3.3275313 -3.6446695 1.3896493
-3.310416 -3.6359506 1.40297
-3.3206432 -3.6425464 1.39337
-3.3035519 -3.6457663 1.4015355
-3.3122957 -3.6508462 1.402752
-3.3027656 -3.6596115 1.3933129
-3.2867258 -3.6659555 1.3910917
-3.2780888 -3.6622095 1.4032497
-3.2922902 -3.6666193 1.3867785
-3.2681694 -3.678818 1.3888439
-3.265501 -3.6776354 1.3937446
-3.2752171 -3.6844292 1.3920149
-3.271606 -3.6865482 1.3883327
-3.2575886 -3.6966808 1.3860669
-3.2553995 -3.7006681 1.4033502
-3.3772233 -3.8432651 1.3343567
-3.363044 -3.8520985 1.3257674
-3.3510792 -3.8574252 1.3255316
-3.3469501 -3.8620899 1.3254863
-3.3592856 -3.8677764 1.3378358
-3.3495491 -3.8759441 1.3359537
-3.3349054 -3.8789837 1.3318568
-3.3419847 -3.8835742 1.3302125
-3.3327398 -3.8793159 1.323
-3.3257542 -3.8980429 1.3363574
-3.3214788 -3.8985388 1.3346899
-3.3040571 -3.910243 1.3289062
-3.315218 -3.9153764 1.3225057
-3.3066082 -3.9217808 1.3361429
-3.2980373 -3.9259279 1.328788
-3.2971106 -3.9257519 1.3379529
-3.2780595 -3.9163525 1.3287579
-3.2830987 -3.9394588 1.3396442
-3.2697761 -3.9387536 1.3394535
-3.2636592 -3.9365022 1.3251925
-3.264179 -3.9354217 1.3350847
-3.2663596 -3.9423718 1.3379143
-3.2543175 -3.9459419 1.3402447
-3.2486696 -3.9663677 1.3407968
-3.2493782 -3.9636946 1.3418206
-3.2374353 -3.9655731 1.3276314
-3.2363212 -3.9738853 1.327445
-3.224396 -3.972728 1.3287479
-3.2215779 -3.9837456 1.3353441
-3.2189443 -3.9941504 1.3287719
-3.2105653 -3.9905851 1.3278531
-3.1922882 -3.9947174 1.3245491
-3.1911747 -3.9923306 1.3422321
-3.1877248 -4.0098252 1.3240387
-3.1837168 -4.0135646 1.3330603
-3.1786785 -4.0109034 1.3247372
-3.1678233 -4.0126758 1.3326283
-3.1771481 -4.0280781 1.326195
-3.165164 -4.0262237 1.3332551
-3.1465776 -4.0273023 1.3344132
-3.154557 -4.0255761 1.3236316
-3.1434491 -4.0311522 1.3332052
-3.1356392 -4.0412016 1.3296452
-3.1301401 -4.0533929 1.3330619
-3.122828 -4.0471749 1.3372033
-3.1264884 -4.0615234 1.3284622
-3.1184659 -4.0706277 1.3223966
-3.1025462 -4.0746741 1.3253691
-3.1130536 -4.07236 1.3346288
-3.0964949 -4.0770888 1.3272343
-3.098772 -4.0754328 1.3259828
-3.0918245 -4.0883107 1.3235641
-3.0752976 -4.0790267 1.335497
-3.0823245 -4.0898976 1.3396317
-3.0659289 -4.0991168 1.3343694
-3.0653858 -4.0976634 1.339136
-3.0535777 -4.1138592 1.3391676
-3.0478292 -4.0998144 1.3395141
-3.0391023 -4.1219616 1.3265285
-3.0411098 -4.1132407 1.3331597
-3.0305057 -4.1124935 1.3257843
-3.0211473 -4.1305017 1.3298608
-3.0342016 -4.137692 1.3275427
-3.015317 -4.1376238 1.3386673
-3.0122921 -4.1468811 1.3248781
-3.0145233 -4.1413217 1.3368402
-2.9919822 -4.1496873 1.3368958
-2.9894035 -4.1580434 1.3352779
-2.9864726 -4.1634173 1.3357866
-2.9765213 -4.1565495 1.3292816
-2.979933 -4.164834 1.3277813
-2.9707141 -4.1695228 1.332522
-2.9574132 -4.1730347 1.3343141
-2.9664245 -4.1834364 1.3404074
-2.9643054 -4.1765933 1.3414688
-2.9559698 -4.1777682 1.3323066
-2.9356661 -4.1821933 1.3389877
-2.9353013 -4.1898384 1.3415136
-2.9365485 -4.200356 1.3228585
-2.9172812 -4.2067318 1.335256
-2.9245133 -4.2023349 1.3235455
-2.91324 -4.2145405 1.3313144
-2.9172201 -4.2192726 1.3397319
-2.8994026 -4.2188482 1.3418999
-2.8954861 -4.2221441 1.3350548
-2.8905025 -4.2229486 1.331171
-2.8746755 -4.2292995 1.3269893
-2.8721619 -4.2411413 1.3392823
-2.8671165 -4.2400923 1.325169
-2.8607206 -4.2456436 1.3287828
-2.8619215 -4.2443004 1.3408883
-2.8548276 -4.2575622 1.3248748
-2.8399591 -4.2606888 1.3282077
-2.8366675 -4.2518883 1.336035
-2.8312023 -4.2650671 1.3246286
-2.8325768 -4.2591639 1.3364716
-2.8178294 -4.263341 1.3260088
-2.8272583 -4.2709169 1.3277413
-2.8043885 -4.279366 1.3345516
-2.8156266 -4.2873435 1.3398314
-2.8032455 -4.2824516 1.3304669
-2.7987535 -4.296401 1.3318446
-2.7902694 -4.3014226 1.3340912
-2.7784469 -4.2890992 1.3291258
-2.7787917 -4.2972627 1.3349607
-2.7705374 -4.3127575 1.3306695
-2.7704349 -4.2994685 1.3261639
-2.7607896 -4.3215771 1.3380364
-2.7494063 -4.3067894 1.3254055
-2.7512076 -4.3292198 1.3287345
-2.7477236 -4.325254 1.3408844
-2.7335987 -4.3227868 1.3230058
-2.7380908 -4.337831 1.3240178
-2.720331 -4.3270545 1.3412571
-2.707531 -4.3426294 1.3342286
-2.7088909 -4.3359628 1.3355922
-2.6945367 -4.3552108 1.3341235
-2.7046828 -4.3508368 1.3344169
-2.6829515 -4.3611083 1.3333595
-2.6938455 -4.3592148 1.3337251
-2.6814053 -4.3598762 1.3419015
-2.6768098 -4.3724575 1.336382
-2.6700878 -4.3755808 1.339646
-2.6623485 -4.3669996 1.3375062
-2.6573648 -4.3716793 1.3236024
-2.6594043 -4.3837843 1.3401682
-2.640075 -4.3876066 1.34128
-2.6422093 -4.3876519 1.3305515
-2.6240451 -4.3920469 1.3333288
-2.6269331 -4.3934231 1.3417684
-2.6094503 -4.4084511 1.3333066
-2.603786 -4.4049816 1.336015
-2.603636 -4.4008923 1.3393432
-2.6002171 -4.4151721 1.3349872
-2.598933 -4.4105811 1.3296778
-2.5915473 -4.4141479 1.3359807
-2.5875909 -4.424509 1.3421701
-2.5825176 -4.4231334 1.3320149
-2.5681677 -4.4297271 1.3411565
-2.5710356 -4.4253478 1.3326051
-2.5654588 -4.4296298 1.3327001
-2.5483389 -4.4343967 1.3399309
-2.5485058 -4.445168 1.3349082
-2.5453393 -4.4386797 1.3392547
-2.5265238 -4.4570718 1.3318323
-2.5330126 -4.4542475 1.3244745
-2.5131938 -4.4536414 1.3303785
-2.5071805 -4.4541421 1.3412727
-2.5113175 -4.4664774 1.3291788
-2.5063081 -4.4678702 1.3250613
-2.4898453 -4.4698811 1.3402503
-2.4932823 -4.4809718 1.3342519
-2.4894838 -4.4784341 1.3410532
-2.4707031 -4.4789391 1.3379054
-2.467571 -4.4868436 1.3399192
-2.4718566 -4.4874568 1.328302
-2.4634953 -4.4944754 1.3408271
-2.4492249 -4.5017099 1.3363793
-2.4440558 -4.4993162 1.323115
-2.4309754 -4.4981523 1.3319679
-2.422008 -4.5067697 1.3423115
-2.4178469 -4.5050731 1.3250569
-2.4196794 -4.5058317 1.3338242
-2.4147058 -4.5140686 1.3255613
-2.4128754 -4.5254374 1.3328604
-2.4090264 -4.5273595 1.3230041
-2.3967898 -4.5271935 1.3295782
-2.3920236 -4.5190358 1.3323575
-2.3717005 -4.531991 1.3409621
-2.3846371 -4.5381541 1.3341531
-2.368716 -4.5416417 1.3421406
-2.3624468 -4.5472655 1.3352295
-2.3534274 -4.5410237 1.3309557
-2.3556361 -4.5561147 1.3418325
-2.3461032 -4.555687 1.3247194
-2.3292665 -4.5577259 1.3290535
-2.3222816 -4.5538492 1.3369143
-2.3287179 -4.5515313 1.3362852
-2.3123705 -4.5552206 1.3260437
-2.3074141 -4.5581813 1.3329737
-2.309262 -4.5715599 1.3397415
-2.3031182 -4.5650134 1.3242019
-2.2838807 -4.5757961 1.338212
-2.2889125 -4.575141 1.3404298
-2.2830629 -4.59131 1.3263655
-2.2743223 -4.5970054 1.3335433
-2.2612429 -4.5820827 1.32787
-2.2602983 -4.599968 1.3277776
-2.2599783 -4.587882 1.3272504
-2.2498953 -4.5972199 1.3270079
-2.3162355 -4.7656446 1.2744898
-2.3122075 -4.7835774 1.2738792
-2.3037145 -4.7886667 1.2657044
-2.3012068 -4.7851858 1.2613949
-2.2964771 -4.782258 1.2641164
-2.2858069 -4.7969971 1.2643346
-2.2879543 -4.785068 1.2626582
-2.2757709 -4.7986102 1.2662705
-2.263675 -4.7982535 1.2651339
-2.2721021 -4.7942381 1.2778151
-2.2607675 -4.7996349 1.2760723
-2.2598128 -4.8076763 1.2796507
-2.3199477 -4.9861274 1.1992512
-2.307529 -4.9966383 1.2077014
-6.1599755 -3.000453 0.81673783
-6.1531725 -2.9990308 0.83314657
-6.1567311 -3.0143435 0.8211177
-6.1380763 -3.0316021 0.8314532
-6.1453762 -3.0319359 0.82164222
-6.1250477 -3.0324485 0.82488137
-6.1254086 -3.0532513 0.82199967
-6.1225328 -3.0513198 0.83152896
-6.1171541 -3.0693445 0.83135903
-6.1184783 -3.077055 0.81538123
-5.9504986 -2.9937305 0.88219869
-5.9428263 -3.0134611 0.8783018
-5.9387341 -3.0209606 0.88769251
-5.9266586 -3.0140266 0.88841879
-5.9242363 -3.0386269 0.8773998
-5.9316134 -3.0471442 0.87445062
-5.91574 -3.0402801 0.87927526
-5.9227366 -3.0548105 0.87460184
-5.9001923 -3.0682437 0.88046849
-5.8978066 -3.0672946 0.88718331
-5.7225089 -2.9845009 0.94061977
-5.7301264 -3.0062611 0.94189233
-5.7216296 -3.0081382 0.94396877
-5.7237306 -3.0221605 0.94127649
-5.7050943 -3.0179932 0.94227558
-5.7174659 -3.0254467 0.94304287
-5.7127757 -3.0412822 0.93895382
-5.7032495 -3.0483813 0.94860816
-5.6983852 -3.0572145 0.95309687
-5.6876435 -3.0679519 0.94679636
-5.690176 -3.0765712 0.94328099
-5.6800036 -3.0769978 0.94601941
-5.5211716 -3.0020466 0.99563152
-5.5077553 -3.0042565 0.9984808
-5.4970202 -3.0120533 1.0134939
-5.5052752 -3.0164559 1.0090438
-5.4927526 -3.0204139 0.99674273
-5.4843078 -3.0391023 1.0053211
-5.4861979 -3.0371947 1.0130389
-5.4835892 -3.0488243 0.99798578
-5.4872699 -3.0472763 1.0022739
-5.4744554 -3.0598569 1.0140903
-5.4788914 -3.0652933 0.99772507
-5.4744477 -3.0815091 1.0068591
-5.3013177 -2.9973238 1.0566418
-5.2991209 -2.9992526 1.0689765
-5.2813644 -3.0128868 1.0650445
-5.2758985 -3.0223153 1.0701095
-5.2818437 -3.0178843 1.0647614
-5.2800608 -3.0351045 1.0754572
-5.2733212 -3.0402765 1.0753685
-5.2622828 -3.036916 1.0703609
-5.2594175 -3.0622845 1.0675725
-5.2529073 -3.067512 1.0762178
-5.2572532 -3.0697496 1.062819
-5.2525482 -3.0739841 1.0748976
-5.2354984 -3.0846653 1.0607424
-5.0782752 -2.9972277 1.1252952
-5.0802073 -2.9965975 1.1209249
-5.0674777 -2.9984195 1.126717
-5.0640421 -3.0177464 1.1347134
-5.0606856 -3.0302904 1.1334409
-5.0623264 -3.0242348 1.1341646
-5.0467463 -3.0359449 1.1170193
-5.042511 -3.0362866 1.1249892
-5.0516644 -3.0562201 1.1360713
-5.0487289 -3.06341 1.1238129
-5.0399394 -3.0617888 1.1294597
-5.0273299 -3.0662913 1.1228362
-5.0190806 -3.0822656 1.1214846
-5.0250292 -3.079016 1.1278938
-4.8608017 -2.9965751 1.1895837
-4.860147 -2.999836 1.1836625
-4.8387589 -3.0117579 1.1931014
-4.8345065 -3.0036952 1.1892626
-4.8422751 -3.009047 1.1925488
-4.8389521 -3.0157344 1.1956969
-4.827878 -3.0379131 1.1875128
-4.8311477 -3.0317721 1.1818663
-4.8210311 -3.041682 1.1872798
-4.8122568 -3.061851 1.1829712
-4.8170643 -3.0642822 1.1880699
-4.8009148 -3.0702484 1.1966976
-4.8106771 -3.079026 1.1801873
-4.7909908 -3.08776 1.1785178
-4.7951341 -3.0884805 1.1782687
-4.7959824 -3.0901053 1.1780983
-4.6337776 -3.0012398 1.2432525
-4.6197877 -3.0033205 1.2405595
-4.6114354 -2.9995408 1.254705
-4.61766 -3.0112524 1.2554243
-4.6081848 -3.0120461 1.2404488
-4.6136017 -3.0209746 1.2462378
-4.6103816 -3.0439587 1.2499738
-4.603663 -3.0315599 1.2516944
-4.5986052 -3.047617 1.2394072
-4.5937872 -3.0488434 1.2522014
-4.5891309 -3.0520914 1.2569084
-4.5800538 -3.0655448 1.246006
-4.5736604 -3.0748503 1.2453486
-4.573113 -3.074594 1.2394391
-4.5718374 -3.0890851 1.2391896
-4.5655284 -3.0932243 1.2564594
-4.3958817 -2.9911852 1.3179293
-4.4001799 -2.9936562 1.3174913
-4.3827481 -2.9953279 1.3074263
-4.3975959 -3.0164495 1.3025587
-4.3796401 -3.0171909 1.3008611
-4.3769693 -3.0131409 1.3121221
-4.3851919 -3.0269923 1.3004836
-4.3740635 -3.0245998 1.3155012
-4.3688364 -3.0452437 1.3024219
-4.3638496 -3.0438998 1.3115913
-4.3615851 -3.0547791 1.3019824
-4.3585844 -3.0541451 1.3160585
-4.3560133 -3.0602779 1.314613
-4.3434987 -3.0654643 1.3181902
-4.3358431 -3.07691 1.3071642
-4.3298769 -3.0899081 1.3063205
-4.3326406 -3.0953612 1.317752
-4.327035 -3.0939264 1.3176967
-4.171607 -2.9803891 1.3638546
-4.1642013 -2.9970312 1.3767228
-4.1676183 -2.9956748 1.3648144
-4.1606355 -3.0155928 1.3796366
-4.1595688 -3.0172229 1.3744169
-4.1399393 -3.0106301 1.3700957
-4.1367245 -3.0206823 1.3604075
-4.1445279 -3.0290766 1.3637938
-4.1331668 -3.0445523 1.3677939
-4.1303658 -3.038748 1.3792895
-4.1276121 -3.0566456 1.3792529
-4.1194353 -3.0513248 1.3684067
-4.118382 -3.0536163 1.3647436
-4.1092291 -3.0731287 1.3669834
-4.1052461 -3.0757856 1.3734081
-4.1064744 -3.0830333 1.3722345
-4.0920162 -3.0912938 1.3668121
-4.0872378 -3.0915935 1.3787925
-4.0990658 -3.0847762 1.3610885
-4.086885 -3.0994098 1.3749743
-3.9315679 -3.0001473 1.4374841
-3.9280739 -2.9921672 1.4303459
-3.9154181 -3.0074103 1.4266837
-3.9264181 -2.9977851 1.4292706
-3.9151704 -3.0084691 1.434956
-3.9174902 -3.024682 1.4391433
-3.9009762 -3.0307455 1.4208136
-3.9098768 -3.0363472 1.4279215
-3.9067895 -3.0381012 1.4275783
-3.9013987 -3.032007 1.4383267
-3.8821144 -3.0465693 1.4386539
-3.8810549 -3.0418246 1.432463
-3.8871264 -3.048619 1.4365246
-3.8768523 -3.070616 1.4357015
-3.8639839 -3.0655754 1.4296783
-3.8654222 -3.0670726 1.4329202
-3.8626659 -3.0762811 1.4355711
-3.8582318 -3.0786235 1.4380863
-3.8466821 -3.0821192 1.4243081
-3.855468 -3.0844724 1.4220785
-3.8534982 -3.0917971 1.4307351
-3.8511934 -3.1023259 1.4295789
-3.6870551 -2.983192 1.4878073
-3.6870322 -2.9978614 1.488727
-3.6878254 -3.0039487 1.5001118
-3.6746347 -2.9957688 1.495418
-3.6781948 -3.0091341 1.4869282
-3.6790969 -3.0223742 1.4815027
-3.6574767 -3.0283813 1.4979818
-3.6696274 -3.0274985 1.4975024
-3.6640005 -3.0289776 1.4950868
-3.6497099 -3.032491 1.4875247
-3.6565685 -3.04423 1.4844676
-3.6459339 -3.0401328 1.4919046
-3.6343727 -3.0610225 1.4984121
-3.6314194 -3.0529222 1.4982517
-3.633153 -3.0525901 1.489872
-3.623369 -3.0573757 1.4933925
-3.6190035 -3.0647631 1.49604
-3.6181519 -3.0685306 1.4846987
-3.6177726 -3.0909083 1.4970008
-3.5998018 -3.0832391 1.490906
-3.609386 -3.0866795 1.4981828
-3.6020203 -3.1037436 1.4946615
-3.5872104 -3.0935113 1.495349
-3.5858862 -3.1045983 1.4892297
-3.5847154 -3.1216979 1.4885291
-3.4481783 -2.9882026 1.5488665
-3.4320276 -2.9995327 1.5461488
-3.4332223 -2.9943118 1.5447321
-3.4257519 -3.0130198 1.5460005
-3.4259725 -3.0180719 1.5599947
-3.4122813 -3.01703 1.5555992
-3.4113066 -3.0129519 1.5591844
-3.4138467 -3.0184 1.5580404
-3.4156923 -3.0268669 1.5508419
-3.4036508 -3.0385132 1.5515701
-3.3923032 -3.0417185 1.545716
-3.4013541 -3.0529623 1.5533458
-3.393116 -3.049597 1.5510041
-3.3862879 -3.0629642 1.5547563
-3.378185 -3.0607615 1.5582527
-3.3760812 -3.0690835 1.5475807
-3.3783662 -3.0606537 1.5457714
-3.3770595 -3.0789936 1.5432923
-3.35689 -3.0834153 1.5571187
-3.3639126 -3.0800381 1.5440652
-3.3502007 -3.0895627 1.5525671
-3.3423359 -3.0923941 1.5545799
-3.3468349 -3.0912502 1.5447063
-3.3336692 -3.1075478 1.5462086
-3.3367445 -3.100018 1.5546503
-3.3363173 -3.1146672 1.5595007
-3.326555 -3.1158903 1.5575055
-3.3185959 -3.1201024 1.5618893
-3.3131094 -3.1284475 1.5465642
-3.3137898 -3.128124 1.5593231
-3.3075173 -3.1384039 1.547258
-3.3127365 -3.1451409 1.5570562
-3.2959363 -3.1407056 1.5526868
-3.2890034 -3.1474395 1.5567024
-3.3005617 -3.1615903 1.5529242
-3.2836719 -3.1596618 1.5591673
-3.281925 -3.1523256 1.5488514
-3.2821672 -3.1613915 1.5589818
-3.278019 -3.1693382 1.5454191
-3.2691896 -3.1823397 1.556826
-3.2675948 -3.173449 1.542593
-3.2580588 -3.1941645 1.5462565
-3.258718 -3.1824732 1.5589832
-3.2437406 -3.1882489 1.5495975
-3.244741 -3.1899891 1.5506763
-3.385114 -3.3331285 1.4975502
-3.3834498 -3.3452532 1.4971057
-3.3720949 -3.3420455 1.4921923
-3.3706031 -3.3591213 1.4839225
-3.3626673 -3.3518059 1.4872358
-3.363318 -3.3673401 1.484018
-3.3581953 -3.357789 1.4846567
-3.3494024 -3.3733549 1.4815524
-3.3478763 -3.3784065 1.4972318
-3.3357294 -3.3889289 1.4957244
-3.3424971 -3.3886998 1.4895008
-3.3216417 -3.3914762 1.4958823
-3.3212245 -3.387574 1.490195
-3.3257143 -3.406863 1.4921488
-3.3184674 -3.4029057 1.4861284
-3.3079007 -3.404295 1.4892776
-3.3005452 -3.4052641 1.4866749
-3.2925446 -3.4221497 1.4931972
-3.287642 -3.4222245 1.4993516
-3.2870533 -3.4348748 1.4996613
-3.2879655 -3.4390213 1.4848709
-3.2750952 -3.427048 1.4919683
-3.2758367 -3.439399 1.4876252
-3.2622592 -3.4409878 1.4886442
-3.2667217 -3.4400847 1.498265
-3.2571979 -3.4533758 1.4911339
-3.2645187 -3.4640789 1.4876647
-3.2544358 -3.4715557 1.4919343
-3.3680887 -3.5979841 1.4400041
-3.3651221 -3.6097186 1.4207772
-3.3618391 -3.6071587 1.4220079
-3.3533399 -3.6165276 1.4398097
-3.3577371 -3.6314442 1.4298511
-3.3464704 -3.6375957 1.4228877
-3.3541782 -3.633028 1.4214048
-3.3322589 -3.6437619 1.4312017
-3.3374639 -3.6466477 1.434859
-3.3261318 -3.6442885 1.4355968
-3.3305235 -3.6501622 1.4335304
-3.3260963 -3.6581137 1.4244547
-3.3208895 -3.6678338 1.4226573
-3.3144457 -3.6741126 1.4362019
-3.3101935 -3.669853 1.4395341
-3.2958934 -3.6793976 1.4214119
-3.2885504 -3.6817279 1.4325472
-3.2826838 -3.6872227 1.4376316
-3.2870138 -3.6830134 1.4245056
-3.2876801 -3.6925693 1.4384074
-3.2676022 -3.6916201 1.4310973
-3.2695844 -3.7113543 1.4404898
-3.2606359 -3.7109983 1.4248095
-3.2534783 -3.7093215 1.4274902
-3.2527697 -3.7085223 1.4390635
-3.2487226 -3.718559 1.4257178
-3.3679223 -3.870105 1.3739178
-3.3706486 -3.8773983 1.3619767
-3.348284 -3.8741763 1.378849
-3.3590388 -3.8767824 1.3707623
-3.3558853 -3.8844783 1.3682144
-3.3400352 -3.8993306 1.3705148
-3.3347862 -3.8904152 1.3777462
-3.325211 -3.899529 1.3712224
-3.3329487 -3.9131277 1.3700585
-3.3291063 -3.9078791 1.3634113
-3.318603 -3.9219053 1.373474
-3.2991509 -3.9240708 1.360957
-3.3116336 -3.9292917 1.3763677
-3.3072374 -3.9306939 1.3738707
-3.2909212 -3.934375 1.3683684
-3.2771468 -3.9476457 1.3726968
-3.2810655 -3.9411132 1.3706162
-3.2777464 -3.9504583 1.3640895
-3.2609446 -3.9529996 1.3686243
-3.2653005 -3.957164 1.3630604
-3.2562971 -3.9562974 1.3681151
-3.2572246 -3.961457 1.3756415
-3.2506628 -3.9645839 1.3625765
-3.3691363 -4.1164594 1.3119891
-3.3494418 -4.1300311 1.3030771
-3.355243 -4.1353326 1.3055011
-3.3367093 -4.1300626 1.3190563
-3.3402498 -4.1469908 1.3078578
-3.3303103 -4.1526399 1.3187011
-3.3358295 -4.1481743 1.3099558
-3.3269062 -4.1602416 1.3066452
-3.3129215 -4.1587782 1.3027352
-3.311404 -4.1763015 1.3002506
-3.3029451 -4.1774011 1.3180888
-3.3043246 -4.1845737 1.3070601
-3.2946095 -4.1833215 1.3154271
-3.282464 -4.1893163 1.3137525
-3.276757 -4.1846385 1.2998309
-3.2822421 -4.1958151 1.3049326
-3.2768774 -4.1983113 1.3191644
-3.2602515 -4.1976905 1.3059856
-3.2669301 -4.2088985 1.3189183
-3.2575121 -4.2044086 1.3189677
-3.2505724 -4.2172856 1.3025497
-3.2457881 -4.2173753 1.303583
-3.2320261 -4.2335887 1.3104843
-3.2298911 -4.2235017 1.3159982
-3.229424 -4.2335596 1.3107892
-3.2228723 -4.234961 1.3189948
-3.2112126 -4.2368627 1.3092872
-3.2053151 -4.2480092 1.3047752
-3.19259 -4.2517118 1.3136218
-3.1869259 -4.2518802 1.3115166
-3.181206 -4.270999 1.3010842
-3.1718979 -4.2712297 1.3151042
-3.1815505 -4.2636013 1.3174447
-3.1642954 -4.2797475 1.3143972
-3.1615202 -4.2813416 1.3058088
-3.1639481 -4.2823057 1.3003278
-3.158164 -4.2975383 1.317446
-3.1420813 -4.2928076 1.3079098
-3.1305046 -4.3012919 1.3191551
-3.130075 -4.3100591 1.3147076
-3.1317446 -4.2990594 1.3156087
-3.1238403 -4.3047113 1.300738
-3.1219101 -4.3059807 1.317946
-3.1176331 -4.3159666 1.3034505
-3.0963976 -4.3291554 1.3117946
-3.1037445 -4.3307562 1.3036003
-3.0965664 -4.3325624 1.3045906
-3.0922639 -4.3442831 1.3147205
-3.0774918 -4.3504291 1.3007663
-3.0714684 -4.342154 1.3024371
-3.0698862 -4.3415632 1.299491
-3.0673969 -4.3590894 1.3152686
-3.0597725 -4.3607121 1.3141437
-3.0549343 -4.3640904 1.3073909
-3.0445855 -4.3722725 1.3117993
-3.0258863 -4.373847 1.3189486
-3.0353758 -4.3742943 1.3086244
-3.023869 -4.3764958 1.3109044
-3.0222266 -4.3899889 1.3113545
-3.0145321 -4.3835278 1.3043871
-3.0051613 -4.4015594 1.3023096
-2.9987304 -4.4031835 1.3069967
-2.996516 -4.4032698 1.3143433
-2.9954209 -4.4046116 1.302585
-2.9810727 -4.4017034 1.3069096
-2.9823103 -4.4062014 1.3139164
-2.9763927 -4.4262996 1.3047242
-2.9607935 -4.4210081 1.3175694
-2.9629085 -4.4201965 1.3011523
-2.9445677 -4.4378195 1.3154191
-2.9331884 -4.4322062 1.3158678
-2.943881 -4.4463024 1.3188977
-2.9298806 -4.4443307 1.3060378
-2.9285278 -4.4474163 1.3160243
-2.9189277 -4.4423113 1.3130984
-2.9049973 -4.4446077 1.3098454
-2.9040544 -4.4671564 1.3106563
-2.892298 -4.4602809 1.3009121
-2.8876908 -4.4617019 1.3161243
-2.8794949 -4.4709692 1.3178495
-2.8770268 -4.4750495 1.3093158
-2.8741043 -4.4760213 1.3108046
-2.8681462 -4.4891968 1.3183755
-2.8550422 -4.4872293 1.3069626
-2.8519464 -4.4818778 1.3047475
-2.8517709 -4.4888167 1.3043201
-2.8348427 -4.50104 1.3054197
-2.8370981 -4.50774 1.3174614
-2.829092 -4.5160708 1.3121401
-2.8258684 -4.50245 1.3016011
-2.8209138 -4.5126104 1.311022
-2.8044875 -4.5261035 1.3035033
-2.806567 -4.5198998 1.3068322
-2.80107 -4.5268588 1.3161427
-2.7869806 -4.5369935 1.3148105
-2.7951007 -4.5332308 1.3105359
-2.7836428 -4.5388231 1.3180261
-2.7710798 -4.5329595 1.3027958
-2.7664697 -4.5453844 1.303205
-2.7671757 -4.5408854 1.3011968
-2.758415 -4.5577374 1.3129809
-2.7402279 -4.5644736 1.3152156
-2.7495544 -4.5596061 1.3075894
-2.7355466 -4.5555634 1.3169308
-2.732223 -4.5637589 1.3000544
-2.7302263 -4.5664072 1.3108497
-2.7124987 -4.5839357 1.2999523
-2.7072756 -4.5752449 1.3188094
-2.6972775 -4.5882936 1.3091239
-2.7068651 -4.5884023 1.3078104
-2.6984553 -4.5861101 1.3135095
-2.6782565 -4.5919967 1.3163273
-2.6758175 -4.5935798 1.3078592
-2.6809995 -4.6075315 1.3072712
-2.6568348 -4.6045408 1.3023167
-2.6495414 -4.6059399 1.3185335
-2.6514475 -4.616004 1.3010327
-2.6442459 -4.6272416 1.3160243
-2.6381817 -4.6148844 1.3017604
-2.641798 -4.6185222 1.3111718
-2.6267228 -4.6201634 1.3066502
-2.6259432 -4.6280241 1.3000082
-2.6223407 -4.6398702 1.3155398
-2.6072011 -4.6433263 1.300868
-2.5926445 -4.6490526 1.3129258
-2.6030374 -4.6539245 1.3073144
-2.577208 -4.6471472 1.3153604
-2.5888748 -4.6596174 1.3158805
-2.5655448 -4.6524787 1.3124611
-2.5764737 -4.6554165 1.3090979
-2.5579863 -4.669744 1.3077782
-2.5640154 -4.6697626 1.3022736
-2.5566814 -4.6726537 1.3085902
-2.5338109 -4.6668859 1.3151081
-2.5256071 -4.6730475 1.2995485
-2.5253406 -4.6760921 1.3027568
-2.5306807 -4.6798034 1.3163731
-2.5079696 -4.6816826 1.3011403
-2.5047336 -4.6867371 1.3166586
-2.5049121 -4.6892319 1.3128425
-2.4884489 -4.6997552 1.318293
-2.4933004 -4.7028279 1.3073102
-2.4836516 -4.7050929 1.3170121
-2.4676816 -4.7110186 1.3160486
-2.465189 -4.7152758 1.3124815
-2.4582508 -4.7258077 1.3094182
-2.4480996 -4.7282252 1.306183
-2.4443274 -4.7344828 1.304599
-2.4357831 -4.7240596 1.3014814
-2.4317157 -4.7403755 1.2993808
-2.4314597 -4.7267938 1.3102601
-2.4257483 -4.7446332 1.3015597
-2.4110153 -4.7393999 1.3140787
-2.4065752 -4.7447762 1.3041476
-2.4030943 -4.7542448 1.3134249
-2.4031754 -4.7433648 1.3156272
-2.3863153 -4.7489281 1.3188595
-2.3926857 -4.757318 1.2992725
-2.3806355 -4.7637682 1.313538
-2.3716981 -4.7727599 1.3149073
-2.364857 -4.7681088 1.3132693
-2.3471317 -4.7643652 1.3171926
-2.3581021 -4.772511 1.3097417
-2.336549 -4.782845 1.3002973
-2.3449225 -4.7763305 1.3047581
-2.3240139 -4.7765341 1.303463
-2.3208988 -4.78652 1.2999598
-2.3145466 -4.7895226 1.311412
-2.3077769 -4.7871261 1.2997506
-2.3067372 -4.8024483 1.3024248
-2.3043237 -4.7975898 1.3130677
-2.2835438 -4.801671 1.3107629
-2.278836 -4.8033924 1.3036112
-2.2815747 -4.8102355 1.3094155
-2.2737534 -4.8121305 1.3050147
-2.2614667 -4.8198004 1.3036814
-2.2504706 -4.8110433 1.3156242
-2.2429736 -4.8226266 1.3078169
-6.1779532 -2.9893537 0.8647207
-6.1694889 -2.9971316 0.86984098
-6.1711564 -3.0089276 0.87776369
-6.1668119 -3.0168161 0.8731674
-6.1626401 -3.0341463 0.86431766
-6.1471682 -3.0368466 0.87014782
-6.1392231 -3.0399132 0.86472493
-6.1432214 -3.0638535 0.88117152
-6.1489234 -3.0642192 0.87088525
-6.1338348 -3.0758724 0.8727774
-5.9661069 -2.9921901 0.92759198
-5.9606462 -3.0098586 0.92391211
-5.9500537 -3.013402 0.93706214
-5.9515271 -3.0168204 0.93094373
-5.9375849 -3.020299 0.93610919
-5.9324808 -3.0325489 0.92718244
-5.9415355 -3.0411096 0.92379147
-5.9360008 -3.057936 0.9250564
-5.9340081 -3.0647442 0.93454617
-5.9222903 -3.0607557 0.94096702
-5.908669 -3.0839481 0.93379104
-5.7503023 -2.9974077 0.99662894
-5.7449951 -3.0127134 0.98490357
-5.7465262 -3.0137112 0.99808204
-5.7341647 -3.0249972 0.99609852
-5.7366266 -3.0354216 0.9901756
-5.728004 -3.0391538 0.98399669
-5.7227612 -3.0416167 0.98929012
-5.7162423 -3.0463638 0.99606794
-5.7202225 -3.0636814 0.99512106
-5.6977706 -3.0716772 0.99926257
-5.7024837 -3.0748851 0.98975152
-5.5358081 -2.9859281 1.0523156
-5.5288615 -2.9935353 1.0425601
-5.5287261 -3.0130026 1.0495391
-5.5105634 -3.019165 1.0541086
-5.5183129 -3.0209491 1.0429548
-5.5122304 -3.0417457 1.0573409
-5.500844 -3.0402899 1.0549768
-5.5026689 -3.0470917 1.0432861
-5.5054297 -3.0557308 1.0515844
-5.4840384 -3.0733829 1.0446539
-5.4921474 -3.0765581 1.0435966
-5.4770298 -3.076982 1.0426648
-5.3053184 -2.9876194 1.1093403
-5.313087 -2.9979351 1.1182262
-5.2962761 -3.0002275 1.113043
-5.2906084 -3.0206754 1.1147721
-5.290544 -3.0139859 1.1056601
-5.2928338 -3.0333805 1.1174432
-5.2868037 -3.0398064 1.1082785
-5.2924652 -3.0491221 1.1091471
-5.2850471 -3.0508387 1.1145195
-5.2786756 -3.0617402 1.1071411
-5.2732258 -3.0715821 1.1029359
-5.2604384 -3.0733855 1.1158439
-5.2587547 -3.0825806 1.1138825
-5.0976357 -2.9934614 1.1782387
-5.0795212 -3.0051322 1.1773475
-5.0905089 -3.0033269 1.1644671
-5.0897031 -3.0197363 1.1725601
-5.078052 -3.0260618 1.1787308
-5.0655231 -3.0292339 1.1705728
-5.0676112 -3.0303102 1.1788949
-5.0570679 -3.0502224 1.1647507
-5.0507202 -3.0416429 1.1761727
-5.0514545 -3.0556862 1.165763
-5.0541401 -3.0575356 1.1749699
-5.0518084 -3.0654616 1.1796277
-5.0503573 -3.0685763 1.1732067
-5.0417776 -3.0750966 1.1774865
-4.862411 -2.994128 1.2218933
-4.8596873 -3.0046933 1.2308778
-4.8651123 -3.0015881 1.2258782
-4.8622055 -3.0121906 1.2280531
-4.8534336 -3.0207062 1.2258877
-4.85323 -3.0342267 1.2367533
-4.8434272 -3.0347137 1.2328383
-4.8444076 -3.037159 1.2280598
-4.8407207 -3.042454 1.2272229
-4.8234453 -3.0434792 1.2269163
-4.8218803 -3.0521414 1.2345635
-4.815248 -3.0622699 1.2384567
-4.8196216 -3.0820227 1.2322607
-4.8089852 -3.0830777 1.2222617
-4.816165 -3.0795791 1.2305409
-4.8055005 -3.1001048 1.2320873
-4.6435528 -2.9913964 1.279277
-4.6460638 -3.0113595 1.2914488
-4.6333447 -3.0118921 1.2850958
-4.6214528 -3.0194151 1.2844816
-4.6298585 -3.029649 1.2819633
-4.6306081 -3.037535 1.2960687
-4.6074557 -3.0340886 1.2971674
-4.6104898 -3.0443096 1.2839512
-4.6035142 -3.0460229 1.2809677
-4.6082506 -3.061394 1.2841865
-4.5914311 -3.0595572 1.2791674
-4.5867615 -3.0644274 1.2806773
-4.589911 -3.0807834 1.2881408
-4.5794048 -3.0894618 1.2945614
-4.5895038 -3.0907693 1.2972227
-4.5821118 -3.0970585 1.2984664
-4.4225535 -2.9972112 1.3489673
-4.4200897 -2.9916532 1.3563557
-4.4108334 -3.0033793 1.3484814
-4.404552 -3.0041099 1.3516808
-4.3950429 -3.0122986 1.3431556
-4.3905444 -3.0201044 1.3561931
-4.3845277 -3.0353549 1.3393012
-4.3910389 -3.0444033 1.3401518
-4.3911209 -3.047864 1.3461096
-4.3685327 -3.048255 1.3521868
-4.3646927 -3.051471 1.3572885
-4.3696909 -3.0564134 1.3541241
-4.3672929 -3.0562983 1.3454037
-4.3527603 -3.0741093 1.3421171
-4.35502 -3.0866275 1.3568001
-4.3457961 -3.0788717 1.3498298
-4.3435264 -3.0893326 1.3537556
-4.33814 -3.0905461 1.3547734
-4.1765866 -2.9849286 1.3978136
-4.1845303 -2.9919286 1.4072433
-4.1663885 -2.9993558 1.3995795
-4.163137 -3.016058 1.4130903
-4.1630416 -3.0146463 1.4128271
-4.1716585 -3.0229955 1.4008578
-4.1635542 -3.0179057 1.4024692
-4.1607585 -3.0279026 1.3979288
-4.1449246 -3.0399485 1.4090146
-4.1451573 -3.0509348 1.4049675
-4.1443639 -3.0400116 1.4014492
-4.1398706 -3.0612206 1.416783
-4.1259398 -3.0684848 1.4105353
-4.1196642 -3.0767026 1.4134257
-4.1198697 -3.0690382 1.4035619
-4.1203308 -3.0742121 1.4111774
-4.1127529 -3.0755107 1.409705
-4.1035557 -3.0982513 1.4040523
-4.0988903 -3.0894041 1.4121644
-4.1031318 -3.1050432 1.4150946
-3.9392686 -2.9886944 1.4740952
-3.9512203 -3.0073662 1.4583312
-3.9278309 -2.9963851 1.4610897
-3.9306812 -3.0034149 1.4614112
-3.9306335 -3.0149448 1.4751719
-3.9204421 -3.0112379 1.4695275
-3.9226272 -3.0242636 1.4683471
-3.9062772 -3.0324104 1.4701828
-3.9155724 -3.0402188 1.4666164
-3.9167478 -3.0366027 1.4731556
-3.8949852 -3.0456095 1.4663258
-3.8935628 -3.0507574 1.4663442
-3.8878965 -3.0567126 1.462858
-3.8994644 -3.0697229 1.4578503
-3.8907032 -3.0668974 1.4668154
-3.8881736 -3.0781004 1.4649839
-3.8712807 -3.0757163 1.4756175
-3.8755608 -3.0812173 1.4635892
-3.8779974 -3.1002562 1.4692314
-3.8639932 -3.1047211 1.4639624
-3.8634419 -3.0916812 1.4751538
-3.8497131 -3.101485 1.4666582
-3.7074325 -2.9898212 1.5170109
-3.6973243 -2.9938736 1.5204542
-3.6922164 -2.9934533 1.5321659
-3.6981363 -3.0147998 1.5181116
-3.6858804 -3.0035574 1.5318726
-3.6829834 -3.0209064 1.5255578
-3.6721079 -3.0250113 1.525623
-3.6755829 -3.0194385 1.5266362
-3.6643198 -3.0376487 1.5260963
-3.6618581 -3.0464718 1.5211536
-3.6678846 -3.0458891 1.5331949
-3.6628997 -3.0393872 1.5263653
-3.6544645 -3.0519736 1.5251316
-3.6543102 -3.0546832 1.527721
-3.6482034 -3.0693474 1.5267168
-3.6483281 -3.0653324 1.5335213
-3.6347606 -3.074667 1.521373
-3.6211209 -3.0717087 1.5199437
-3.6264608 -3.0817263 1.5254444
-3.6123335 -3.093529 1.5272563
-3.623142 -3.0956116 1.5347791
-3.621902 -3.0969703 1.5339261
-3.6074843 -3.1141615 1.5256033
-3.6142938 -3.1154735 1.5196813
-3.5985065 -3.1149607 1.5241996
-3.4594715 -2.9936774 1.5771796
-3.4380448 -3.0081062 1.5865692
-3.4487596 -3.0131993 1.5840036
-3.440897 -3.0079429 1.5765007
-3.427527 -3.0128772 1.5822695
-3.4323382 -3.0129447 1.5910242
-3.4296203 -3.0161042 1.5834824
-3.4277484 -3.0291855 1.5838057
-3.4141927 -3.033422 1.587867
-3.4065521 -3.0462246 1.5774853
-3.4143867 -3.0485971 1.5882403
-3.4085829 -3.0537353 1.5893968
-3.393383 -3.053787 1.5902853
-3.4007421 -3.0501821 1.5812489
-3.3955972 -3.0574195 1.5920912
-3.3846769 -3.0736876 1.5876732
-3.3849955 -3.0714633 1.5848967
-3.3728492 -3.0716 1.5938343
-3.380373 -3.0824199 1.5833247
-3.3638287 -3.0898452 1.584796
-3.3576596 -3.0893576 1.5886723
-3.360729 -3.0873258 1.592182
-3.3626351 -3.0943596 1.5804055
-3.3436463 -3.113025 1.5769935
-3.3536875 -3.1108248 1.5910976
-3.3528795 -3.1219902 1.5936812
-3.3364832 -3.1177664 1.5832309
-3.3428569 -3.125695 1.5773796
-3.3402865 -3.1254532 1.585438
-3.3282192 -3.1329792 1.5907947
-3.3146739 -3.1386549 1.5813564
-3.317246 -3.1317253 1.5786616
-3.3163018 -3.1510339 1.5936383
-3.3071277 -3.1556921 1.5946491
-3.3013589 -3.1547363 1.5825534
-3.3014798 -3.1573243 1.5839796
-3.2990105 -3.1678741 1.5943109
-3.2869852 -3.169162 1.5813885
-3.2808046 -3.1722507 1.5933768
-3.2865593 -3.1876495 1.582502
-3.2869508 -3.1738875 1.5906081
-3.2767742 -3.187088 1.5902945
-3.2692859 -3.1837413 1.5953166
-3.2668145 -3.1956239 1.5803189
-3.2633259 -3.2061481 1.5909091
-3.2519269 -3.2012095 1.5835373
-3.2590952 -3.2182245 1.5902356
-3.2559257 -3.2076437 1.5802594
-3.3812101 -3.3498814 1.5324538
-3.3787742 -3.3679416 1.5331986
-3.3672063 -3.3708417 1.5323006
-3.3675258 -3.3680198 1.5227908
-3.3681524 -3.3821709 1.5212103
-3.36375 -3.3783183 1.5323232
-3.3543389 -3.3754511 1.517482
-3.3543313 -3.3856647 1.5321432
-3.3416886 -3.3875334 1.5343468
-3.3423414 -3.3907256 1.5316825
-3.3329637 -3.408164 1.5258888
-3.332037 -3.4078598 1.5267627
-3.330359 -3.4006884 1.5294578
-3.3095722 -3.4185431 1.5196892
-3.318289 -3.4217377 1.5204775
-3.3085797 -3.4252501 1.52982
-3.3077509 -3.424078 1.5267245
-3.3017569 -3.4276309 1.5181035
-3.3010952 -3.4432812 1.5322953
-3.2782238 -3.4443302 1.52797
-3.2780099 -3.4407542 1.5308745
-3.2835834 -3.4610107 1.5187448
-3.2682767 -3.4643545 1.5184417
-3.2702684 -3.4516838 1.5249323
-3.2620225 -3.4725084 1.5328697
-3.2529817 -3.4684086 1.5219297
-3.2545922 -3.4682717 1.5167903
-3.2392917 -3.486939 1.5327193
-3.3827806 -3.6295068 1.4582646
-3.3617013 -3.6344376 1.4667172
-3.3649409 -3.6239717 1.4633473
-3.3652692 -3.6439025 1.4643158
-3.3577206 -3.6333563 1.4665282
-3.3504686 -3.6496379 1.4659925
-3.3367198 -3.6425164 1.4692065
-3.3350267 -3.6512027 1.4610878
-3.3242671 -3.6663549 1.4576668
-3.3186405 -3.6710682 1.4601327
-3.3170784 -3.6739638 1.4643359
-3.3106163 -3.6808498 1.4683304
-3.3156948 -3.6760514 1.4675059
-3.3041368 -3.6766641 1.4714584
-3.311604 -3.6948175 1.4706578
-3.2968524 -3.690815 1.4582691
-3.28263 -3.6981657 1.4576887
-3.285187 -3.7089324 1.473101
-3.2758563 -3.7140548 1.4580334
-3.2699404 -3.7186728 1.4629174
-3.2815518 -3.7068567 1.4695638
-3.268954 -3.7137136 1.4739749
-3.2523551 -3.7307906 1.4678279
-3.2565742 -3.7214575 1.4657046
-3.2568345 -3.7447457 1.4700568
-3.3631072 -3.882659 1.4036852
-3.3563426 -3.887476 1.4139258
-3.350152 -3.9000235 1.3980072
-3.3485425 -3.8884199 1.4015664
-3.3419938 -3.8960867 1.4051007
-3.3505547 -3.9005578 1.4050366
-3.3324625 -3.9176297 1.402694
-3.329953 -3.9233081 1.4078457
-3.3335838 -3.9184175 1.4068944
-3.3193316 -3.9190052 1.4072115
-3.3207207 -3.9258721 1.3983804
-3.3091264 -3.9314065 1.4094491
-3.3072851 -3.9361892 1.4126794
-3.3013561 -3.9448075 1.4122146
-3.2918613 -3.9523294 1.4087769
-3.2788258 -3.9538705 1.4055545
-3.2858479 -3.9627845 1.4099387
-3.2752063 -3.9546607 1.4133154
-3.2794065 -3.9756455 1.4062459
-3.2645514 -3.9678626 1.4032444
-3.2693729 -3.96696 1.3980238
-3.2630193 -3.9799604 1.4119092
-3.2455907 -3.9766238 1.4056444
-3.3654485 -4.1410303 1.3560379
-3.3650346 -4.1334648 1.342875
-3.3480515 -4.1383872 1.3527803
-3.3542848 -4.1558609 1.3383734
-3.336127 -4.1482291 1.3566844
-3.3345861 -4.1703391 1.3385968
-3.3201082 -4.1631432 1.3528705
-3.3286252 -4.1663241 1.3526175
-3.3223562 -4.1687121 1.3439271
-3.3221955 -4.1792397 1.3431286
-3.3082931 -4.1946754 1.350633
-3.3046424 -4.1954851 1.3504103
-3.2941482 -4.1851058 1.3499651
-3.2937422 -4.2067599 1.3567375
-3.2877367 -4.196063 1.3558254
-3.2834139 -4.2096395 1.357478
-3.2771721 -4.2145576 1.3509939
-3.2566504 -4.2138195 1.345988
-3.2563751 -4.2126455 1.3432448
-3.2447839 -4.2171502 1.3546169
-3.2539849 -4.2335987 1.3551875
-3.3518028 -4.3838806 1.2802267
-3.3534975 -4.3980575 1.2796118
-3.3356309 -4.3976932 1.2819527
-3.3309853 -4.3971953 1.2795918
-3.3272452 -4.398252 1.2882483
-3.3218462 -4.4189515 1.2965717
-3.3229246 -4.4250197 1.2902105
-3.3090026 -4.4167099 1.289592
-3.3178172 -4.4227118 1.2890292
-3.2952533 -4.4238248 1.2965705
-3.2921124 -4.4325442 1.2900057
-3.2845774 -4.4290924 1.2939618
-3.2776508 -4.4339147 1.2829711
-3.2683771 -4.440239 1.2971592
-3.2614577 -4.448977 1.2949625
-3.2658756 -4.4584761 1.2967299
-3.2619636 -4.4552207 1.2970837
-3.2444065 -4.4642167 1.2903936
-3.2474616 -4.4682069 1.2823387
-3.2310729 -4.4758191 1.2977997
-3.2271366 -4.4864836 1.2891616
-3.229759 -4.475812 1.2885869
-3.2284188 -4.4844193 1.2877927
-3.2180631 -4.489965 1.2852685
-3.2135129 -4.4948101 1.2985919
-3.2111533 -4.5102973 1.2869929
-3.1870198 -4.5081038 1.2832174
-3.1825264 -4.5145912 1.2950054
-3.1847169 -4.5103769 1.287354
-3.1749561 -4.5160246 1.2966319
-3.169728 -4.5239921 1.2797788
-3.1731319 -4.5208449 1.2981218
-3.1571043 -4.5426269 1.2923728
-3.1418648 -4.5403285 1.285585
-3.1491432 -4.5397615 1.2984506
-3.1430919 -4.5431228 1.2803179
-3.1286337 -4.548645 1.2888592
-3.117945 -4.5559745 1.2953852
-3.1154618 -4.5518012 1.2905883
-3.1206241 -4.5641794 1.284598
-3.1165023 -4.5776491 1.2950852
-3.1092274 -4.5808482 1.2931559
-3.1036038 -4.5743508 1.2938725
-3.0837228 -4.5789518 1.281306
-3.0906239 -4.5771747 1.2937164
-3.0846531 -4.5956964 1.2871664
-3.0768092 -4.5861163 1.2794862
-3.0604179 -4.5922093 1.2888598
-3.0574946 -4.6021876 1.2867813
-3.0393622 -4.6037025 1.2966895
-3.0472143 -4.6074762 1.2974846
-3.0445731 -4.6103616 1.2794284
-3.0238552 -4.6140156 1.2922081
-3.0224149 -4.6241879 1.2847166
-3.013535 -4.6276655 1.2833228
-3.012239 -4.6315832 1.2877189
-2.9974871 -4.6340737 1.2859981
-2.9904096 -4.6465955 1.2824781
-2.9939525 -4.6426225 1.2932646
-2.979568 -4.6469522 1.2868122
-2.9752696 -4.6455741 1.280853
-2.9701703 -4.6480017 1.2962663
-2.9631212 -4.6561637 1.2922741
-2.9632866 -4.6693439 1.2823495
-2.950938 -4.6801085 1.2931781
-2.9399772 -4.6760478 1.2843106
-2.9446146 -4.6837106 1.2971653
-2.9309671 -4.6907778 1.2817018
-2.9208336 -4.6878762 1.2944057
-2.919908 -4.6970835 1.2869657
-2.9054291 -4.6884918 1.28508
-2.8969038 -4.7013059 1.2849339
-2.8929596 -4.6935821 1.2807841
-2.8930018 -4.7125406 1.2876031
-2.8829629 -4.7056732 1.2877975
-2.8820899 -4.7143736 1.2961837
-2.8700788 -4.7142453 1.2810286
-2.8652072 -4.7270098 1.2829188
-2.8557935 -4.736186 1.2918143
-2.8536704 -4.7309885 1.2955967
-2.8389816 -4.7378688 1.292056
-2.846173 -4.7427864 1.2797769
-2.8335049 -4.7503285 1.2792884
-2.8249812 -4.7444868 1.2838987
-2.8296328 -4.7551861 1.2794248
-2.8140845 -4.7515974 1.2902899
-2.8101444 -4.762589 1.2853131
-2.8013542 -4.7553053 1.291593
-2.790668 -4.7652102 1.2927077
-2.7910812 -4.7796001 1.2830225
-2.7877064 -4.7659144 1.29045
-2.7678668 -4.7860389 1.2969433
-2.7603009 -4.7801199 1.2798692
-2.7532182 -4.7923074 1.2926021
-2.7615197 -4.7957816 1.2985917
-2.7542896 -4.790349 1.2921165
-2.7361891 -4.8076229 1.2985874
-2.7430601 -4.8027582 1.29627
-2.7236459 -4.8138652 1.2879664
-2.7231116 -4.812048 1.2891825
-2.7122571 -4.8135247 1.2879847
-2.7139699 -4.8218355 1.2905531
-2.7091842 -4.8292599 1.2829218
-2.701467 -4.8162856 1.2869755
-2.6810119 -4.8383036 1.2914176
-2.6745617 -4.8397865 1.2851459
-2.6745818 -4.8298702 1.2854445
-2.6681254 -4.8335304 1.2944423
-2.6639814 -4.8444886 1.2961586
-2.6481359 -4.841629 1.2835079
-2.6510687 -4.8546367 1.2931873
-2.6351943 -4.8560853 1.2983528
-2.6367466 -4.8594804 1.2798818
-2.6259248 -4.8618965 1.2981632
-2.6110444 -4.8706007 1.2981956
-2.6117167 -4.8596034 1.2805045
-2.5986555 -4.8753796 1.2964798
-2.6052907 -4.8714585 1.2925353
-2.5829229 -4.8701577 1.2813641
-2.5788338 -4.8797803 1.296774
-2.5673902 -4.8791108 1.2828883
-2.5662625 -4.8893466 1.291257
-2.5599639 -4.8879194 1.2799238
-2.5521314 -4.9024611 1.2898582
-2.5460126 -4.908917 1.2947627
-2.5398564 -4.9028454 1.2943293
-2.5313864 -4.9105177 1.2817749
-2.5269358 -4.9116359 1.2967873
-2.5264249 -4.917202 1.2967367
-2.5170803 -4.9254994 1.2906898
-2.512321 -4.9291792 1.2889297
-2.5014422 -4.9185619 1.2805412
-2.5021901 -4.9284816 1.2971779
-2.4942663 -4.9374099 1.2828619
-2.476403 -4.9270644 1.2856688
-2.4736304 -4.9374142 1.2981168
-2.4712865 -4.9461489 1.2864517
-2.4614921 -4.957294 1.2972186
-2.4566805 -4.9547939 1.28596
-2.4519145 -4.9498196 1.2899346
-2.4331908 -4.9669614 1.2937511
-2.4362226 -4.9601045 1.2916967
-2.4276378 -4.9608808 1.2832246
-2.4224117 -4.9606237 1.2893169
-2.4114969 -4.969398 1.2892371
-2.3977702 -4.9822998 1.2822813
-2.3915911 -4.9797621 1.290054
-2.3970723 -4.974339 1.2901355
-2.391782 -4.9910192 1.2961614
-2.3777456 -4.9898524 1.2905962
-6.1960869 -2.9886706 0.92838395
-6.1787691 -3.0105567 0.92051148
-6.1812377 -3.0143156 0.91495633
-6.1709976 -3.0158346 0.91808003
-6.1659245 -3.0333948 0.92071992
-6.1692772 -3.0374508 0.91643542
-6.1688266 -3.0468318 0.91705418
-6.1625056 -3.0605092 0.92301291
-6.1573911 -3.0705674 0.92458755
-6.152061 -3.0679042 0.9176507
-5.9764352 -2.9843493 0.98983741
-5.9776201 -2.993242 0.99084419
-5.9666662 -3.0088081 0.97674334
-5.9612556 -3.0183511 0.9897688
-5.9527092 -3.0270503 0.97387332
-5.9615116 -3.0433431 0.98255521
-5.9545875 -3.043438 0.99048376
-5.9470325 -3.0614777 0.97335649
-5.9535069 -3.0586796 0.97478652
-5.938395 -3.074841 0.98748922
-5.9302087 -3.0707862 0.98653913
-5.7580047 -3.0036805 1.0430062
-5.7546763 -2.9980175 1.034309
-5.7454371 -3.0111609 1.0444158
-5.7431617 -3.0199864 1.0341647
-5.7367702 -3.0218544 1.0359559
-5.7416859 -3.0410492 1.0459813
-5.7386618 -3.0369523 1.0462904
-5.7327533 -3.0436049 1.0377148
-5.7254043 -3.0594323 1.0412891
-5.7253408 -3.0713711 1.0372237
-5.7262163 -3.0851858 1.0401342
-5.5401726 -2.9888434 1.0947148
-5.5513339 -2.9982619 1.1062517
-5.5323777 -3.0096247 1.0970076
-5.5436621 -3.0188277 1.0939342
-5.5331445 -3.0171885 1.0996985
-5.5325904 -3.0367789 1.0975866
-5.5117168 -3.0347261 1.0968429
-5.5194077 -3.0495999 1.0882868
-5.5035133 -3.0486977 1.0958006
-5.5116739 -3.0729694 1.0975026
-5.496913 -3.0638993 1.0925177
-5.5055118 -3.070184 1.1058704
-5.3357196 -2.9878826 1.153561
-5.322135 -2.9946821 1.1618419
-5.3116136 -3.0151899 1.1594999
-5.3153176 -3.0193806 1.1652998
-5.3211231 -3.0269451 1.1608789
-5.307662 -3.0264587 1.1493044
-5.3027463 -3.0343473 1.1463466
-5.290307 -3.0546765 1.1468253
-5.296155 -3.0445354 1.1640767
-5.2869773 -3.0672946 1.1627398
-5.2844372 -3.0714169 1.1575601
-5.2921467 -3.0661464 1.1530325
-5.271565 -3.0745566 1.1554428
-5.108202 -2.994036 1.2190529
-5.1042771 -3.0001605 1.2045816
-5.1047635 -2.997057 1.2180246
-5.0968142 -3.0132818 1.2110009
-5.0918126 -3.0213208 1.2110641
-5.0863223 -3.0194726 1.2086786
-5.083571 -3.0327215 1.2109381
-5.0821466 -3.0477149 1.2164735
-5.0658917 -3.0547132 1.2146714
-5.0741544 -3.0654356 1.2118452
-5.0599971 -3.0622239 1.2200725
-5.0601707 -3.0792782 1.2093191
-5.0548058 -3.0810194 1.2088069
-5.0559878 -3.0790222 1.2192019
-4.8809958 -2.9961879 1.2666346
-4.8892584 -2.9919224 1.2650847
-4.8798971 -3.009146 1.2774003
-4.8682666 -3.009196 1.2618304
-4.8710914 -3.0172517 1.2663647
-4.8557091 -3.0178406 1.2672728
-4.863143 -3.0285528 1.278483
-4.8623405 -3.0437286 1.2797233
-4.8522816 -3.0378397 1.2663006
-4.8427258 -3.0574427 1.2619476
-4.8427649 -3.0695615 1.2674392
-4.8333135 -3.0741329 1.2640289
-4.8254018 -3.0735426 1.2702214
-4.8251657 -3.0855305 1.2631847
-4.8204894 -3.0845618 1.2749071
-4.6702127 -2.9889867 1.3308005
-4.6602201 -2.9883099 1.3248339
-4.659008 -3.0110774 1.3304886
-4.6565471 -3.0080426 1.3288234
-4.6474991 -3.0197175 1.3343406
-4.6427956 -3.0157075 1.3345178
-4.6325908 -3.0265305 1.336897
-4.6257877 -3.0337365 1.3266339
-4.6327834 -3.0450099 1.331144
-4.6268063 -3.0559204 1.323378
-4.6090975 -3.0619338 1.3344848
-4.6134377 -3.0621419 1.3327867
-4.6037354 -3.0653346 1.3348337
-4.6083694 -3.0702717 1.3264223
-4.5946593 -3.0903759 1.3328365
-4.5954232 -3.0899997 1.3297555
-4.5960007 -3.103652 1.3223406
-4.4356337 -2.9874978 1.3921535
-4.4242272 -2.9896135 1.3792192
-4.4283018 -3.0100124 1.3818456
-4.4201341 -3.0169716 1.3849237
-4.4208508 -3.0125489 1.3942528
-4.4032569 -3.0227108 1.3868424
-4.4036074 -3.0218027 1.380942
-4.3923612 -3.0314896 1.3813788
-4.3946915 -3.0462544 1.3886267
-4.4000945 -3.0459199 1.3886516
-4.3929038 -3.0481069 1.3840088
-4.3738427 -3.0630784 1.383446
-4.3877072 -3.0663245 1.3886744
-4.3789368 -3.0656109 1.3931274
-4.3670797 -3.0698309 1.3881813
-4.3658848 -3.0806828 1.3792455
-4.3520923 -3.0961192 1.3773841
-4.3641911 -3.1045518 1.3919961
-4.2000332 -2.9883709 1.4359485
-4.184586 -2.9928305 1.448433
-4.1891055 -2.9943686 1.4448731
-4.1782594 -3.0011222 1.4524781
-4.1879683 -3.0060263 1.4429677
-4.1724405 -3.0264542 1.4402953
-4.1724515 -3.0193279 1.4395214
-4.1574006 -3.0353179 1.4540082
-4.1712775 -3.0418353 1.4391651
-4.1670074 -3.04478 1.4419898
-4.1481171 -3.0437152 1.4358945
-4.1432171 -3.0513933 1.4512101
-4.1458249 -3.0677888 1.450853
-4.1319842 -3.0775452 1.4496011
-4.1305304 -3.0812247 1.4492985
-4.1385794 -3.0735991 1.4544153
-4.129292 -3.0902152 1.4524999
-4.1207709 -3.0960195 1.4404298
-4.1177545 -3.0999475 1.447672
-4.1095734 -3.1038604 1.4377931
-3.9659135 -2.9976442 1.5127475
-3.9611485 -3.006089 1.5078847
-3.9410601 -3.001421 1.512432
-3.9413209 -3.0072005 1.5130228
-3.942826 -3.0158219 1.4957278
-3.9446261 -3.0167964 1.5118461
-3.9413018 -3.0327954 1.4971299
-3.9198849 -3.0245934 1.5023851
-3.9305305 -3.0377035 1.5094821
-3.9139264 -3.0469685 1.4984297
-3.9071934 -3.0495641 1.5038486
-3.9034493 -3.0515854 1.506361
-3.9045603 -3.0577171 1.4990739
-3.9011164 -3.0683157 1.5115341
-3.8970742 -3.0646336 1.5008935
-3.8903191 -3.0669732 1.4947935
-3.8874383 -3.0902178 1.4982034
-3.879266 -3.0962825 1.4953183
-3.8858309 -3.0972376 1.5048202
-3.8852911 -3.1058409 1.5105484
-3.8757961 -3.1119711 1.499166
-3.8608749 -3.0986249 1.5112417
-3.7144067 -2.9905291 1.5606099
-3.7044129 -3.0032003 1.566896
-3.7019515 -2.99612 1.5623254
-3.7101235 -3.006583 1.5608704
-3.7043884 -3.0184712 1.5616204
-3.695236 -3.0265007 1.5617487
-3.6889617 -3.0254164 1.5663594
-3.6931779 -3.0281208 1.5677979
-3.6916592 -3.0256667 1.5685313
-3.6815152 -3.0326352 1.5680299
-3.6792886 -3.046514 1.5609014
-3.6656375 -3.05459 1.5663006
-3.665693 -3.0644028 1.5639733
-3.6703122 -3.0665934 1.55637
-3.656379 -3.0672615 1.5620598
-3.6616888 -3.0629973 1.5648955
-3.646863 -3.0766861 1.5539851
-3.6474195 -3.0788257 1.565534
-3.6465304 -3.0836878 1.5646945
-3.6249006 -3.0826552 1.5620382
-3.6237652 -3.1036518 1.5706489
-3.6297512 -3.0952604 1.5563235
-3.630331 -3.1111951 1.5573192
-3.6132309 -3.1160262 1.5612521
-3.4588087 -2.9861474 1.6275897
-3.4637828 -2.9907291 1.6253564
-3.4659145 -3.0047843 1.6145444
-3.4589496 -3.0037022 1.6266967
-3.4604292 -3.0060444 1.6190846
-3.4427416 -3.0110774 1.6175971
-3.4477034 -3.0193026 1.6201987
-3.4440479 -3.0178485 1.6162714
-3.434711 -3.0213158 1.6214832
-3.4243717 -3.0320318 1.6269314
-3.4300928 -3.0375998 1.6222587
-3.4274206 -3.0523303 1.6178571
-3.4269748 -3.0533872 1.6242478
-3.4173346 -3.0516808 1.616562
-3.4155352 -3.0556626 1.6113697
-3.4013414 -3.0661719 1.6259739
-3.4086282 -3.065865 1.6171769
-3.393307 -3.0661311 1.6146517
-3.3819063 -3.0812957 1.6134713
-3.3852873 -3.090363 1.6263809
-3.3832133 -3.0894003 1.6185225
-3.3858056 -3.0900207 1.620728
-3.3727927 -3.0944574 1.6266649
-3.3733826 -3.0935228 1.6190902
-3.3616514 -3.1150641 1.6123101
-3.3551064 -3.1066937 1.6197908
-3.3539503 -3.109899 1.6123427
-3.3615847 -3.1220782 1.6093868
-3.351738 -3.1271589 1.6160187
-3.3430648 -3.1199293 1.6183293
-3.3414757 -3.1349409 1.6263431
-3.3277383 -3.1368666 1.6184707
-3.3317888 -3.1501076 1.6108896
-3.3298962 -3.1482737 1.6289654
-3.3155715 -3.1590505 1.6102158
-3.3080208 -3.1676302 1.6245466
-3.3129826 -3.1594086 1.620376
-3.3053861 -3.163183 1.6287239
-3.300739 -3.181478 1.6166826
-3.3094537 -3.1754746 1.6165568
-3.2958512 -3.1722629 1.6260986
-3.2942286 -3.1797013 1.6183883
-3.2804718 -3.1955843 1.6221038
-3.2742896 -3.193975 1.6123142
-3.2700253 -3.2024479 1.6164029
-3.2645042 -3.2077835 1.6165605
-3.2646461 -3.2025011 1.6095822
-3.2689519 -3.2140484 1.623466
-3.2649035 -3.2253814 1.6236848
-3.2528899 -3.2298684 1.6145309
-3.2409961 -3.2251985 1.6132064
-3.3752072 -3.3584132 1.5711043
-3.3812802 -3.3674641 1.5556753
-3.3636312 -3.3747973 1.5664548
-3.3757651 -3.3823378 1.553354
-3.3638039 -3.3888345 1.5595042
-3.3516784 -3.3999569 1.5555171
-3.3465247 -3.3998756 1.5645567
-3.3474805 -3.4002426 1.566831
-3.3482111 -3.4130991 1.5691798
-3.338089 -3.418571 1.5607535
-3.3292849 -3.4071167 1.5587163
-3.3246255 -3.426446 1.5523602
-3.3153887 -3.4128439 1.5633956
-3.3153658 -3.4360995 1.5516095
-3.3084371 -3.4321246 1.5580385
-3.315352 -3.4407611 1.5580504
-3.3062472 -3.4489877 1.5628424
