# .PCD v0.7 - Point Cloud Data file format
VERSION 0.7
FIELDS x y z
SIZE 4 4 4
TYPE F F F
COUNT 1 1 1
WIDTH 1507
HEIGHT 1
VIEWPOINT 0 0 0 1 0 0 0
POINTS 1507
DATA ascii
-3.0592685 -4.6107306 1.3388739
-3.0527303 -4.6314826 1.3299143
-3.0458605 -4.6349387 1.3214103
-3.0306346 -4.6289058 1.330148
-3.0340345 -4.6329679 1.3357733
-3.0142016 -4.6470981 1.3323141
-3.0079229 -4.633605 1.3203348
-3.0180981 -4.6443219 1.3197614
-3.0035934 -4.6522856 1.332002
-3.0034723 -4.6652379 1.3270059
-2.9952188 -4.6626172 1.3238876
-2.9892461 -4.6599135 1.3242939
-2.9722273 -4.6768012 1.3255112
-2.9637065 -4.6649299 1.3370199
-2.9664423 -4.6829314 1.3287159
-2.963547 -4.6875787 1.3305219
-2.9441049 -4.6924324 1.330052
-2.9366364 -4.6939516 1.3230875
-2.9297357 -4.6874623 1.3323721
-2.9305885 -4.6873546 1.3329086
-2.9164317 -4.7055016 1.3202608
-2.9253876 -4.7041903 1.3345021
-2.9139316 -4.7123795 1.3360324
-3.0018013 -4.8814588 1.2756505
-2.9973803 -4.8770609 1.2793766
-3.0012572 -4.8763041 1.2626045
-2.9833221 -4.8826485 1.2651191
-2.9858515 -4.8880725 1.2702454
-2.9753394 -4.8931503 1.2659826
-2.9555368 -4.9056411 1.2659403
-2.9551921 -4.9105406 1.2718544
-2.9474893 -4.9109674 1.2631744
-2.9455395 -4.9065151 1.27039
-2.9420536 -4.915967 1.2754873
-2.9409928 -4.9278135 1.2691896
-2.9162004 -4.9303589 1.267846
-2.9081743 -4.9217968 1.2643459
-2.9176278 -4.9425979 1.2795999
-6.8439856 -2.9859254 0.8096512
-6.8287678 -3.0105658 0.8029139
-6.8345842 -3.013514 0.79697937
-6.8355598 -3.0200312 0.80232841
-6.8230782 -3.0293374 0.79628283
-6.8250084 -3.038434 0.80885243
-6.825891 -3.0445335 0.81446439
-6.8221693 -3.0686808 0.80431736
-6.6323285 -2.9895954 0.87104857
-6.6199121 -3.0026801 0.86949772
-6.6235108 -3.0038495 0.8677175
-6.6241717 -3.0139964 0.87086111
-6.611557 -3.0341685 0.86061448
-6.6048636 -3.0395379 0.85340321
-6.6128087 -3.0566607 0.86643201
-6.6067863 -3.0599625 0.85990483
-6.608181 -3.068409 0.85681272
-6.4301348 -2.9962311 0.91565216
-6.4161525 -2.9942586 0.92756218
-6.4119773 -3.0040615 0.91566014
-6.4093399 -3.021667 0.91185546
-6.4084706 -3.0241508 0.92716449
-6.4044452 -3.0382497 0.91155654
-6.3906536 -3.0498989 0.91982812
-6.3840609 -3.0537486 0.92021978
-6.3844271 -3.0558448 0.92654675
-6.2185249 -3.0002623 0.97020876
-6.208602 -3.0078588 0.97754586
-6.1963778 -3.0056674 0.97583181
-6.1922317 -3.0235069 0.97328568
-6.199975 -3.0229282 0.98209858
-6.1915112 -3.025712 0.97738659
-6.1877265 -3.0487139 0.96752846
-6.1795373 -3.0421813 0.97496831
-6.1830649 -3.0533249 0.96749938
-6.1661882 -3.0691161 0.96686929
-5.9913707 -2.9903226 1.0239457
-6.0011516 -2.9913158 1.025557
-5.9835835 -3.004287 1.038036
-5.9877181 -3.0173259 1.0213454
-5.9743867 -3.0223348 1.0338975
-5.9722309 -3.0431185 1.0323243
-5.9747758 -3.0443673 1.0364014
-5.9671669 -3.0416899 1.0356576
-5.9721065 -3.0668142 1.0324107
-5.9645033 -3.0593488 1.022007
-5.9575186 -3.0729666 1.0332657
-5.7797308 -2.992171 1.0884645
-5.770709 -3.0061569 1.0825188
-5.769197 -3.0084918 1.0919051
-5.7643647 -3.0217211 1.0846478
-5.7669687 -3.0370324 1.0849662
-5.7511344 -3.0391374 1.0923891
-5.7512121 -3.0378945 1.090837
-5.7520218 -3.0458636 1.092502
-5.7360678 -3.0505135 1.089968
-5.7505064 -3.0724747 1.0821458
-5.7336745 -3.0712209 1.0950577
-5.5692959 -2.9941511 1.1386138
-5.5598664 -2.9905298 1.1513588
-5.5610394 -3.0062938 1.1389425
-5.5494595 -3.0088911 1.139277
-5.53755 -3.0198951 1.1455626
-5.5382066 -3.035228 1.1411415
-5.5404048 -3.0356343 1.1367956
-5.5409274 -3.0443606 1.1358382
-5.5239725 -3.0518107 1.1409519
-5.5348296 -3.0667257 1.1353461
-5.5127635 -3.0704575 1.1438408
-5.5236812 -3.0689514 1.1437356
-5.3545036 -2.9990153 1.1921895
-5.3452024 -2.995285 1.2092625
-5.335556 -3.0038698 1.2030927
-5.3396134 -3.0173464 1.2093447
-5.3280821 -3.0172675 1.2029397
-5.3208857 -3.0219676 1.1955516
-5.3146362 -3.0339808 1.2084507
-5.3232632 -3.0411296 1.1941658
-5.3174853 -3.0505016 1.2038746
-5.3032022 -3.0550914 1.2028086
-5.3090143 -3.0621536 1.205586
-5.3029122 -3.0641048 1.1995672
-5.299727 -3.0806108 1.1924317
-5.1170917 -2.9885576 1.2558316
-5.1139388 -3.0057909 1.2502162
-5.1171808 -3.0000601 1.2473508
-5.107801 -3.0123229 1.2599163
-5.1055121 -3.0174651 1.2527714
-5.0974984 -3.0210931 1.2636867
-5.0997658 -3.0347116 1.2574384
-5.1030893 -3.0384262 1.2515483
-5.0836253 -3.040333 1.2511213
-5.0901704 -3.0633593 1.2615967
-5.0838408 -3.0536747 1.2546998
-5.0706515 -3.0650272 1.2577348
-5.0630679 -3.0838218 1.2536596
-5.0783401 -3.0774465 1.2644752
-4.8973513 -2.9929562 1.3138462
-4.8873229 -3.0044997 1.3101807
-4.8863697 -3.0025504 1.3200321
-4.891655 -3.0081747 1.3132988
-4.8828206 -3.018595 1.3117824
-4.874404 -3.01983 1.3143576
-4.8755026 -3.0390151 1.3137292
-4.8634882 -3.0293012 1.3088541
-4.8684292 -3.036303 1.3122844
-4.8574362 -3.0428863 1.3091836
-4.855618 -3.0564857 1.3176148
-4.86097 -3.0642457 1.3213558
-4.8499775 -3.0752516 1.3138933
-4.8491244 -3.0757511 1.3076482
-4.8349953 -3.0916343 1.3178184
-4.680819 -2.9998765 1.3701339
-4.6657567 -2.9966807 1.3735375
-4.6713133 -3.0057175 1.3734733
-4.661736 -3.0039518 1.3732189
-4.6487198 -3.0154588 1.3731873
-4.6587949 -3.029423 1.3663564
-4.64043 -3.0330236 1.3785594
-4.6383147 -3.0299263 1.3665447
-4.6436529 -3.0502794 1.3608127
-4.6352272 -3.0408165 1.3659732
-4.636622 -3.0630536 1.3662095
-4.6222429 -3.0544159 1.3761799
-4.6244507 -3.0755317 1.3636463
-4.6267142 -3.0712759 1.3794049
-4.6092229 -3.0782185 1.3701774
-4.6117544 -3.0794597 1.3735007
-4.6011076 -3.0865688 1.3797324
-4.4391952 -2.9885476 1.432115
-4.4484921 -3.0071507 1.4340912
-4.4435124 -3.0015886 1.4320216
-4.4333634 -3.0216906 1.4342
-4.4229693 -3.0116918 1.4314954
-4.4225965 -3.0281885 1.4341484
-4.4147482 -3.031245 1.4275244
-4.4111328 -3.0411155 1.4204195
-4.4167366 -3.037832 1.4185282
-4.3990083 -3.0482249 1.4359771
-4.3950396 -3.0600917 1.4306331
-4.3952298 -3.0654466 1.4329011
-4.393436 -3.0700219 1.4269407
-4.3937025 -3.0686569 1.4270816
-4.3917823 -3.0811157 1.4234188
-4.3725581 -3.0774271 1.429451
-4.3706722 -3.0901256 1.4186122
-4.375402 -3.1034517 1.4240826
-4.2109203 -2.9954133 1.4755609
-4.2047844 -3.0049093 1.4862635
-4.2011919 -3.0147059 1.4912615
-4.2029347 -3.008971 1.4770603
-4.2024016 -3.0257285 1.4844338
-4.1878204 -3.0270479 1.4793161
-4.1930904 -3.0307505 1.4878777
-4.1820149 -3.0395415 1.4862596
-4.1848989 -3.0307672 1.4780691
-4.1786137 -3.0510521 1.4826721
-4.1668496 -3.0475006 1.4902071
-4.1601501 -3.0620046 1.4741358
-4.1627393 -3.0571148 1.4741514
-4.1603227 -3.0781753 1.4857798
-4.1520987 -3.0829182 1.4865226
-4.1564937 -3.0773036 1.491812
-4.145998 -3.0811908 1.4792588
-4.1469326 -3.0982425 1.4837691
-4.129477 -3.1024265 1.4829017
-4.1202044 -3.1045816 1.4875919
-3.9731789 -3.0036962 1.53822
-3.9719133 -2.9957108 1.5436244
-3.9667113 -3.014596 1.5397428
-3.9614859 -3.0153534 1.5406191
-3.9646244 -3.0121846 1.5425652
-3.9470124 -3.0177157 1.5359322
-3.9441032 -3.0370646 1.5312123
-3.9337394 -3.0416696 1.5352352
-3.9388578 -3.0331488 1.5408622
-3.9248359 -3.0396926 1.5301164
-3.9261162 -3.0566981 1.530491
-3.9333107 -3.0566304 1.5444072
-3.9150934 -3.0555606 1.5449889
-3.9207499 -3.0734732 1.5303577
-3.9055226 -3.0787399 1.5444342
-3.9083414 -3.0706177 1.5385125
-4.0483079 -3.2027502 1.4822184
-4.0422983 -3.2100348 1.4833907
-4.0522575 -3.2066836 1.478599
-4.0365825 -3.2135644 1.4927723
-4.0316448 -3.2259867 1.4754434
-4.0263247 -3.2298727 1.4836794
-4.0270805 -3.2398183 1.4784765
-4.027247 -3.2397046 1.4808462
-4.022037 -3.2486558 1.4834286
-4.0227423 -3.2447255 1.4796064
-4.0093613 -3.2545466 1.488052
-3.9957166 -3.2628393 1.4748844
-4.0008917 -3.2655804 1.4907328
-3.9908504 -3.277143 1.4853593
-3.9866281 -3.2882729 1.4732158
-3.979727 -3.2785957 1.4828324
-3.9845822 -3.2941947 1.4881433
-3.9746323 -3.2944887 1.4792012
-3.9623051 -3.2941086 1.4869353
-3.9673874 -3.2989779 1.4842204
-3.9562845 -3.3150187 1.4772986
-3.9567282 -3.321974 1.4876925
-3.9503317 -3.3186719 1.4809468
-3.9480791 -3.3299043 1.4882337
-3.9511921 -3.3414974 1.4899796
-3.9464412 -3.3507805 1.4869853
-3.9320657 -3.3495173 1.4739679
-3.9323719 -3.342911 1.4862262
-3.9216123 -3.3485916 1.4844277
-3.923111 -3.3639767 1.4833164
-3.9073169 -3.3728886 1.491715
-3.918437 -3.3668816 1.4787017
-4.0442157 -3.5046608 1.4179775
-4.051497 -3.5195055 1.4281019
-4.0514832 -3.5221236 1.4321575
-4.0297155 -3.5246587 1.4324477
-4.0309348 -3.5374942 1.4195123
-4.0251632 -3.5353193 1.4186878
-4.0271258 -3.547076 1.417681
-4.0108786 -3.5450304 1.4267805
-4.0157351 -3.551897 1.432453
-4.0121851 -3.5545981 1.429611
-4.0016403 -3.5627391 1.4199989
-3.9952619 -3.5630665 1.4212097
-3.9987512 -3.5682929 1.4254633
-3.9781771 -3.5766723 1.4328355
-3.9773049 -3.5911992 1.4330192
-3.9693606 -3.5848908 1.4210178
-3.9622328 -3.585489 1.4228928
-3.976104 -3.5947921 1.4324398
-3.9608679 -3.6139116 1.4207394
-3.9599516 -3.6144488 1.4319504
-3.9618697 -3.609417 1.4206256
-3.953392 -3.6229901 1.4345719
-3.943696 -3.6250434 1.4288834
-3.9297385 -3.6315217 1.4204
-3.9284012 -3.6421344 1.4229672
-3.9268725 -3.6498172 1.4174134
-3.9173377 -3.6553943 1.4168247
-3.92592 -3.6598728 1.4324893
-3.9049478 -3.6541531 1.4345838
-4.0555277 -3.8038688 1.365133
-4.0348458 -3.8094444 1.3627999
-4.0254812 -3.8116031 1.3724219
-4.0221624 -3.809134 1.3655117
-4.0245237 -3.8177834 1.3776373
-4.0153613 -3.8301792 1.3646572
-4.0236235 -3.826138 1.369494
-4.0174313 -3.8376608 1.3742462
-4.0118203 -3.8428726 1.3800057
-3.9905372 -3.8522265 1.3769635
-3.9871514 -3.8574228 1.3609833
-3.9966581 -3.8672504 1.3650867
-3.9884903 -3.8730345 1.3726833
-3.9706929 -3.8808286 1.3683933
-3.9797976 -3.8763208 1.3610908
-3.956769 -3.8879948 1.3670218
-3.966713 -3.8932836 1.3626162
-3.9518123 -3.8977406 1.3723023
-3.9521515 -3.9019547 1.3623836
-3.9467237 -3.9102612 1.3687104
-3.9443305 -3.9005659 1.3754328
-3.9379096 -3.9057686 1.3779119
-3.9273775 -3.9282029 1.360184
-3.9292414 -3.9182467 1.3602313
-3.9153874 -3.9228098 1.3703481
-3.9088285 -3.9297671 1.3743451
-4.0313325 -4.0883946 1.3220495
-4.0430422 -4.0814519 1.3073864
-4.0250583 -4.0802937 1.3140405
-4.0169849 -4.0991611 1.3179119
-4.0225768 -4.1010957 1.3169947
-4.0014386 -4.102078 1.3163831
-3.9978135 -4.1180043 1.3188382
-3.9919083 -4.1212788 1.3167428
-3.9859481 -4.1161904 1.3155695
-3.9898634 -4.1300426 1.3129169
-3.9897738 -4.1369038 1.3134028
-3.9854217 -4.1411791 1.3064823
-3.9757247 -4.1531835 1.3063629
-3.9593658 -4.1428351 1.3130109
-3.9591281 -4.1638074 1.3233513
-3.9597998 -4.1693773 1.3183281
-3.9410753 -4.1770663 1.3229891
-3.939888 -4.1646023 1.3099786
-3.9407883 -4.1719379 1.3076509
-3.9228542 -4.1889563 1.3170578
-3.9275651 -4.1916599 1.3051823
-3.9117825 -4.1957946 1.3146014
-3.9029126 -4.1960235 1.3175787
-3.9141548 -4.2056923 1.3164586
-3.8987408 -4.2209296 1.3199126
-3.8929791 -4.2226524 1.3233343
-3.8922329 -4.2314725 1.3045971
-3.8868182 -4.2249346 1.3038456
-3.8744063 -4.2251344 1.3212724
-3.8643146 -4.2332449 1.3071864
-3.8648083 -4.2519188 1.3158935
-3.8571701 -4.2406707 1.3059552
-3.860105 -4.2464204 1.3212688
-3.8400552 -4.2692871 1.3123865
-3.8411181 -4.2626233 1.3137314
-3.8387196 -4.2760887 1.3188096
-3.8328917 -4.2747064 1.3205156
-3.8257935 -4.2738147 1.3141992
-3.8194394 -4.2864251 1.3131144
-3.8156512 -4.2948642 1.3093423
-3.8059413 -4.2897263 1.3123109
-3.8075171 -4.3028855 1.3119347
-3.7990236 -4.304924 1.3112072
-3.7952092 -4.3128638 1.3130026
-3.7802696 -4.3278255 1.3068433
-3.7839777 -4.3263545 1.3125921
-3.7626002 -4.3250294 1.3050885
-3.7595093 -4.342587 1.3038329
-3.7627275 -4.3397794 1.3153154
-3.7470231 -4.3391795 1.3036983
-3.7350836 -4.3548737 1.322551
-3.7401681 -4.3581543 1.313567
-3.7256215 -4.3589597 1.3078594
-3.7317951 -4.3619761 1.3195182
-3.716166 -4.3760867 1.3215134
-3.7066891 -4.3799458 1.3102689
-3.7114558 -4.3884749 1.3056304
-3.7037191 -4.3799686 1.3087066
-3.6972308 -4.4007435 1.3198544
-3.6992528 -4.3918839 1.3168575
-3.6928844 -4.3971615 1.3234135
-3.6676564 -4.4136086 1.3119277
-3.6714048 -4.4216008 1.3048666
-3.6608541 -4.4218659 1.3200101
-3.658637 -4.4326086 1.3062563
-3.6544178 -4.4199877 1.3138479
-3.6414359 -4.4382544 1.3181059
-3.6330853 -4.4349127 1.3160574
-3.6416516 -4.4512181 1.318413
-3.6190629 -4.4556885 1.3147986
-3.6194642 -4.45994 1.3110676
-3.613302 -4.4651203 1.3160427
-3.6186187 -4.4602137 1.3181697
-3.6109898 -4.4709272 1.3051674
-3.5882101 -4.4656024 1.3065497
-3.5991771 -4.4822445 1.3056713
-3.5825455 -4.4920969 1.3116357
-3.5816488 -4.4997988 1.3060429
-3.5627937 -4.502274 1.309237
-3.5615759 -4.5083747 1.3130448
-3.5639658 -4.5010977 1.3176762
-3.5500796 -4.5138869 1.3221934
-3.5512114 -4.5182285 1.3166749
-3.5302091 -4.521183 1.3054917
-3.5422022 -4.5276074 1.3046733
-3.5328064 -4.5312552 1.3122448
-3.5242817 -4.5445352 1.3149862
-3.5097859 -4.5431886 1.3150398
-3.5008762 -4.5492644 1.3176231
-3.5087655 -4.5404067 1.3191022
-3.4928398 -4.5602307 1.3128458
-3.4922762 -4.5524664 1.3187789
-3.4871886 -4.5721388 1.3053404
-3.4676125 -4.5771217 1.3139086
-3.479213 -4.5804162 1.3210046
-3.4716249 -4.5806413 1.3093963
-3.4564586 -4.5786743 1.3094428
-3.4585443 -4.5885515 1.3157614
-3.4405694 -4.5958652 1.3209214
-3.4400046 -4.5974221 1.3198469
-3.4379539 -4.6094131 1.3038478
-3.422153 -4.6072083 1.3205034
-3.4204123 -4.6062894 1.3223674
-3.4121034 -4.612175 1.3041214
-3.4152195 -4.6160488 1.3074439
-3.3912332 -4.6187286 1.3153961
-3.3988483 -4.6326432 1.3101608
-3.3864105 -4.6350513 1.3198849
-3.3876472 -4.6458988 1.3071228
-3.3637176 -4.6426029 1.317623
-3.3608558 -4.6436844 1.3209414
-3.3539863 -4.6553998 1.3112659
-3.350455 -4.6518154 1.307301
-3.3450527 -4.6663704 1.322233
-3.3378901 -4.670496 1.3180649
-3.3273985 -4.6770968 1.3159817
-3.3289483 -4.6777806 1.3047395
-3.3157268 -4.6925015 1.315836
-3.3127747 -4.6949401 1.3208221
-3.302578 -4.6999369 1.3138326
-3.3018746 -4.6885662 1.3104811
-3.2978466 -4.6968269 1.3201246
-3.2834876 -4.7080641 1.3180535
-3.273087 -4.7204132 1.3061197
-3.2677479 -4.7121201 1.3147429
-3.2665706 -4.7198629 1.3214394
-3.2674701 -4.7156887 1.3121166
-3.2596054 -4.724833 1.3127288
-3.240638 -4.7375722 1.3155488
-3.2366781 -4.7466674 1.3180093
-3.2397013 -4.7416191 1.3164686
-3.2260697 -4.739109 1.3112859
-3.2227883 -4.7488122 1.3194759
-3.2215717 -4.7546935 1.3199174
-3.2122824 -4.7618208 1.3132434
-3.1943638 -4.774363 1.3234088
-3.1897426 -4.7744026 1.3223215
-3.1944377 -4.7731819 1.3166534
-3.1785145 -4.7796044 1.3228008
-3.179765 -4.7886844 1.3043978
-3.1785488 -4.7874107 1.3155791
-3.1588671 -4.7991357 1.3137974
-3.164362 -4.7942147 1.30683
-3.1416607 -4.7947202 1.3184896
-3.1385114 -4.8125844 1.3075202
-3.1420305 -4.8191853 1.3084984
-3.1353776 -4.807826 1.3139172
-3.129806 -4.8278294 1.3050276
-3.1098967 -4.818583 1.3141769
-3.1038337 -4.8172669 1.3186988
-3.0961676 -4.8414211 1.308937
-3.0973141 -4.8325853 1.3118839
-3.0802364 -4.8359432 1.3041759
-3.0901198 -4.8433042 1.3203776
-3.0683379 -4.8542266 1.32312
-3.0775192 -4.8553853 1.3036577
-3.0657165 -4.8566136 1.3199414
-3.0484889 -4.8589997 1.3205991
-3.0401449 -4.8682117 1.314871
-3.0426455 -4.8781018 1.3148173
-3.0406184 -4.8670735 1.3149587
-3.0283473 -4.883945 1.3082752
-3.013123 -4.8904982 1.3225641
-3.0056012 -4.8937001 1.3138126
-3.0018716 -4.8818917 1.3184497
-2.9953938 -4.8860421 1.3062303
-2.9883723 -4.9051733 1.3170744
-2.9850614 -4.9138665 1.309815
-2.981087 -4.901011 1.3176171
-2.9628346 -4.9174571 1.3197925
-2.9646304 -4.918684 1.3172507
-2.9662788 -4.914453 1.3220823
-2.9546049 -4.9218168 1.3045957
-2.9486363 -4.9284835 1.3081329
-2.9314137 -4.938252 1.3076944
-2.9295478 -4.9283791 1.3073121
-2.9198959 -4.9383278 1.3119955
-2.9193943 -4.9518142 1.3121735
-2.906146 -4.9481802 1.3093847
-6.8680987 -2.9900279 0.86255789
-6.8652067 -3.0003016 0.85824537
-6.8499794 -3.0172474 0.85993451
-6.8479147 -3.0144897 0.86142534
-6.8363457 -3.0324297 0.85911173
-6.8405938 -3.0328531 0.85816061
-6.8450971 -3.0461385 0.85666478
-6.8287454 -3.0673785 0.86549574
-6.8296013 -3.0648363 0.85570955
-6.6469135 -3.0074086 0.91039062
-6.6386933 -3.0139418 0.92130929
-6.6411891 -3.0217736 0.91154456
-6.627984 -3.0185819 0.9144184
-6.6330771 -3.0375435 0.90962863
-6.6166663 -3.0491667 0.9164716
-6.6225562 -3.0492823 0.91245794
-6.6093841 -3.0581586 0.90471947
-6.4433951 -2.9938474 0.96044272
-6.4429755 -2.9955401 0.97311014
-6.4323297 -3.0140376 0.973593
-6.4221368 -3.0085154 0.97683501
-6.4210134 -3.0297017 0.9615317
-6.4096413 -3.0419095 0.97870052
-6.4153833 -3.0434492 0.96618235
-6.4059029 -3.0528302 0.97130966
-6.4095664 -3.072366 0.9655841
-6.3972311 -3.0630076 0.96023881
-6.2194715 -3.0027184 1.0224955
-6.2143903 -3.009491 1.016914
-6.2166295 -3.0098205 1.0218307
-6.2183738 -3.0241728 1.0212594
-6.1968637 -3.0416296 1.0284854
-6.2106447 -3.031955 1.0324816
-6.2072453 -3.0522757 1.0239099
-6.1963515 -3.0673809 1.0149233
-6.1803188 -3.0704281 1.015361
-6.1899991 -3.0654306 1.034111
-6.0130453 -2.9941852 1.0737125
-6.0010571 -3.0077593 1.0800949
-5.9946389 -3.0077834 1.0748422
-6.0032921 -3.0137749 1.0839257
-5.9925051 -3.0224917 1.0842351
-5.9944806 -3.0492373 1.0828956
-5.9924479 -3.0568423 1.0699064
-5.9789753 -3.0578256 1.0704764
-5.9744773 -3.0670593 1.0766582
-5.9695301 -3.0702691 1.0764902
-5.7950706 -2.9844661 1.1254193
-5.7870188 -2.9989707 1.1340283
-5.7925735 -3.0112684 1.131008
-5.7833695 -3.0164428 1.1303852
-5.7850709 -3.0350649 1.1294285
-5.7664518 -3.0399089 1.1301036
-5.7691607 -3.0469782 1.1315445
-5.7648473 -3.0448451 1.1403675
-5.759953 -3.0624957 1.128316
-5.7488656 -3.0594923 1.141408
-5.7579346 -3.0770853 1.1403157
-5.5838366 -2.9998729 1.1879685
-5.5706191 -3.0031297 1.1962737
-5.5804114 -3.0013983 1.1874957
-5.5708151 -3.0055954 1.1881808
-5.5621653 -3.0154116 1.1921012
-5.5528293 -3.032186 1.1970257
-5.5620413 -3.0289083 1.1921506
-5.5424194 -3.0450079 1.1976864
-5.5548382 -3.0543036 1.194281
-5.5341544 -3.056963 1.1813322
-5.5345521 -3.0592041 1.1826928
-5.5424328 -3.0724175 1.1885976
-5.3541713 -2.9858525 1.2391757
-5.3626342 -3.0074403 1.2381992
-5.3504019 -3.0046005 1.25519
-5.3542385 -3.0166581 1.2431839
-5.3531404 -3.022172 1.2422271
-5.3369069 -3.0323193 1.252936
-5.3351269 -3.0391514 1.2421091
-5.3367419 -3.0495765 1.2363764
-5.3312955 -3.0446868 1.2361504
-5.3244781 -3.0519762 1.2504525
-5.3117456 -3.0631397 1.2452841
-5.3235712 -3.0669551 1.2460233
-5.3163633 -3.0827374 1.2370919
-5.1460567 -2.989764 1.2987334
-5.1339788 -2.9964828 1.3071918
-5.1228471 -3.011199 1.2929749
-5.120997 -3.0083766 1.2993919
-5.1299634 -3.011421 1.3028437
-5.1246524 -3.0332806 1.2986393
-5.1195579 -3.0325954 1.2945936
-5.1001506 -3.0434604 1.3068265
-5.1059022 -3.0504441 1.3026801
-5.0909047 -3.0545235 1.3101815
-5.1048284 -3.0587072 1.3012784
-5.0922475 -3.0750015 1.2928425
-5.0911984 -3.0843635 1.2968709
-5.0843563 -3.0760839 1.2908963
-4.9069138 -2.9809597 1.3641928
-4.9103231 -3.0045543 1.3476454
-4.8979268 -3.0072935 1.35894
-4.9095669 -3.0148745 1.3465205
-4.8889642 -3.0124662 1.354262
-4.8924985 -3.0193293 1.3650632
-4.8885217 -3.0243952 1.3588136
-4.8934383 -3.0411689 1.3633966
-4.8867817 -3.0411925 1.3457388
-4.8760867 -3.0586824 1.3634754
-4.8713574 -3.0672221 1.3634152
-4.8684683 -3.0633595 1.346634
-4.8621173 -3.0712988 1.3539817
-4.8644624 -3.0750864 1.3606102
-4.8592172 -3.0824885 1.3565031
-4.846221 -3.097652 1.3523833
-4.6805167 -2.9894028 1.4051886
-4.683095 -2.9937632 1.4129115
-4.6810813 -3.0157225 1.4074434
-4.6767159 -3.0112524 1.4113119
-4.6746049 -3.0263274 1.4134611
-4.6725454 -3.0227978 1.4062874
-4.6672578 -3.0372112 1.4179828
-4.654613 -3.0382729 1.4126935
-4.6553311 -3.0584023 1.4067984
-4.6401467 -3.0498579 1.4125303
-4.6490736 -3.0618386 1.4096233
-4.6403327 -3.0605938 1.4089084
-4.6438599 -3.0815408 1.4127806
-4.6328459 -3.0823374 1.4076637
-4.6179547 -3.0852466 1.4140065
-4.6209049 -3.0903287 1.4104075
-4.4514785 -2.9871023 1.4740651
-4.4500394 -3.0025227 1.468031
-4.4538803 -3.0029211 1.4683787
-4.4436078 -3.0124047 1.4637755
-4.4475951 -3.0150933 1.4736907
-4.4344807 -3.0333288 1.4713436
-4.4220719 -3.0393877 1.4745368
-4.4257827 -3.0387385 1.4634144
-4.4146018 -3.0475125 1.475858
-4.4170694 -3.0435607 1.4696882
-4.4231272 -3.0540564 1.465945
-4.4006658 -3.0673046 1.4730158
-4.4042296 -3.0685945 1.4659165
-4.4074373 -3.0838211 1.4755561
-4.3952394 -3.0872524 1.4687235
-4.3931179 -3.0817955 1.4698663
-4.3933349 -3.0881653 1.4711548
-4.3903503 -3.1024897 1.4592915
-4.2216835 -2.9986472 1.5199938
-4.2175159 -2.9925525 1.5156881
-4.2195101 -2.9967856 1.5270674
-4.2052388 -3.0028355 1.5113738
-4.2038889 -3.0167367 1.5205592
-4.2096295 -3.018141 1.5206813
-4.2057228 -3.0316522 1.5235288
-4.1886401 -3.0273545 1.5179843
-4.1904068 -3.047595 1.5122148
-4.190877 -3.0491812 1.5182599
-4.1832018 -3.0432346 1.5230423
-4.1699634 -3.0573123 1.5198272
-4.1810222 -3.0575836 1.5182812
-4.1606936 -3.0677917 1.5165813
-4.1560507 -3.0808661 1.5268708
-4.1622138 -3.0839059 1.5216402
-4.1482468 -3.0872717 1.5287771
-4.1514244 -3.0977957 1.5260843
-4.1401381 -3.0943356 1.5290174
-4.1346135 -3.0956025 1.5162253
-3.9894071 -2.9978874 1.5703813
-3.9732003 -3.0065653 1.5811616
-3.9802008 -3.0105839 1.5775133
-3.9687395 -3.0185642 1.5694938
-3.9589703 -3.0261996 1.5742306
-3.9589038 -3.0243049 1.5817522
-3.9640601 -3.0327575 1.5717269
-3.9620719 -3.0287104 1.5769901
-3.9427688 -3.0377078 1.5715203
-3.9405248 -3.0455194 1.5705842
-3.9510651 -3.0460999 1.5775851
-3.9425888 -3.054667 1.5814823
-3.9433243 -3.0544357 1.5669289
-3.9277005 -3.0669522 1.5699575
-3.9200885 -3.073916 1.5709072
-3.9277322 -3.0850379 1.5793022
-3.9078465 -3.0855484 1.584789
-3.9179785 -3.0883105 1.5798618
-3.9028394 -3.0960171 1.5714697
-4.0636721 -3.225342 1.5256461
-4.0547566 -3.2300732 1.5199097
-4.0388322 -3.2305987 1.5111213
-4.0390029 -3.2361379 1.528073
-4.0337191 -3.2503393 1.5180111
-4.0253987 -3.2412221 1.5264823
-4.0361209 -3.2440498 1.5293226
-4.0184398 -3.2513006 1.5171373
-4.0152645 -3.2729998 1.5276687
-4.0170083 -3.2638841 1.5159664
-4.0071368 -3.2694235 1.520013
-4.0079336 -3.290554 1.524999
-3.9944594 -3.2802746 1.515124
-3.9897656 -3.2946882 1.5253679
-3.9881124 -3.288348 1.5270623
-3.9765134 -3.2982256 1.5235193
-3.9764352 -3.3033712 1.5227877
-3.9735088 -3.3153896 1.5204381
-3.9627602 -3.3287945 1.5220155
-3.9614725 -3.3285127 1.5183285
-3.9718792 -3.3229365 1.5147159
-3.9582314 -3.3427422 1.5155799
-3.9595902 -3.3336668 1.5123241
-3.9508162 -3.3444982 1.5202491
-3.9517903 -3.358285 1.5201023
-3.9310625 -3.3650887 1.5156592
-3.9338701 -3.3564386 1.5116456
-3.9374013 -3.3694942 1.5211817
-3.9232748 -3.3764408 1.5228753
-3.927563 -3.3867469 1.5304061
-3.9155304 -3.3921146 1.5290623
-3.9071031 -3.3884978 1.5134552
-4.0428205 -3.5171201 1.4573127
-4.0365934 -3.535639 1.4710152
-4.0424328 -3.539818 1.4564539
-4.0284119 -3.5479627 1.460605
-4.0388255 -3.5436158 1.4589161
-4.0332456 -3.5475092 1.4696747
-4.0181208 -3.5619924 1.4589835
-4.0212951 -3.5654881 1.4634764
-4.0169306 -3.5616829 1.4680847
-4.0139022 -3.5741897 1.4617866
-4.0064731 -3.5821443 1.4585464
-4.0000315 -3.5888028 1.4624531
-3.9998798 -3.5862398 1.4678398
-3.9942818 -3.5946023 1.4707341
-3.9845247 -3.5983336 1.4636203
-3.9764488 -3.6014471 1.4582512
-3.9776063 -3.6144066 1.4640303
-3.9694474 -3.6155186 1.471938
-3.9567878 -3.6172523 1.4692683
-3.9595122 -3.6209514 1.4597021
-3.9485271 -3.6422231 1.4677845
-3.9407744 -3.6420629 1.474805
-3.9491072 -3.6467683 1.4699779
-3.9320457 -3.6509008 1.4623705
-3.9320822 -3.6503091 1.4566071
-3.9192247 -3.666682 1.4732985
-3.9117286 -3.6692612 1.4625918
-3.9184458 -3.6687374 1.456327
-3.9172478 -3.6806183 1.4738756
-4.0385008 -3.8122718 1.4181185
-4.0293388 -3.8262379 1.4017692
-4.0320864 -3.837538 1.411106
-4.0278058 -3.8422656 1.4012558
-4.0283446 -3.8350339 1.4127849
-4.0164828 -3.8529484 1.4104102
-4.0103765 -3.843123 1.4171597
-4.0075712 -3.8509269 1.4068201
-3.9954646 -3.8705809 1.4024872
-3.989615 -3.8741772 1.4117491
-3.9862089 -3.8643858 1.4068029
-3.9834054 -3.8707726 1.413547
-3.9769433 -3.8852553 1.4146398
-3.9811366 -3.8808131 1.4166464
-3.9751723 -3.9022737 1.4115188
-3.9576712 -3.897244 1.414103
-3.9625371 -3.9114876 1.4121315
-3.9606459 -3.9083128 1.4079676
-3.9490864 -3.9184268 1.4097534
-3.9418521 -3.9280941 1.4135392
-3.9453483 -3.9197659 1.4127052
-3.9337828 -3.9340527 1.4110655
-3.9154656 -3.9473038 1.4205168
-3.916048 -3.9501824 1.4199761
-3.9146161 -3.9525385 1.4035335
-3.8983042 -3.9628429 1.4176711
-4.034307 -4.1004338 1.3479615
-4.0371757 -4.1048236 1.3621091
-4.0242009 -4.103126 1.3516705
-4.0294318 -4.1196747 1.357085
-4.010869 -4.1252069 1.3563401
-4.013133 -4.1246696 1.3468131
-3.9970284 -4.1313186 1.3495324
-3.9914646 -4.1440601 1.3548625
-3.9864337 -4.1408887 1.3633183
-3.9778378 -4.1469312 1.3469437
-3.9750965 -4.1596041 1.3554077
-3.9669099 -4.1608782 1.3651289
-3.9645681 -4.1749177 1.3621863
-3.9526572 -4.1799364 1.3483258
-3.9553242 -4.1721492 1.3545556
-3.9587283 -4.19239 1.3469374
-3.9516513 -4.1822982 1.3582773
-3.9418478 -4.1924219 1.3624737
-3.9267063 -4.2033029 1.3554322
-3.9231012 -4.2113833 1.3479302
-3.9158633 -4.2025256 1.3533298
-3.9201534 -4.2112918 1.3630215
-3.9147148 -4.2235355 1.3642317
-4.0426512 -4.3709188 1.2908258
-4.033803 -4.3657603 1.3058957
-4.0187173 -4.3698483 1.3062584
-4.0112419 -4.3927083 1.3022386
-4.0124187 -4.3916221 1.2936116
-4.0093913 -4.4012589 1.2996128
-3.9933975 -4.3931627 1.3030344
-3.9848979 -4.4037089 1.3008064
-3.9909911 -4.4044328 1.2952962
-3.9873846 -4.4256139 1.3030186
-3.9625602 -4.4301939 1.3100499
-3.955987 -4.4320335 1.3078806
-3.9543362 -4.4449034 1.3072568
-3.9523149 -4.4364214 1.3093972
-3.9543059 -4.4552479 1.2982398
-3.944916 -4.4571857 1.303053
-3.9295173 -4.4492774 1.3015609
-3.9306891 -4.4590244 1.2951127
-3.9140816 -4.4610267 1.2935221
-3.9229763 -4.4655933 1.2963235
-3.9041412 -4.4715137 1.3001091
-3.898267 -4.477047 1.3076104
-3.8945544 -4.4871225 1.3077887
-3.891458 -4.501379 1.3019874
-3.8862138 -4.5038352 1.3028892
-3.8721192 -4.503118 1.307374
-3.8732038 -4.513227 1.3052795
-3.855773 -4.5107403 1.2989416
-3.8647828 -4.5178857 1.2960958
-3.855376 -4.5201731 1.2941698
-3.8431599 -4.5298805 1.2918006
-3.8471508 -4.5399771 1.3093669
-3.8436327 -4.5526314 1.3023171
-3.8199291 -4.5484672 1.3064623
-3.8220191 -4.5453444 1.2935934
-3.8232 -4.55442 1.306875
-3.7998886 -4.5708814 1.2954723
-3.7986643 -4.57622 1.2919723
-3.8037703 -4.5768847 1.306734
-3.7917147 -4.5744658 1.3046062
-3.7815778 -4.5861616 1.2981601
-3.7738028 -4.5881867 1.3069983
-3.7684541 -4.5930395 1.3085538
-3.7701476 -4.6005425 1.2996361
-3.7476888 -4.6164961 1.2991952
-3.7580912 -4.6199994 1.2950233
-3.7352049 -4.6265664 1.2997262
-3.7437141 -4.6182928 1.3044175
-3.7357159 -4.6215158 1.2937623
-3.7329488 -4.6390815 1.2908356
-3.712302 -4.6329155 1.3015132
-3.7180941 -4.6453872 1.2954571
-3.7150409 -4.6589303 1.3098302
-3.6904249 -4.6605949 1.3019738
-3.6947193 -4.666235 1.3034281
-3.6794474 -4.6687202 1.3066347
-3.6883402 -4.6747689 1.3085203
-3.6725228 -4.6757836 1.3039172
-3.6720068 -4.6752639 1.3013192
-3.6621392 -4.6784487 1.3063751
-3.6551909 -4.6874657 1.3028071
-3.637558 -4.6887608 1.2919685
-3.6459739 -4.6934953 1.2927787
-3.6400099 -4.7001147 1.2971075
-3.6218948 -4.7175364 1.3009698
-3.6223187 -4.7262006 1.3075117
-3.6195288 -4.7302799 1.2931607
-3.614846 -4.725071 1.3029418
-3.5947595 -4.725883 1.2983798
-3.5972638 -4.7433705 1.2957612
-3.5947053 -4.7404604 1.3092449
-3.5757077 -4.7464757 1.3065436
-3.5675418 -4.7474718 1.3042082
-3.5585587 -4.7490759 1.3003449
-3.5652399 -4.7591443 1.3041427
-3.5480516 -4.7762222 1.3043494
-3.5443146 -4.7771044 1.3055407
-3.5349216 -4.7799034 1.2969958
-3.5357406 -4.7892241 1.2926844
-3.5211148 -4.787663 1.2959218
-3.5291007 -4.7901654 1.3070961
-3.523596 -4.8002982 1.297273
-3.5007856 -4.8089008 1.2914624
-3.500304 -4.8151627 1.309047
-3.4836786 -4.814755 1.3015531
-3.4832485 -4.8238158 1.3019615
-3.482605 -4.8158026 1.3064597
-3.4807634 -4.825067 1.2931203
-3.4674599 -4.8218269 1.2954131
-3.458461 -4.8306456 1.3042102
-3.446218 -4.8341413 1.295439
-3.4427941 -4.8388295 1.3014596
-3.4491863 -4.8474121 1.3037927
-3.4413824 -4.8622246 1.3047698
-3.4159875 -4.8671298 1.2910508
-3.4180794 -4.8583302 1.2931584
-3.4197564 -4.8756194 1.3081567
-3.3969285 -4.8778057 1.2987592
-3.4074335 -4.8734341 1.2974601
-3.3956389 -4.8868155 1.2921919
-3.3750405 -4.8947134 1.3082682
-3.3832068 -4.8859529 1.3044866
-3.365346 -4.8903575 1.2969435
-3.3651452 -4.8937373 1.2993994
-3.363961 -4.8985076 1.301752
-3.3564892 -4.9121628 1.2976967
-3.3469031 -4.9142942 1.3011353
-3.3423121 -4.920404 1.3071613
-3.3271122 -4.9238315 1.3023231
-3.313205 -4.9222832 1.3088576
-3.3245595 -4.9269629 1.2922392
-3.2998309 -4.946641 1.3091167
-3.2988777 -4.935297 1.3063158
-3.3054609 -4.9505987 1.3048514
-3.289582 -4.9515681 1.3033231
-3.2913439 -4.9519243 1.2928367
-3.2771549 -4.9695601 1.3049064
-3.2595208 -4.9694767 1.2955443
-3.2558541 -4.9810719 1.3074232
-3.2570195 -4.9856448 1.3055091
-3.2516441 -4.9884634 1.3035645
-3.2428806 -4.9934511 1.3065813
-6.8685832 -3.0017416 0.91867214
-6.8694472 -2.9969904 0.91631091
-6.869669 -3.0086377 0.922167
-6.8718886 -3.0262103 0.91870546
-6.8638859 -3.0409749 0.90792829
-6.8495221 -3.0380356 0.9211849
-6.8448944 -3.0610166 0.90938514
-6.8372617 -3.0731826 0.90743071
-6.6635094 -2.9964428 0.97308022
-6.6597948 -2.9987798 0.96918666
-6.6629715 -3.011596 0.97460264
-6.644196 -3.0294755 0.97438014
-6.647769 -3.0317895 0.97211462
-6.645473 -3.0405495 0.96187478
-6.6466255 -3.0455465 0.96646297
-6.6385422 -3.0604327 0.96357679
-6.6371894 -3.0749574 0.96729028
-6.4529624 -3.0048544 1.0221528
-6.4454513 -3.0019913 1.0305097
-6.4460187 -3.0196097 1.025847
-6.4304671 -3.0246136 1.0176796
-6.4294868 -3.0350645 1.0209384
-6.4287167 -3.033323 1.0311828
-6.4301991 -3.0535336 1.021961
-6.4219093 -3.0591571 1.01703
-6.4090185 -3.0609713 1.0264947
-6.2453756 -3.0022562 1.0844511
-6.2317491 -3.0014954 1.066765
-6.2369885 -3.0174229 1.0809621
-6.2338586 -3.0181293 1.066555
-6.2153797 -3.0275083 1.0761522
-6.2250557 -3.0401437 1.0843011
-6.2114606 -3.0562584 1.0831878
-6.2076092 -3.0581174 1.0708545
-6.2129674 -3.0559609 1.0818821
-6.2032442 -3.0652006 1.0800742
-6.031601 -3.0028436 1.1362311
-6.0282931 -2.9966936 1.1281326
-6.0226598 -3.0199907 1.132825
-6.0228176 -3.0243776 1.1255234
-6.0173707 -3.0345173 1.1375495
-6.0023146 -3.0385768 1.1256405
-5.9990983 -3.0532975 1.1263117
-5.9969835 -3.0484352 1.1338123
-5.9871898 -3.0532112 1.1321522
-5.9863572 -3.072557 1.1299291
-5.8160934 -2.988729 1.1865951
-5.8147521 -2.9938293 1.1840945
-5.8014979 -3.0175047 1.1867151
-5.8035402 -3.025558 1.1733611
-5.7928729 -3.0323963 1.1782737
-5.7901678 -3.0284224 1.1875271
-5.7793608 -3.0454874 1.1904541
-5.7878709 -3.0447047 1.1866322
-5.7688694 -3.0584071 1.1864166
-5.7715168 -3.0555675 1.1752319
-5.7763758 -3.0779936 1.1879672
-5.7582979 -3.0832689 1.1837277
-5.5929847 -2.9883571 1.237673
-5.594892 -3.0105984 1.2379384
-5.5901423 -3.0063968 1.2394732
-5.5804687 -3.023726 1.2330838
-5.581531 -3.0344951 1.2377256
-5.5796556 -3.038033 1.2312403
-5.5615911 -3.0468388 1.2391365
-5.5637312 -3.042573 1.2379506
-5.5570455 -3.0674584 1.2424105
-5.5576134 -3.0585694 1.2296615
-5.5424099 -3.0784066 1.2287494
-5.5469904 -3.0843492 1.2334133
-5.363121 -2.9957857 1.2838305
-5.3660116 -2.9955003 1.2909836
-5.3552809 -3.0205085 1.2951671
-5.3598976 -3.0278835 1.2836063
-5.3509893 -3.0214469 1.2910272
-5.3541746 -3.0414145 1.2904958
-5.3385353 -3.0389709 1.2928545
-5.3384256 -3.0413809 1.291872
-5.3310547 -3.0528839 1.2988162
-5.324585 -3.0732749 1.2875755
-5.3334413 -3.0622885 1.2986844
-5.3256102 -3.0783901 1.2975895
-5.3106155 -3.0879688 1.2989916
-5.1449866 -2.9893808 1.3342583
-5.1374841 -3.0028834 1.3497144
-5.1425505 -3.0038106 1.3526902
-5.1281385 -3.0133486 1.3455909
-5.1313581 -3.0270374 1.3435572
-5.1355495 -3.0376256 1.33749
-5.1327872 -3.0460255 1.3384954
-5.1212554 -3.0475733 1.3379445
-5.1186047 -3.0455923 1.3487436
-5.1170392 -3.0529289 1.3374094
-5.1140614 -3.0654001 1.3351004
-5.1095471 -3.0745664 1.3464899
-5.0895672 -3.0930068 1.3441473
-4.9219484 -2.9812458 1.3931966
-4.9262114 -2.9967093 1.4020002
-4.9124985 -3.0006022 1.407393
-4.9248433 -3.0059805 1.3915575
-4.9161735 -3.0240848 1.4013397
-4.9080448 -3.0238063 1.4002627
-4.9091072 -3.0262401 1.3990028
-4.9014945 -3.0299838 1.3924193
-4.8961806 -3.0535109 1.4038115
-4.8994684 -3.0613658 1.4038987
-4.8850889 -3.0505724 1.4028695
-4.875391 -3.0682297 1.3932706
-4.8768797 -3.0763719 1.4066669
-4.8729663 -3.0810659 1.4015669
-4.8648787 -3.0813065 1.4052386
-4.8669996 -3.0976443 1.3960592
-4.7078104 -2.99562 1.4450508
-4.6923943 -2.9936621 1.4434168
-4.6835518 -3.0106456 1.4451082
-4.6833086 -3.0151813 1.4457912
-4.6829686 -3.0296116 1.4441084
-4.6836491 -3.0386276 1.4516026
-4.6739192 -3.033426 1.4577833
-4.670784 -3.0486135 1.4460927
-4.6727395 -3.0400259 1.4609782
-4.6510139 -3.0578811 1.4463364
-4.6584592 -3.0632558 1.4568629
-4.6506438 -3.07741 1.4559193
-4.644453 -3.0669272 1.4445579
-4.6365623 -3.080415 1.4552209
-4.6479793 -3.0777864 1.4580079
-4.6410699 -3.1000705 1.4583271
-4.4666357 -2.9896047 1.5041306
-4.4661837 -3.0072925 1.5075426
-4.4574132 -3.0111957 1.5060726
-4.4537482 -3.0176427 1.513272
-4.4447169 -3.0158131 1.5016152
-4.4451499 -3.0304554 1.5023167
-4.4465184 -3.0232034 1.5000075
-4.439239 -3.032366 1.510711
-4.441288 -3.0372603 1.5105376
-4.4405417 -3.0395687 1.5145684
-4.4194674 -3.0517972 1.5082861
-4.426321 -3.067765 1.510569
-4.4097543 -3.0591629 1.5151955
-4.414649 -3.071105 1.4996164
-4.4123354 -3.0782335 1.5121022
-4.40167 -3.0900216 1.4961753
-4.410295 -3.0874133 1.5137237
-4.4012198 -3.1017694 1.5083271
-4.2441573 -2.9911785 1.5579885
-4.2246909 -2.9951315 1.5578067
-4.2211852 -3.0022802 1.5515962
-4.2239537 -3.0205617 1.5556116
-4.224431 -3.0265634 1.554417
-4.2202735 -3.0217557 1.5674621
-4.2116871 -3.038939 1.5595546
-4.2106061 -3.0297704 1.5660285
-4.2054443 -3.0335481 1.5612745
-4.2027259 -3.0525813 1.5683221
-4.1853957 -3.0561666 1.5608633
-4.1921363 -3.0644777 1.5553775
-4.1790504 -3.073483 1.568663
-4.1721668 -3.0694654 1.5495816
-4.1812601 -3.0701418 1.5504069
-4.1715393 -3.0908859 1.5619425
-4.1687655 -3.0872765 1.5621911
-4.1738911 -3.086828 1.5574993
-4.1525345 -3.1054671 1.5549144
-4.1559238 -3.1056457 1.559175
-3.9981492 -2.9971633 1.6194634
-4.0020952 -2.9950774 1.6035675
-3.991519 -3.0041883 1.604527
-3.9876494 -3.0107067 1.6153591
-3.9828537 -3.010617 1.6113635
-3.9772246 -3.0251138 1.6124668
-3.9800525 -3.021152 1.6030164
-3.9626236 -3.0266392 1.6198453
-3.9698792 -3.0351014 1.6038597
-3.9597118 -3.0512927 1.6135142
-3.945276 -3.0481651 1.6218671
-3.9442844 -3.0531778 1.6178973
-3.9391813 -3.0718164 1.6104021
-3.9331107 -3.0707958 1.6219683
-3.9362004 -3.0691967 1.619198
-3.9232779 -3.086194 1.6074986
-3.9292445 -3.0902524 1.6053232
-3.9246538 -3.0811229 1.6032166
-3.9232266 -3.1034977 1.618198
-3.9177773 -3.0999615 1.6225326
-3.9026659 -3.1062536 1.6155329
-3.8991938 -3.1158261 1.6090528
-4.0501695 -3.2448502 1.5557197
-4.0579786 -3.2520256 1.5626683
-4.0342145 -3.2465854 1.5567303
-4.0332122 -3.2525253 1.5593032
-4.0439014 -3.2687418 1.5633199
-4.0367584 -3.2646852 1.5619624
-4.0317144 -3.2635269 1.5637203
-4.0116806 -3.2812524 1.5544987
-4.0073047 -3.2882071 1.564463
-4.0099201 -3.2960382 1.5503268
-3.9990084 -3.2887154 1.5529077
-4.0076814 -3.2937338 1.5539831
-3.9893978 -3.2995272 1.566162
-3.9970443 -3.308866 1.5580581
-3.9821105 -3.3134496 1.5593888
-3.9831519 -3.3154533 1.5504202
-3.9855433 -3.3369837 1.5682479
-3.9661686 -3.3230593 1.5539818
-3.9760082 -3.3293457 1.5583861
-3.9558754 -3.3428423 1.5605782
-3.9698713 -3.3500297 1.5557055
-3.9612782 -3.3504999 1.5514203
-3.9516022 -3.3573048 1.5669413
-3.9497395 -3.3563824 1.5587162
-3.9359729 -3.3651597 1.5514942
-3.9408681 -3.3796201 1.5678486
-3.9347243 -3.3811207 1.568246
-3.9307449 -3.3879039 1.568135
-3.9210241 -3.3891912 1.5672981
-3.9268913 -3.3950183 1.5585184
-3.9105587 -3.3995216 1.568099
-3.899091 -3.4201198 1.5627502
-4.0568643 -3.5426142 1.5023903
-4.053968 -3.541275 1.5022211
-4.0392895 -3.5508802 1.4987957
-4.0318246 -3.5500991 1.5064248
-4.027998 -3.5679007 1.4980612
-4.0237656 -3.5664566 1.5084157
-4.0196366 -3.5800331 1.5029776
-4.0163364 -3.5842261 1.4972006
-4.0018082 -3.5968435 1.5124018
-3.9976916 -3.6027575 1.5124798
-3.9989161 -3.6062536 1.5024079
-3.986752 -3.6118112 1.499339
-3.9947495 -3.6076546 1.5123216
-3.9861646 -3.6210063 1.5117352
-3.9699428 -3.6155117 1.4989903
-3.9820769 -3.6307735 1.5133255
-3.9638486 -3.6269028 1.4997129
-3.9710505 -3.6447361 1.5075294
-3.9640219 -3.6530535 1.5083436
-3.9617841 -3.6422741 1.5088515
-3.939461 -3.6577468 1.5114642
-3.9472017 -3.6660912 1.5141135
-3.9380038 -3.6674762 1.5065062
-3.9358156 -3.6653275 1.511127
-3.934206 -3.6720159 1.506815
-3.9253337 -3.6759048 1.5128068
-3.9221187 -3.68664 1.5082279
-3.9125082 -3.6896594 1.5113672
-3.9150739 -3.6907399 1.5117334
-4.0365262 -3.8273211 1.4546759
-4.037569 -3.8342385 1.4614162
-4.0359912 -3.8540096 1.445335
-4.0317564 -3.8497033 1.4533846
-4.015121 -3.8683369 1.4490916
-4.0138569 -3.8704967 1.4436116
-4.0168972 -3.868928 1.4597368
-3.9939377 -3.8692951 1.450614
-3.9955492 -3.8852108 1.4439517
-3.9940135 -3.8888583 1.4416814
-3.9921041 -3.8994238 1.4609361
-3.9735036 -3.8963993 1.4589262
-3.9681554 -3.897172 1.442791
-3.9788802 -3.9190924 1.4566001
-3.9615481 -3.9097679 1.4574062
-3.9685011 -3.924578 1.4416753
-3.9609263 -3.9278345 1.4531288
-3.9572184 -3.9335458 1.449823
-3.942626 -3.9462905 1.456202
-3.9346879 -3.9429293 1.444526
-3.9290125 -3.9430959 1.4478695
-3.9240746 -3.9501076 1.4598151
-3.921139 -3.9572239 1.4565581
-3.9143312 -3.9605262 1.456943
-3.9137063 -3.9719646 1.4522069
-4.0472622 -4.1132679 1.4044671
-4.0413551 -4.1152334 1.3927506
-4.0239863 -4.1189828 1.4008546
-4.0299153 -4.1336389 1.4017378
-4.0094581 -4.1258636 1.3914986
-4.0206685 -4.1379275 1.4066012
-4.0085278 -4.1505761 1.4001929
-4.0044332 -4.1458187 1.3921614
-3.9835882 -4.1597915 1.4063129
-3.9823503 -4.1586843 1.3945037
-3.985841 -4.1616917 1.4042964
-3.9833231 -4.1845441 1.397774
-3.9725139 -4.1757879 1.3931446
-3.9735932 -4.1787295 1.3994938
-3.9537814 -4.1869898 1.3992443
-3.944201 -4.1922445 1.392549
-3.9395106 -4.2111497 1.3988154
-3.9412205 -4.2117605 1.3954408
-3.9309542 -4.2173333 1.4036878
-3.9265287 -4.2274837 1.3986276
-3.9139047 -4.2269478 1.3961377
-3.9114804 -4.2297249 1.3963649
-3.9155707 -4.227531 1.3909092
-4.0347948 -4.3739614 1.3343246
-4.0369525 -4.3849173 1.3487653
-4.0193515 -4.3921542 1.3434882
-4.0084376 -4.4005699 1.3448342
-4.01125 -4.3965721 1.35109
-3.9974289 -4.4081926 1.3372848
-3.995353 -4.4212799 1.338833
-3.9983296 -4.4276433 1.3464129
-3.9837883 -4.4374895 1.3367034
-3.9890118 -4.4373417 1.3346667
-3.9796834 -4.4318285 1.3533694
-3.9731915 -4.4346013 1.3467607
-3.952251 -4.4459095 1.3385512
-3.9565799 -4.4524484 1.3475535
-3.9395549 -4.4679508 1.3461725
-3.9362667 -4.4757924 1.3387811
-3.9267759 -4.4677258 1.3439043
-3.935729 -4.4688106 1.3482572
-3.9170947 -4.4815378 1.3483481
-3.9081621 -4.4856791 1.3341627
-3.9212587 -4.486691 1.3510575
-4.0219469 -4.6528816 1.2969975
-4.0227308 -4.6590581 1.2909197
-4.0117164 -4.6557851 1.2838441
-4.011692 -4.6617165 1.2867982
-4.0130405 -4.6705966 1.2874346
-4.0017729 -4.6762309 1.2816526
-3.9853742 -4.6770711 1.3002915
-3.9846148 -4.6855369 1.2917011
-3.9837565 -4.6913381 1.2844577
-3.9770761 -4.6965113 1.2816824
-3.9734929 -4.7023535 1.2836517
-3.9502215 -4.7154741 1.2850831
-3.9530206 -4.704082 1.295417
-3.9428871 -4.7191753 1.2854396
-3.9497919 -4.7221346 1.2921933
-3.9360528 -4.7203517 1.2989147
-3.9280879 -4.7287025 1.2903889
-3.9214764 -4.7428355 1.2989813
-3.9034476 -4.7426586 1.2873472
-3.9126546 -4.7423577 1.2961055
-3.9046292 -4.765038 1.2845777
-3.8946271 -4.771019 1.2854767
-3.8831859 -4.7663784 1.2833056
-3.8814032 -4.7781916 1.2915702
-3.86959 -4.783505 1.2823949
-3.8710158 -4.781682 1.280513
-3.8657129 -4.7785044 1.2957811
-3.8489277 -4.7953339 1.2824082
-3.8435428 -4.8007598 1.2946948
-3.8497846 -4.8020263 1.2927555
-3.8272605 -4.8019085 1.2936001
-3.8362567 -4.8184371 1.2939185
-3.8243465 -4.8301806 1.284323
-3.8146 -4.8268056 1.2883502
-3.7965813 -4.8382888 1.2924908
-3.8077304 -4.8378768 1.2838721
-3.8007541 -4.8388476 1.2838389
-3.7785022 -4.8497281 1.2923754
-3.7696159 -4.8619251 1.2808752
-3.7684355 -4.8670731 1.2934885
-3.7691872 -4.8564134 1.2915901
-3.7490869 -4.861474 1.2985244
-3.7486608 -4.8813558 1.2990669
-3.7378228 -4.8782301 1.2883271
-3.7429504 -4.883832 1.2914371
-3.7239299 -4.8873372 1.300283
-3.733521 -4.8906274 1.2934715
-3.7231379 -4.8984342 1.2810844
-3.704211 -4.9041305 1.2817954
-3.6967773 -4.9154296 1.2826444
-3.696723 -4.9142718 1.2994292
-3.6985595 -4.9198112 1.2964201
-3.6734548 -4.9317307 1.2987864
-3.6678004 -4.9396248 1.2895261
-3.6728785 -4.9394665 1.299902
-3.6548395 -4.9471149 1.2920014
-3.6479475 -4.9511895 1.2860299
-3.6478598 -4.9517226 1.2974612
-3.640152 -4.9601784 1.288396
-3.6317263 -4.9680567 1.2932216
-3.6224442 -4.9627442 1.2843862
-3.6163704 -4.9661393 1.2951821
-3.6132987 -4.9713082 1.2992206
-3.6078534 -4.9777074 1.2805169
-3.5916615 -4.9960775 1.2871138
-6.9019575 -2.9988098 0.96773881
-6.883173 -2.9994435 0.97678667
-6.8842454 -3.0053122 0.96609962
-6.8815002 -3.016052 0.95980376
-6.8843489 -3.0330462 0.97902751
-6.8623018 -3.0332122 0.960334
-6.8582039 -3.0557344 0.95925421
-6.8690705 -3.064749 0.96323586
-6.6925521 -2.9871242 1.0155439
-6.6822391 -3.006011 1.020332
-6.6749883 -3.0141726 1.025095
-6.6621151 -3.0277443 1.0188595
-6.6601806 -3.0265963 1.016385
-6.6689205 -3.0469244 1.0127941
-6.6639433 -3.0543356 1.0218267
-6.6597295 -3.0639479 1.0203052
-6.6541958 -3.073724 1.0258672
-6.4746037 -2.9974482 1.0643457
-6.4662557 -3.0060236 1.0787249
-6.4579182 -3.0084772 1.0835593
-6.4647803 -3.0278845 1.0695682
-6.4468665 -3.038636 1.0713356
-6.4551759 -3.0316839 1.0835754
-6.4459472 -3.0577149 1.0648056
-6.4402966 -3.0630255 1.067937
-6.4456005 -3.0683913 1.0707625
-6.2583222 -2.9891179 1.1254436
-6.2596774 -2.9928184 1.1321702
-6.2548728 -3.0123661 1.1193656
-6.2356772 -3.0277836 1.1331455
-6.2316346 -3.0342834 1.1165503
-6.2415714 -3.0271022 1.1182301
-6.2297282 -3.0524757 1.1358826
-6.2256331 -3.0528781 1.1165184
-6.2202959 -3.0519004 1.1208525
-6.2118149 -3.0605099 1.1288233
-6.047586 -2.9944179 1.1740071
-6.0340252 -2.9994416 1.1719069
-6.0337257 -3.0038645 1.179001
-6.0262194 -3.0133078 1.1794132
-6.0249214 -3.0229371 1.1820555
-6.0202069 -3.0267432 1.1806029
-6.0138006 -3.0429587 1.1824952
-6.0097303 -3.0593441 1.1726972
-6.005012 -3.0546687 1.172583
-5.9959483 -3.0658014 1.1725594
-5.9989023 -3.0699167 1.1815115
-5.8174191 -2.9962084 1.226218
-5.8097205 -3.0146222 1.2226111
-5.8149166 -3.0097468 1.2379961
-5.8196888 -3.0278022 1.232181
-5.8018074 -3.0253835 1.2309831
-5.8053675 -3.0408106 1.2219869
-5.807024 -3.0364313 1.2250167
-5.7984672 -3.0516098 1.2211272
-5.7900128 -3.0620117 1.2345042
-5.7815714 -3.0796664 1.2321596
-5.7841659 -3.0717211 1.2234547
-5.6041808 -2.9891956 1.2768087
-5.5981116 -3.0069189 1.290843
-5.5966468 -3.0136364 1.2749522
-5.600986 -3.0267055 1.2896042
-5.5865126 -3.0275788 1.2769474
-5.5810242 -3.0343645 1.2767822
-5.572495 -3.03686 1.2895448
-5.5678444 -3.0551796 1.2800059
-5.5698056 -3.0493472 1.2809066
-5.574101 -3.0704105 1.277841
-5.56709 -3.0659938 1.274303
-5.5590458 -3.0797043 1.2808802
-5.3883123 -3.0022376 1.3409041
-5.3822341 -3.0070119 1.3433547
-5.3814931 -3.0015414 1.3327531
-5.3733983 -3.0148222 1.3431811
-5.3654585 -3.0238247 1.3389229
-5.3647451 -3.0324385 1.3441482
-5.3535609 -3.047286 1.3430033
-5.361465 -3.0507123 1.3285866
-5.3524241 -3.0514221 1.3263719
-5.3469114 -3.0683923 1.3382261
-5.3348103 -3.0675888 1.3414011
-5.3350062 -3.0849023 1.3273338
-5.3327413 -3.085681 1.326263
-5.1741562 -3.0056167 1.3917625
-5.1521792 -2.9985712 1.3834426
-5.1544509 -3.0150502 1.3940176
-5.1514869 -3.0245926 1.3972472
-5.1496577 -3.0262978 1.3845471
-5.1422348 -3.0232313 1.3786277
-5.1370173 -3.0389314 1.3832226
-5.139935 -3.0468202 1.3960994
-5.139668 -3.0592053 1.3791354
-5.1334581 -3.0536361 1.3888592
-5.1283088 -3.0607138 1.389143
-5.1099815 -3.0700109 1.3836939
-5.1199636 -3.0857854 1.3889813
-5.0993609 -3.0828121 1.3919359
-4.9305348 -3.002027 1.4327203
-4.9395227 -2.9980338 1.4314381
-4.9344206 -3.0130689 1.4416478
-4.9247141 -3.0152786 1.4311546
-4.9221206 -3.0214875 1.4354564
-4.916482 -3.0257628 1.4325017
-4.9211102 -3.0291755 1.4496371
-4.9054441 -3.0385573 1.4446374
-4.9152184 -3.0422275 1.4310194
-4.8996949 -3.0496118 1.4475249
-4.9012079 -3.0574801 1.431751
-4.8942575 -3.0785327 1.4468781
-4.8885798 -3.0786889 1.4338716
-4.8926835 -3.093354 1.4455516
-4.88727 -3.0896509 1.4379128
-4.7146964 -3.0009019 1.4852138
-4.7080622 -3.0044398 1.483649
-4.7042832 -3.0165658 1.499575
-4.7054949 -3.0227296 1.4986969
-4.700315 -3.0176435 1.4972949
-4.6986203 -3.0383527 1.494879
-4.6926908 -3.0364041 1.4982588
-4.6916251 -3.0330799 1.4883246
-4.6835566 -3.0381701 1.4905618
-4.6837988 -3.0621684 1.4833325
-4.6716709 -3.0607727 1.4880346
-4.6645637 -3.0769374 1.49579
-4.6590123 -3.0735278 1.4980042
-4.657526 -3.0755432 1.5006338
-4.6569085 -3.0966015 1.4949229
-4.6576838 -3.1001971 1.4950701
-4.4803724 -2.9948506 1.5360584
-4.4803157 -2.999718 1.5545954
-4.4701843 -3.0007758 1.5545914
-4.477807 -3.0063448 1.5371329
-4.4726505 -3.0240636 1.5476078
-4.4627829 -3.0189619 1.5484493
-4.4651513 -3.0326049 1.5392262
-4.4452968 -3.0290666 1.5545073
-4.4428039 -3.0492246 1.5352436
-4.4460135 -3.0544813 1.5388919
-4.4490671 -3.0472522 1.5471348
-4.4434547 -3.064158 1.5367819
-4.4392967 -3.0751326 1.5516366
-4.4351339 -3.0779388 1.547182
-4.428421 -3.0798059 1.5512626
-4.4112244 -3.0960317 1.5466926
-4.413178 -3.0988607 1.5547216
-4.4043455 -3.1060793 1.552525
-4.2424765 -3.0038047 1.5887318
-4.2377648 -3.0000331 1.5935749
-4.2493973 -3.0035849 1.5918652
-4.2327781 -3.0058029 1.5994618
-4.2265038 -3.0081503 1.6022902
-4.2253666 -3.0306308 1.5885127
-4.2286754 -3.0307028 1.5990623
-4.2278953 -3.0378919 1.5995744
-4.2116776 -3.0313561 1.6034395
-4.2074223 -3.0403187 1.6062621
-4.2053552 -3.0494986 1.6062766
-4.1994042 -3.0581596 1.5960069
-4.188602 -3.0626531 1.5881231
-4.199501 -3.0747361 1.6039535
-4.1827955 -3.0847619 1.6033627
-4.1832533 -3.0778756 1.6062118
-4.1774802 -3.0785317 1.594903
-4.1811495 -3.1026499 1.6023138
-4.1642985 -3.0947998 1.6021628
-4.0088334 -2.9915547 1.6512771
-4.0054398 -3.0056911 1.6447707
-4.0020237 -2.9981511 1.6554883
-4.0088696 -3.004092 1.647591
-4.0035915 -3.0052235 1.6534833
-3.9824755 -3.0139487 1.6552163
-3.9819422 -3.0274394 1.6496964
-3.9785521 -3.0394731 1.6493748
-3.9864628 -3.0395 1.6507839
-3.9669552 -3.047008 1.6458856
-3.9675906 -3.0381322 1.6546711
-3.9714351 -3.05005 1.6549348
-3.9617782 -3.0627468 1.6483469
-3.961396 -3.0664921 1.641421
-3.9489031 -3.06917 1.6589603
-3.9505105 -3.0749497 1.6533654
-3.9503772 -3.0844226 1.6398648
-3.935756 -3.094739 1.6399097
-3.9414485 -3.097208 1.6455009
-3.9257245 -3.1044188 1.6491513
-3.934891 -3.0965221 1.6472389
-3.9152644 -3.116735 1.6589639
-3.9153662 -3.1115637 1.6435418
-3.9220483 -3.1102905 1.6499176
-3.9156489 -3.1208129 1.6591531
-4.0623221 -3.2579663 1.595809
-4.0437942 -3.2587724 1.6008487
-4.0387588 -3.2692683 1.6010911
-4.0336709 -3.2697754 1.604378
-4.0429835 -3.2788849 1.6059614
-4.0286379 -3.2814951 1.6009427
-4.0361972 -3.2888203 1.6012063
-4.032023 -3.2805972 1.5921303
-4.0232635 -3.3034132 1.5898105
-4.0081201 -3.3041942 1.6024452
-4.0037336 -3.3054013 1.6041251
-4.0103521 -3.312629 1.590674
-3.9919233 -3.3193779 1.5923954
-3.9932442 -3.3256032 1.5992718
-3.9912703 -3.3257139 1.6026943
-3.9877052 -3.3360591 1.589156
-3.989151 -3.3385515 1.5939355
-3.9703255 -3.3414662 1.5925746
-3.9805682 -3.360225 1.594028
-3.9731228 -3.3484523 1.6003238
-3.9730351 -3.3569124 1.5910298
-3.9512596 -3.3766186 1.6001188
-3.9629276 -3.3825312 1.5880631
-3.9528663 -3.3744075 1.5953798
-3.9359212 -3.3889606 1.5881773
-3.9355457 -3.3846076 1.5962143
-3.9287009 -3.3863664 1.587337
-3.9370687 -3.3939741 1.6011169
-3.92679 -3.3965061 1.6017032
