# .PCD v0.7 - Point Cloud Data file format
VERSION 0.7
FIELDS x y z
SIZE 4 4 4
TYPE F F F
COUNT 1 1 1
WIDTH 1542
HEIGHT 1
VIEWPOINT 0 0 0 1 0 0 0
POINTS 1542
DATA ascii
16.438236 0.46332091 0.67792666
16.446985 0.49248579 0.68051696
16.4429 0.51368225 0.68144912
16.433132 0.529347 0.68248683
16.435146 0.56658214 0.68813688
16.444023 0.59045595 0.69258338
16.427038 0.60204428 0.69521415
16.428596 0.63677174 0.67892313
16.433613 0.6610561 0.67748195
16.441664 0.67327487 0.67815042
16.438517 0.70441186 0.68255258
16.440016 0.72495228 0.69318014
16.424072 0.7420947 0.68206555
16.429031 0.77018988 0.68367815
16.434994 0.78104991 0.67958933
16.426577 0.82156998 0.67643875
16.422573 0.82592106 0.68194222
16.421167 0.85267758 0.67923993
16.423439 0.88532937 0.67788994
16.424238 0.90694249 0.68582803
16.425673 0.9263519 0.68197364
16.411478 0.94823593 0.67573154
16.427879 0.97518486 0.68370509
16.413134 0.98813069 0.67684859
8.0968447 -4.9807711 1.6643623
8.1054535 -4.9784369 1.6615618
8.1203661 -4.9535832 1.6564527
8.1279469 -4.9567313 1.6624479
8.1225204 -4.9362102 1.6728053
8.1288004 -4.9251685 1.6686144
8.1418076 -4.9183006 1.6683737
8.1373062 -4.9015613 1.6608082
8.1552811 -4.8921552 1.6747929
8.1646023 -4.8876419 1.6703913
8.1696739 -4.86762 1.6629871
8.1651592 -4.8659439 1.6666191
8.0076056 -4.7551031 1.6918039
8.0150089 -4.7250333 1.694517
8.0283909 -4.7272964 1.6864245
8.0321159 -4.7101717 1.6980368
8.0316343 -4.7069149 1.6851708
8.0508957 -4.6950197 1.6976888
8.0425758 -4.6719933 1.6882477
8.0482254 -4.6664743 1.6919448
8.069458 -4.6626964 1.6842792
8.0632706 -4.6502295 1.6868961
8.080699 -4.6318731 1.6877593
8.0752907 -4.6127372 1.6875175
8.0925789 -4.6068268 1.6938281
8.101759 -4.6037836 1.68607
8.1025362 -4.5877995 1.6903658
8.1104307 -4.5791149 1.6953447
8.1108284 -4.5652947 1.6921287
8.121768 -4.5523553 1.7032013
8.1363897 -4.5446973 1.6868125
8.1433296 -4.5297256 1.6916424
8.1328707 -4.523808 1.703571
8.14326 -4.5097666 1.7033685
8.1533909 -4.5048876 1.6978012
8.1498165 -4.4772644 1.683992
8.1584682 -4.4752841 1.6948735
8.1713991 -4.4718132 1.7031372
8.1692944 -4.4543333 1.693909
8.0100403 -4.3375826 1.7143068
8.0156279 -4.3275132 1.7230263
8.0248098 -4.3168445 1.7153792
8.0188074 -4.3029604 1.7223027
8.0247173 -4.3049974 1.7119117
8.0304089 -4.2831969 1.7150348
8.050518 -4.2712488 1.7144078
8.0568027 -4.2769108 1.7243786
8.0539522 -4.2558875 1.7264295
8.05935 -4.2431998 1.7145604
8.0755043 -4.2420645 1.7133304
8.084034 -4.2214074 1.7309955
8.0812674 -4.2176189 1.7281463
8.0908375 -4.2058682 1.72799
8.0873156 -4.1942272 1.7145975
8.0933876 -4.182898 1.7117972
8.1025658 -4.1574483 1.7297288
8.1111021 -4.1516871 1.7307736
8.1095924 -4.1347332 1.7216085
8.1301193 -4.1383224 1.7138896
8.1187601 -4.1116834 1.7160568
8.1261559 -4.1024246 1.7276226
8.1311998 -4.1018271 1.711711
8.1533794 -4.0775375 1.7162756
8.1553869 -4.082633 1.7211984
8.1639862 -4.0675039 1.7261597
8.1697693 -4.049027 1.7252716
8.1734676 -4.0478301 1.7188375
8.178195 -4.0339422 1.7180424
8.1737413 -4.0253119 1.7223344
8.1815529 -4.0138087 1.7219342
8.0136652 -3.9135733 1.7474597
8.0150557 -3.9013677 1.7542286
8.0205202 -3.8927035 1.7539315
8.0305328 -3.8677368 1.7571757
8.0254536 -3.8598607 1.7441776
8.0453196 -3.8518748 1.7582766
8.044281 -3.8458481 1.7421851
8.0567942 -3.8207355 1.7485867
8.0484953 -3.8257022 1.7522153
8.0644732 -3.8084671 1.755936
8.0600357 -3.8068633 1.7413839
8.0731001 -3.7893245 1.7478594
8.0729189 -3.7717628 1.7518132
8.0924244 -3.7696135 1.7495402
8.0951586 -3.7579539 1.7439425
8.084878 -3.7318223 1.7551219
8.1086817 -3.7321074 1.7411122
8.0963774 -3.7252429 1.7409915
8.1104593 -3.712024 1.7446728
8.1081543 -3.6881588 1.7543507
8.1295538 -3.6740475 1.7543864
8.1163855 -3.6721714 1.7407074
8.1296768 -3.6557615 1.7533293
8.1269064 -3.6451149 1.7568324
8.1418467 -3.6369874 1.7407197
8.1511736 -3.6243775 1.7594556
8.1516647 -3.6131856 1.7466162
8.1581297 -3.5995035 1.7493441
8.1644583 -3.5969296 1.753986
8.1744518 -3.5818353 1.7511811
8.1741076 -3.5705001 1.7511681
8.1737833 -3.557476 1.7417049
8.1797638 -3.5562873 1.7573181
8.1783504 -3.5429804 1.7522371
8.1804247 -3.5198286 1.7439355
8.0044765 -3.4341316 1.7848958
8.0090322 -3.4315593 1.7776791
8.0207329 -3.4075701 1.7727753
8.0351467 -3.4022849 1.7790693
8.0341864 -3.3920219 1.7690742
8.030405 -3.3871038 1.7790241
8.0465956 -3.3674946 1.770601
8.0533066 -3.3468733 1.7719624
8.0556164 -3.352618 1.7752194
8.0528278 -3.3412256 1.7702105
8.0617237 -3.3288093 1.7811759
8.0635557 -3.3166327 1.7835358
8.0781565 -3.2975354 1.7787006
8.0678377 -3.2887895 1.7679596
8.0837975 -3.285753 1.7762836
8.0897455 -3.2712309 1.7783215
8.0856285 -3.2652364 1.7687577
8.0930729 -3.2372324 1.7685975
8.101862 -3.231606 1.7714685
8.0938931 -3.213438 1.774501
8.1008987 -3.2110302 1.7787127
8.1188545 -3.1914291 1.7838573
8.119154 -3.1818511 1.7768492
8.114603 -3.1672003 1.7873303
8.1192951 -3.1611824 1.7695848
8.1322956 -3.1537926 1.7750916
8.1273174 -3.1350813 1.7753174
8.13276 -3.1334713 1.7722648
8.1380272 -3.1276014 1.7835503
8.1461487 -3.1142144 1.7817087
8.1572866 -3.0983193 1.7709737
8.1526213 -3.0889509 1.7685325
8.1530838 -3.0837493 1.7843554
8.166523 -3.0675495 1.7835094
8.1704264 -3.0510929 1.7773551
8.176569 -3.0460551 1.787258
8.1682034 -3.0303984 1.7845339
8.180047 -3.0136867 1.7720749
8.1888218 -2.9960802 1.7741354
8.1888666 -2.9947078 1.7782259
8.3730335 -3.0545597 1.7588418
8.3805637 -3.0351193 1.7454636
8.3856373 -3.0195243 1.745912
8.3865175 -3.0147827 1.7511791
8.3865347 -3.0104136 1.7415159
8.400382 -2.9841626 1.7454973
8.5906582 -3.0569844 1.7257299
8.5917444 -3.0354691 1.719276
8.6003542 -3.0293915 1.7190177
8.6110077 -3.0074663 1.7287151
8.6057348 -2.9915349 1.7151605
8.7960711 -3.0574908 1.7013515
8.8060999 -3.0371976 1.6994501
8.8165598 -3.0202515 1.6905903
8.8122702 -3.0074987 1.6943938
8.8182993 -3.0050936 1.6927365
8.8282938 -2.9831331 1.6930017
9.0140514 -3.0479307 1.6747918
9.0258856 -3.0245051 1.658676
9.0174427 -3.0146465 1.6724898
9.0186806 -3.0142648 1.6702329
9.0263462 -2.9947376 1.6751709
9.2161732 -3.0317211 1.6401209
9.2161856 -3.0199478 1.6377429
9.2273216 -3.0166914 1.6358314
9.2422419 -3.0116155 1.6440327
9.2354879 -2.9807379 1.6418962
9.4373922 -3.0367846 1.6182407
9.4407492 -3.0240171 1.6134458
9.4479713 -3.0039215 1.6059315
9.4489889 -3.0067999 1.6062155
9.6364813 -3.046119 1.5854305
9.6402264 -3.0275943 1.5853517
9.6369095 -3.0133021 1.5841825
9.6511965 -3.0121026 1.5733999
9.6435528 -3.0001922 1.5748179
9.8532543 -3.0378203 1.5462253
9.8517199 -3.0272732 1.55767
9.854517 -3.0176103 1.5487261
9.8525 -3.0049477 1.5467157
16.416891 -0.98811162 0.67941779
16.424641 -0.96424824 0.68032283
16.417992 -0.92606437 0.68410045
16.414724 -0.91303033 0.67567122
16.431501 -0.89364046 0.67881864
16.422752 -0.86428994 0.69496745
16.42993 -0.83392942 0.68361586
16.431368 -0.81003869 0.6870392
16.421173 -0.80143881 0.67602396
16.422884 -0.77047467 0.67571586
16.432726 -0.75730038 0.67685533
16.437738 -0.71773934 0.67894989
16.423624 -0.70615989 0.67631817
16.433256 -0.67914742 0.68380857
16.434425 -0.65662622 0.68777496
16.438711 -0.6440897 0.67817634
16.439114 -0.60557944 0.67602098
16.428133 -0.58680373 0.69483751
16.440542 -0.55936295 0.67933333
16.441906 -0.55132008 0.69187123
16.442928 -0.51451063 0.69465977
16.445059 -0.49373263 0.69408429
16.449251 -0.46808112 0.68216169
16.43078 -0.45377845 0.6943236
16.439768 -0.41925392 0.68607748
16.43269 -0.40136012 0.68743724
16.43598 -0.38394836 0.68437546
16.437084 -0.35837021 0.67715639
16.436972 -0.34120241 0.69444376
16.441324 -0.32346019 0.67683876
16.438181 -0.28545174 0.69310671
16.437796 -0.26603764 0.68721527
16.436802 -0.24312335 0.68403685
16.443855 -0.21934064 0.69222176
16.443037 -0.20719917 0.69199085
16.453941 -0.18273258 0.68671262
16.446173 -0.15553954 0.67590415
16.455309 -0.12777542 0.68773109
16.437197 -0.10062379 0.69378245
16.436338 -0.089588873 0.69463187
16.437843 -0.062132806 0.69054496
16.455584 -0.035467092 0.68292683
16.447401 -0.010167276 0.69527704
16.472559 0.0048898007 0.80864793
16.469313 0.035797548 0.81102914
16.465807 0.057332471 0.81492966
16.456987 0.070854314 0.80307567
16.457331 0.093301237 0.79603779
16.469467 0.11745409 0.81320339
16.467623 0.14060025 0.79845548
16.466595 0.16513464 0.80821496
16.461449 0.18732518 0.80169141
16.468653 0.22128037 0.79751885
16.468176 0.24382176 0.80240864
16.460852 0.26313418 0.81523418
16.455877 0.27898672 0.80662268
16.454773 0.30610105 0.80856109
16.461781 0.33366868 0.80997473
16.461718 0.35351655 0.81256962
16.45879 0.37169594 0.81533933
16.461082 0.40905622 0.79967231
16.453102 0.42151046 0.8032251
16.458565 0.44144043 0.79776269
16.459824 0.46119633 0.81187165
16.44594 0.49396476 0.80232352
16.464851 0.52212685 0.80565882
16.455118 0.5295831 0.81313992
16.44729 0.56447941 0.80522072
16.460844 0.57977802 0.8141821
16.456963 0.61264431 0.79835618
16.455818 0.62833041 0.79692465
16.458973 0.65659571 0.80498219
16.44565 0.67091674 0.81000531
16.446833 0.70712072 0.81182081
16.442091 0.73009753 0.80344218
16.447771 0.75267267 0.80026394
16.436752 0.76623446 0.80158126
16.453184 0.79272139 0.81483525
16.441664 0.81354696 0.80042922
16.439074 0.8313061 0.79593199
16.440624 0.86876839 0.80416459
16.440714 0.89026684 0.79770744
16.428825 0.89935422 0.80261743
16.441931 0.93056798 0.80077887
16.436819 0.95801717 0.79896599
16.443296 0.97215354 0.79677832
16.426563 0.99631226 0.80520415
8.1106367 -4.9793758 1.7273347
8.1103096 -4.9790273 1.7440149
8.1142387 -4.974546 1.7399473
8.1298361 -4.9525237 1.7295885
8.1341543 -4.9367132 1.7439718
8.1399364 -4.9407735 1.7289803
8.1497288 -4.9296346 1.7358363
8.1452341 -4.9133663 1.742512
8.1653404 -4.8953953 1.7427423
8.1669149 -4.8934693 1.742664
8.1744194 -4.8677883 1.7416828
8.0131273 -4.7678652 1.7562996
8.018611 -4.7527266 1.7575203
8.0200109 -4.7489209 1.7694346
8.0310373 -4.7277112 1.7658211
8.0364304 -4.7076178 1.7667993
8.0468168 -4.7046146 1.7675592
8.0440435 -4.6929736 1.7532196
8.0679302 -4.688077 1.7654746
8.072032 -4.6684399 1.7682688
8.0760393 -4.668118 1.7653484
8.0790501 -4.645638 1.7694154
8.0901022 -4.6443205 1.7574437
8.0823603 -4.628233 1.7580914
8.1065168 -4.6077342 1.7687532
8.1070442 -4.6084409 1.7683038
8.1085339 -4.5853443 1.759643
8.1107674 -4.5915885 1.7714002
8.1186457 -4.5804982 1.7568218
8.1387634 -4.5518432 1.7706386
8.1416588 -4.545701 1.7535269
8.1416187 -4.5430536 1.767635
8.1456299 -4.5158429 1.7517917
8.1576529 -4.5228477 1.7607579
8.1703081 -4.5121541 1.758936
8.1736088 -4.4873753 1.7651117
8.1764441 -4.4875331 1.7630788
8.1706028 -4.471868 1.7634876
8.0025444 -4.3596778 1.7902223
8.0137177 -4.3490334 1.7877218
8.018692 -4.341857 1.7800224
8.0265398 -4.3210683 1.7836206
8.0284786 -4.3226004 1.7830712
8.0345592 -4.2984257 1.7841496
8.0495911 -4.2878957 1.7845455
8.0627842 -4.2803488 1.7783352
8.0621386 -4.2762346 1.7805732
8.0594435 -4.2642145 1.7870739
8.0771418 -4.2525301 1.779312
8.0749998 -4.2357607 1.7910172
8.0903425 -4.2200894 1.7787135
8.0979691 -4.2226276 1.7960047
8.089179 -4.2092676 1.780561
8.099824 -4.1958523 1.7980814
8.1115303 -4.1734161 1.7949126
8.1236181 -4.1637802 1.7880628
8.109479 -4.1607695 1.7940911
8.1175623 -4.1464167 1.7808954
8.1321306 -4.1403127 1.788131
8.1389208 -4.122282 1.7808751
8.1374006 -4.1148252 1.7980213
8.1435614 -4.1056414 1.7813518
8.1469965 -4.0911322 1.7867565
8.1549721 -4.0718474 1.7942824
8.1604528 -4.0667086 1.7929425
8.1627493 -4.0553198 1.7899281
8.1781788 -4.0438914 1.7786058
8.1796217 -4.0301852 1.7903099
8.010066 -3.9400268 1.8233414
8.0253944 -3.9167743 1.816502
8.0134516 -3.9208004 1.8057686
8.0186386 -3.9044089 1.8128603
8.0271406 -3.8903084 1.8230939
8.0410318 -3.8739429 1.8212373
8.0424337 -3.8777919 1.8131368
8.0424795 -3.8650241 1.8050342
8.059495 -3.8424895 1.8169613
8.0651731 -3.8441598 1.8111879
8.0625401 -3.8232307 1.8164843
8.0663633 -3.8124666 1.8138591
8.0833311 -3.7991235 1.816026
8.089551 -3.7860548 1.823395
8.0828457 -3.7699306 1.8136674
8.086359 -3.7653461 1.8091005
8.0879993 -3.764775 1.8094724
8.1015244 -3.7495577 1.8113922
8.1069307 -3.7427087 1.8246192
8.104248 -3.7155497 1.8049411
8.1157761 -3.7163773 1.8149496
8.1325846 -3.6987183 1.8244724
8.1267529 -3.6894121 1.8160812
8.1230717 -3.6791921 1.8094937
8.1467438 -3.6609669 1.8077582
8.1406727 -3.6445026 1.819328
8.1500177 -3.6516562 1.8201816
8.1597204 -3.6305277 1.8049585
8.1513262 -3.6292202 1.8052828
8.1561422 -3.6158063 1.8214573
8.1612654 -3.5960598 1.805488
8.1763811 -3.5846839 1.8158544
8.1810036 -3.5643039 1.8241965
8.1772184 -3.552753 1.8114206
8.1868305 -3.5426621 1.8055248
8.0128345 -3.4648743 1.8512998
8.0121384 -3.4419799 1.8320034
8.0122805 -3.4344685 1.842469
8.0171843 -3.4204202 1.8428686
8.022397 -3.4066081 1.8453014
8.0437679 -3.4127102 1.8360932
8.0491533 -3.3887184 1.8468663
8.0448904 -3.3851094 1.8466176
8.048954 -3.370275 1.8465111
8.0602255 -3.3508022 1.8450799
8.0655861 -3.3484268 1.8511292
8.0701466 -3.331579 1.8488973
8.0753956 -3.3194051 1.8429947
8.0710945 -3.3071284 1.8399514
8.0871773 -3.2944245 1.8395245
8.0856771 -3.2851191 1.8417929
8.0949526 -3.2751811 1.8368443
8.094986 -3.2742445 1.8442888
8.0947542 -3.253967 1.8353457
8.0944004 -3.2471249 1.8346465
8.1126003 -3.2396138 1.8450871
8.1168327 -3.2322171 1.8411336
8.1188183 -3.2042315 1.8381054
8.1148853 -3.2051911 1.8360989
8.1278934 -3.1946969 1.8355349
8.1204576 -3.1703157 1.8330085
8.1352758 -3.1612558 1.8491455
8.1451292 -3.1567442 1.8349384
8.1424112 -3.1370296 1.8497213
8.1507339 -3.1422184 1.8400528
8.1583414 -3.1137416 1.8465956
8.156374 -3.1055503 1.849229
8.1504374 -3.0998764 1.8485353
8.1614561 -3.0826223 1.8355629
8.1704531 -3.0768316 1.8417599
8.1788702 -3.0629311 1.8410066
8.1847439 -3.0586524 1.8379757
8.1867399 -3.048944 1.8481126
8.1745129 -3.0263617 1.8466142
8.197052 -3.0198483 1.8485712
8.1899071 -3.0101035 1.8476424
8.1892891 -3.0066862 1.8435366
8.3974552 -3.061641 1.8071718
8.39884 -3.0415545 1.8232391
8.3872356 -3.0367839 1.8137107
8.4018126 -3.0278931 1.8066902
8.3956194 -2.9974084 1.8125499
8.4063787 -2.9891932 1.8167136
8.5939903 -3.0439835 1.7854904
8.6134481 -3.0336776 1.7959228
8.6148462 -3.0347335 1.7846779
8.6152992 -3.0206087 1.785422
8.6116295 -3.0086696 1.787868
8.6181364 -2.9996102 1.7787007
8.8079767 -3.0513649 1.7560396
8.8210793 -3.0275507 1.7571162
8.8271446 -3.0141447 1.7569597
8.8190527 -3.0141778 1.7532948
8.8351068 -2.9975131 1.7696393
9.0142107 -3.0493023 1.7377349
9.0160875 -3.0400198 1.7393314
9.026701 -3.0145094 1.7430447
9.0380421 -3.0168774 1.7266833
9.0318108 -2.9969299 1.7273617
9.2245655 -3.0409405 1.7026635
9.2331161 -3.0334926 1.7160453
9.2427254 -3.0242109 1.7105342
9.252161 -3.0072353 1.7126853
9.2379131 -2.9984021 1.6991906
9.4485922 -3.0434024 1.6786849
9.4453926 -3.0294881 1.6814359
9.4437704 -3.0091934 1.6771069
9.4458427 -3.0017743 1.6778134
9.6404753 -3.0447564 1.6593068
9.6469116 -3.0271001 1.6530813
9.6551895 -3.0251429 1.6614269
9.6568308 -3.0178084 1.6461718
9.6529427 -2.9852531 1.6550038
9.8605394 -3.0497935 1.6332159
9.8653507 -3.0175178 1.6211121
9.8561964 -3.0126877 1.6297531
9.8697739 -2.9937065 1.6255136
16.442743 -0.97103673 0.79992008
16.443937 -0.96277225 0.8016094
16.437197 -0.93553829 0.81062001
16.435797 -0.90909052 0.81181157
16.437948 -0.88464224 0.80676633
16.4349 -0.8588779 0.79719448
16.435511 -0.83360445 0.8105613
16.44599 -0.82434392 0.80406696
16.444654 -0.78751314 0.81064063
16.4366 -0.77151871 0.79688984
16.441605 -0.74898779 0.79610026
16.446936 -0.72662896 0.80064386
16.453926 -0.71234322 0.80948812
16.449894 -0.68075973 0.80184513
16.44702 -0.66829371 0.79571354
16.45907 -0.64011288 0.81240767
16.441517 -0.61252624 0.81143492
16.457296 -0.59563327 0.79678077
16.446552 -0.5612179 0.79601377
16.462347 -0.53596622 0.80829602
16.464361 -0.52678722 0.80016249
16.445553 -0.49332157 0.81143963
16.451256 -0.47388008 0.81405282
16.465771 -0.45945215 0.80529857
16.45261 -0.42884627 0.80605787
16.453287 -0.40710771 0.81204438
16.450626 -0.38380837 0.80266261
16.466959 -0.36558151 0.80721766
16.468607 -0.33892149 0.80323076
16.469456 -0.31725469 0.80153716
16.462555 -0.29433191 0.806063
16.467487 -0.27094278 0.80109394
16.463667 -0.24254377 0.81260484
16.462425 -0.22029063 0.81558114
16.452398 -0.1918264 0.80619991
16.463099 -0.18328275 0.815593
16.459753 -0.15796556 0.80532038
16.466993 -0.13684765 0.81030881
16.458757 -0.11458322 0.79899067
16.466503 -0.091939293 0.80637217
16.472523 -0.056633681 0.81370854
16.463036 -0.036799926 0.80146563
16.468546 -0.021160984 0.81465268
16.282791 0.015945179 0.95253462
16.282722 0.039411366 0.95049959
16.273239 0.053300869 0.9540379
16.273119 0.083600156 0.95992267
16.282694 0.10092741 0.94395429
16.277225 0.12983766 0.9472791
16.280407 0.14634395 0.9502762
16.270939 0.16875261 0.94560724
16.288774 0.20158948 0.95780015
16.274336 0.21988544 0.94266003
16.273052 0.23515129 0.95860523
16.284208 0.25036329 0.95529968
16.273298 0.27614024 0.94316691
16.285894 0.30187514 0.95861661
16.284342 0.33729535 0.94867706
16.26679 0.34738922 0.94493127
16.272533 0.3808386 0.95497561
16.28124 0.40502489 0.94471264
16.265247 0.42728448 0.94457096
16.281414 0.43537435 0.96000993
16.28241 0.46248159 0.94799989
16.27932 0.48107678 0.94848746
16.272892 0.50912493 0.95203799
16.2743 0.5301643 0.95861
16.271126 0.55007964 0.95788938
16.476276 0.57982695 0.91944128
16.459343 0.60915887 0.91684014
16.472422 0.62772018 0.93571454
16.475206 0.65084177 0.93413836
16.457817 0.67071652 0.91794282
16.455835 0.6922043 0.92614603
16.461809 0.73125023 0.93023688
16.468241 0.7445488 0.91966927
16.458189 0.75996703 0.9274354
16.454679 0.7929548 0.93241215
16.450415 0.81357235 0.91750818
16.452782 0.83807385 0.92895687
16.452513 0.85650367 0.91598862
16.451088 0.87859875 0.92316502
16.448055 0.90421736 0.92724049
16.448793 0.92879844 0.9298293
16.457703 0.96033186 0.92849106
16.450672 0.97930521 0.91747963
16.453041 0.98926896 0.91891623
8.1254826 -4.9876671 1.8060297
8.133235 -4.9777842 1.8127018
8.1408854 -4.9661112 1.7961426
8.134428 -4.9503136 1.809445
8.1421795 -4.9351549 1.8089266
8.1464138 -4.9212456 1.8080239
8.1611557 -4.9071236 1.7999172
8.1729107 -4.9117632 1.8132088
8.1813412 -4.8825545 1.8108835
8.0083342 -4.77631 1.8268212
8.0134144 -4.770689 1.8309894
8.0313473 -4.7642684 1.8337109
8.0359364 -4.737134 1.8367659
8.0439501 -4.7233772 1.8242698
8.0452509 -4.7287745 1.8355736
8.0460176 -4.7168264 1.8294182
8.0658665 -4.6970105 1.8260067
8.0575924 -4.6922965 1.8265679
8.0625944 -4.6859941 1.8249408
8.0852547 -4.6692505 1.8362864
8.0787287 -4.6540942 1.8220748
8.0963545 -4.6476574 1.8230959
8.0966864 -4.6232686 1.8200544
8.1000576 -4.6174865 1.8395633
8.1109171 -4.6170087 1.8224596
8.1130638 -4.602354 1.8260788
8.1290398 -4.5944242 1.8382802
8.1215887 -4.5813274 1.8239524
8.1346827 -4.5697708 1.824675
8.1461334 -4.5620809 1.8308797
8.1489143 -4.5474277 1.8209701
8.1574678 -4.5216446 1.8262173
8.1670265 -4.5220089 1.8245648
8.1735277 -4.5054665 1.8373967
8.1795216 -4.5045133 1.8393995
8.1883965 -4.4878454 1.8247414
8.0068827 -4.3862429 1.8517971
8.0114126 -4.3741107 1.8555069
8.0215998 -4.3552699 1.8594304
8.0324936 -4.3513474 1.8596928
8.0295763 -4.3309979 1.8632474
8.0367346 -4.3284326 1.8612161
8.0491238 -4.3026304 1.8474418
8.059845 -4.2966332 1.8588231
8.0633821 -4.2909322 1.8597617
8.0689068 -4.2826304 1.8459638
8.0797567 -4.2681098 1.8469799
8.0725384 -4.255168 1.8489488
8.0890141 -4.238133 1.8585708
8.0893965 -4.2362823 1.8609191
8.0900269 -4.2234116 1.8524126
8.0941954 -4.2094297 1.8552582
8.1163168 -4.1890907 1.8526844
8.1246481 -4.1840458 1.8648778
8.1243448 -4.1814642 1.8515341
8.1249647 -4.1593423 1.8552451
8.1317711 -4.1523385 1.8622221
8.1395769 -4.1385064 1.8508773
8.1493368 -4.1341362 1.8452958
8.1487026 -4.115304 1.8502849
8.1504002 -4.1017485 1.8568566
8.1635761 -4.0899138 1.8461131
8.1595812 -4.0818324 1.8644042
8.1729965 -4.0712776 1.8564271
8.1785898 -4.0668693 1.8597107
8.1908226 -4.0476675 1.8537868
8.0089188 -3.9594657 1.8886386
8.0116854 -3.9375069 1.8808677
8.0230913 -3.9315684 1.8861134
8.0289011 -3.9120283 1.8788294
8.0396843 -3.8965385 1.8737313
8.0370226 -3.893605 1.8890898
8.043602 -3.8803828 1.8811442
8.0484571 -3.8794456 1.8723593
8.06532 -3.8585997 1.8765813
8.0654497 -3.8511891 1.888595
8.0596409 -3.8335028 1.8893875
8.0635586 -3.8185637 1.8809618
8.079689 -3.8177168 1.8872895
8.0810499 -3.7965434 1.8819649
8.0951118 -3.7900546 1.8809302
8.0840588 -3.7916784 1.8716211
8.1083488 -3.7721589 1.8843188
8.1046772 -3.7532043 1.8867309
8.1122055 -3.7427924 1.8787582
8.1239395 -3.7376392 1.886958
8.1276722 -3.7236688 1.8815986
8.1321812 -3.7111385 1.8799251
8.1282482 -3.7078192 1.887838
8.1306267 -3.6884651 1.8856562
8.147666 -3.6803608 1.8786879
8.1436539 -3.6686039 1.8788127
8.1503172 -3.6578362 1.8871669
8.149662 -3.636003 1.8831779
8.1514034 -3.6318896 1.8782959
8.1651564 -3.6212738 1.8872547
8.1670933 -3.6121421 1.8788645
8.1836538 -3.6037018 1.8716776
8.1785259 -3.5843787 1.8764759
8.1812944 -3.5678451 1.8892868
8.1818657 -3.5594258 1.8788533
8.0135336 -3.4809413 1.9139302
8.0271187 -3.4603827 1.9033027
8.0290422 -3.4455848 1.9031382
8.0269613 -3.4341352 1.8957098
8.0399828 -3.4340069 1.9075128
8.0419474 -3.4169998 1.8970561
8.0355062 -3.4084735 1.9036413
8.0418634 -3.3901014 1.898144
8.0530024 -3.393971 1.8977677
8.0569363 -3.3822637 1.9143912
8.0704212 -3.3619478 1.8988588
8.0738583 -3.3528988 1.9127055
8.0666523 -3.3467624 1.910164
8.0792656 -3.3275278 1.9078791
8.0844345 -3.3200767 1.9145231
8.0813913 -3.3154504 1.9069678
8.0878754 -3.3020394 1.8967257
8.1009293 -3.2870302 1.9136358
8.10847 -3.2656245 1.8954502
8.0956182 -3.265012 1.8977391
8.0993748 -3.2556257 1.9091041
8.107583 -3.247498 1.8982719
8.109622 -3.2312567 1.9023235
8.1291037 -3.2070663 1.9143505
8.1262846 -3.2023549 1.9025629
8.1300936 -3.1853199 1.9041293
8.1263323 -3.1864176 1.907828
8.1323118 -3.1790631 1.8952508
8.1351862 -3.1687536 1.9127877
8.1398592 -3.1558657 1.8996391
8.1468048 -3.1437757 1.9045725
8.1651001 -3.128016 1.9063227
8.1525469 -3.1147399 1.9129974
8.1640301 -3.1064889 1.9125391
8.1675234 -3.0855482 1.9054625
8.1792135 -3.0852735 1.9040852
8.1724548 -3.0732203 1.9102679
8.1893778 -3.0596306 1.9124569
8.1937084 -3.0475943 1.9136006
8.1955595 -3.0352972 1.8962715
8.2042465 -3.0204504 1.8996656
8.1978512 -3.0116887 1.9074464
8.2131891 -2.9998446 1.8971241
8.4015312 -3.049022 1.8785582
8.4031487 -3.0506222 1.8746511
8.3976736 -3.0248489 1.8796214
8.4108057 -3.0301359 1.8852415
8.4101028 -3.002784 1.8730419
8.4115734 -2.9953709 1.8814631
8.6010799 -3.0569515 1.8456509
8.6064243 -3.0472295 1.8583676
8.6151466 -3.0281241 1.8484126
8.6116323 -3.0178854 1.8588629
8.6177797 -3.0098388 1.8568465
8.6304531 -2.9844422 1.8615187
8.826663 -3.053797 1.835138
8.8204575 -3.0289698 1.8368567
8.8198538 -3.0290642 1.8341985
8.827034 -3.0118909 1.8272187
8.842618 -2.9963064 1.8335098
9.0353909 -3.0433538 1.8124064
9.0330429 -3.0419488 1.8035041
9.0407228 -3.0282865 1.8128213
9.0388346 -3.0126896 1.7981598
9.0549126 -2.9886146 1.7968637
9.2439947 -3.0423694 1.774091
9.2435255 -3.0439193 1.7889501
9.2447567 -3.030308 1.7714043
9.2433119 -3.0137348 1.7787153
9.2548685 -3.0057788 1.7892884
9.4414806 -3.0382271 1.7590905
9.4433832 -3.0359309 1.7628106
9.4563656 -3.0101931 1.7475905
9.4586468 -3.0105634 1.7553591
9.4662476 -2.9990582 1.7545884
9.6617374 -3.0307701 1.7247343
9.6704254 -3.0271769 1.7255505
9.673954 -3.0065885 1.7270833
9.6799173 -2.9916635 1.7322884
9.8627071 -3.0480888 1.7074336
9.8665991 -3.0318942 1.7034113
9.8653831 -3.0180457 1.7085032
9.8878679 -2.9954457 1.7061449
16.440754 -0.97923595 0.92498004
16.450405 -0.96304339 0.91716927
16.456591 -0.94461292 0.91659683
16.452423 -0.90839463 0.92074567
16.450304 -0.88495988 0.9252767
16.448013 -0.86812121 0.92293698
16.449064 -0.84081209 0.92999107
16.456728 -0.82194942 0.91941071
16.457605 -0.79530466 0.92720777
16.451769 -0.78014964 0.92942649
16.458227 -0.75523043 0.92138082
16.468317 -0.72202539 0.92657453
16.470566 -0.7039687 0.92724371
16.47221 -0.69138211 0.92117423
16.45797 -0.66218472 0.93558079
16.468229 -0.63651693 0.92386556
16.476116 -0.61100531 0.91649729
16.471025 -0.59900302 0.92502779
16.475323 -0.5672673 0.9172377
16.269079 -0.5357933 0.94674474
16.263319 -0.50590056 0.95309329
16.269482 -0.48696318 0.94967681
16.280806 -0.46679208 0.94134551
16.272766 -0.44595975 0.94262791
16.278627 -0.42031735 0.9501335
16.278862 -0.40533391 0.96033138
16.267351 -0.38334915 0.95306402
16.268438 -0.34730914 0.95482105
16.278027 -0.32779419 0.94533455
16.279791 -0.31700736 0.9576574
16.285923 -0.29272994 0.95716846
16.27837 -0.26300761 0.95291144
16.287371 -0.24264671 0.94611895
16.288008 -0.21097809 0.9574514
16.269896 -0.19407131 0.95171791
16.279257 -0.17751983 0.95825863
16.278786 -0.15303893 0.94407415
16.271013 -0.12799694 0.94321895
16.284967 -0.11386336 0.95916724
16.289404 -0.078428365 0.94319022
16.286131 -0.057294168 0.94877785
16.282337 -0.044112265 0.94137448
16.274254 -0.022299198 0.95161819
16.293961 0.0028286916 1.0697787
16.29035 0.026544189 1.0631685
16.300974 0.059347443 1.0703948
16.298109 0.071436286 1.0793862
16.301025 0.095543325 1.0707037
16.303057 0.13342552 1.0734388
16.301003 0.15559633 1.0688924
16.30294 0.17437854 1.0627636
16.290436 0.18928322 1.0670999
16.290495 0.21605328 1.0705326
16.300766 0.22789617 1.0733613
16.290203 0.25614432 1.0771682
16.292997 0.27506414 1.0710412
16.282988 0.31119636 1.0742658
16.281937 0.33035648 1.0788605
16.292171 0.35168919 1.0786006
16.28511 0.37114277 1.0777749
16.29347 0.39274016 1.0729951
16.29567 0.42206892 1.0603839
16.282175 0.45172569 1.071807
16.29208 0.47195411 1.0723379
16.284782 0.48195201 1.078382
16.28126 0.5151093 1.0606116
16.291578 0.53865212 1.0762397
16.285089 0.56157178 1.0682946
16.283165 0.57518589 1.0789497
16.280949 0.60222948 1.0663263
16.277874 0.6181559 1.0725691
16.289988 0.63683653 1.0654101
16.289459 0.66260755 1.0651784
16.280321 0.69890165 1.0624461
16.271683 0.70854747 1.0669838
16.269056 0.73535192 1.0619518
16.268629 0.75318784 1.0777364
16.283798 0.78527993 1.0737158
16.270988 0.79622275 1.0605853
16.268805 0.82575637 1.0717754
16.273964 0.85305506 1.0761703
16.265335 0.87333894 1.0765253
16.467815 0.90480542 1.0562737
16.471718 0.93753719 1.0532566
16.472855 0.96259677 1.0371687
16.458498 0.98602831 1.0451699
16.459076 0.99006134 1.0482932
8.1272125 -4.9906945 1.8735809
8.1283073 -4.9749308 1.8754519
8.1381683 -4.9658294 1.8831035
8.1476402 -4.9597816 1.8826615
8.1515646 -4.9346757 1.8759689
8.1572523 -4.9248729 1.8782783
8.1728525 -4.9087911 1.8754181
8.1682549 -4.8995323 1.874859
8.0070076 -4.7942014 1.8980558
8.023118 -4.790935 1.8941766
8.0184813 -4.7708588 1.899801
8.0343342 -4.7566471 1.8898489
8.0320425 -4.7395167 1.8976487
8.0373869 -4.7398424 1.9001373
8.062273 -4.7231536 1.8963628
8.0604515 -4.7076735 1.8910124
8.0609236 -4.7034721 1.8903558
8.0785198 -4.690732 1.90756
8.0755415 -4.6758032 1.8964933
8.0920858 -4.6714535 1.8975137
8.0847349 -4.6584144 1.9074221
8.1029921 -4.6561804 1.9003446
8.1112823 -4.6428804 1.8991899
8.1073561 -4.6308627 1.9064934
8.1259022 -4.6205697 1.8992599
8.1206589 -4.5986938 1.8962718
8.1300488 -4.5829258 1.9062412
8.1387663 -4.5761261 1.8976974
8.1446724 -4.5588531 1.8928202
8.1594963 -4.551569 1.9010208
8.155324 -4.5381532 1.8909799
8.1610451 -4.5329804 1.8918831
8.1796722 -4.5260038 1.8947878
8.1771288 -4.5094233 1.898402
8.1818724 -4.5007496 1.9009922
8.005353 -4.3880544 1.9177907
8.0197105 -4.3883386 1.9153638
8.0240211 -4.3663116 1.928393
8.039773 -4.3647695 1.9273422
8.0306311 -4.3547797 1.9222137
8.049675 -4.3353205 1.9191304
8.0586624 -4.3164845 1.9298402
8.0485373 -4.3053489 1.9161383
8.0613003 -4.3030686 1.9276198
8.0776625 -4.28234 1.9163686
8.0765991 -4.2703962 1.930694
8.0886602 -4.270226 1.9135548
8.0782785 -4.2518597 1.9272532
8.1009102 -4.2438412 1.931296
8.1024752 -4.2310476 1.9141226
8.098896 -4.2252784 1.9251934
8.1122179 -4.2165747 1.9238771
8.1162338 -4.2040329 1.9224648
8.1265316 -4.1847491 1.9120928
8.1282959 -4.1751084 1.931201
8.138793 -4.1725211 1.9309961
8.1435986 -4.1638465 1.9196962
8.1512499 -4.1515126 1.9154892
8.1525841 -4.142489 1.9280188
8.1579447 -4.1178274 1.9220519
8.1661167 -4.1026564 1.9305557
8.1653433 -4.1000581 1.9164565
8.1832371 -4.0793242 1.923584
8.1797028 -4.0741558 1.9186723
8.1857815 -4.0730715 1.91207
8.0130825 -3.9589894 1.9403743
8.0179081 -3.9544988 1.9423466
8.0314198 -3.9481578 1.9452975
8.0207071 -3.9262679 1.9459077
8.04251 -3.9247861 1.9398078
8.0383291 -3.9008861 1.9374992
8.0426369 -3.903497 1.9464004
8.0528297 -3.893935 1.9446398
8.0501347 -3.8736124 1.9366436
8.0625114 -3.8729017 1.9383198
8.0682707 -3.8526943 1.9543248
8.07866 -3.833195 1.9436409
8.0710068 -3.8257041 1.9481109
8.0862875 -3.8144286 1.9432762
8.0821638 -3.8068388 1.9487205
8.0919237 -3.7889013 1.9468546
8.0993586 -3.7921131 1.9511602
8.1156797 -3.7705727 1.9538022
8.1102247 -3.757153 1.9455338
8.1167574 -3.7567656 1.9467356
8.1249504 -3.7360127 1.9368967
8.1291332 -3.7302487 1.9553012
8.1226158 -3.7175012 1.9499333
8.1405525 -3.7148194 1.9445704
8.1336384 -3.7015929 1.9355192
8.152153 -3.6839218 1.9531198
8.1487856 -3.664115 1.9362158
8.1497087 -3.6532707 1.9495516
8.1732569 -3.6531498 1.9449992
8.1685219 -3.6317487 1.9495193
8.1649723 -3.6273911 1.9434695
8.171567 -3.6240718 1.9518541
8.1765518 -3.6124749 1.9416491
8.1961517 -3.5881302 1.9427814
8.0085125 -3.4960799 1.9694471
8.0135555 -3.4907196 1.9787668
8.0161829 -3.4738681 1.9765273
8.0218916 -3.4612203 1.9737589
8.0409203 -3.4501336 1.959731
8.0353804 -3.4488769 1.9757167
8.0343456 -3.4362481 1.9646655
8.047245 -3.4220865 1.9655319
8.0485134 -3.4079874 1.9665865
8.0595617 -3.3993187 1.9605697
8.0517254 -3.3814433 1.9753876
8.0668821 -3.3834124 1.9643899
8.0713415 -3.3676255 1.9590611
8.0735464 -3.3509867 1.9751908
8.0729675 -3.3401601 1.9712108
8.0783443 -3.3396981 1.9772847
8.0796909 -3.3250809 1.9647775
8.0899706 -3.3023579 1.9752156
8.1011019 -3.3031447 1.9685296
8.0932713 -3.2776463 1.9592826
8.0994081 -3.2847307 1.9766747
8.120347 -3.26139 1.9608544
8.1102724 -3.2583053 1.9695715
8.1148539 -3.2377155 1.9636711
8.1155481 -3.2223895 1.9773345
8.132247 -3.2263548 1.9601905
8.135004 -3.2136261 1.966388
8.1452389 -3.1952543 1.9640262
8.145895 -3.1903734 1.9695886
8.1398487 -3.1779284 1.969354
8.1445408 -3.1639364 1.9707336
8.1466084 -3.1535795 1.9641455
8.1528397 -3.1378551 1.9693279
8.1677732 -3.1220922 1.9637791
8.1767893 -3.1101613 1.9622291
8.1794538 -3.1060424 1.9653803
8.1849575 -3.1036618 1.9699205
8.1766434 -3.0755262 1.9614862
8.1859512 -3.071198 1.9665806
8.2008057 -3.0573628 1.9727614
8.1954098 -3.043268 1.9615693
8.1913776 -3.0315213 1.9693635
8.2007408 -3.0179431 1.9615048
8.215271 -3.0138164 1.9780257
8.204236 -3.0050414 1.9750881
8.2116346 -2.9979548 1.9648739
8.4087763 -3.057657 1.9419805
8.4039297 -3.0417771 1.9394734
8.4106321 -3.0208941 1.949881
8.4224129 -3.0094452 1.9427041
8.4203577 -3.0076654 1.9381963
8.614171 -3.0608268 1.9303452
8.6287775 -3.0419524 1.9282932
8.61551 -3.0327728 1.9189245
8.6187458 -3.0188372 1.9268816
8.6390266 -3.0016954 1.9304699
8.629077 -2.9981961 1.9308513
8.8275042 -3.0488818 1.8917267
8.8358698 -3.0317597 1.9054103
8.8346252 -3.0270798 1.8988032
8.8461866 -3.0086615 1.902231
8.8532228 -3.0076969 1.9073981
9.0441284 -3.0601628 1.8757631
9.0449743 -3.046113 1.8649417
9.0364351 -3.0330603 1.8760258
9.0558338 -3.0039425 1.8722159
9.0588045 -3.0089738 1.8798633
9.2506571 -3.0498457 1.8462013
9.2585945 -3.0438888 1.8410043
9.2601976 -3.0234153 1.8481654
9.2551746 -3.0156024 1.8414173
9.2735624 -3.0049577 1.8433006
9.4660492 -3.0568125 1.8204914
9.4616766 -3.0306778 1.8227828
9.4664631 -3.0173244 1.8255129
9.4623165 -3.0087955 1.8247412
9.4743404 -3.001503 1.8263128
9.6633663 -3.0348835 1.8131793
9.6730814 -3.024502 1.7967606
9.6775799 -3.016758 1.8079088
9.6892214 -2.9982581 1.7939577
9.8837996 -3.0443351 1.7740747
9.8706198 -3.0320365 1.77421
9.8782711 -3.0083644 1.7872864
9.8881931 -3.0041394 1.7805163
9.9008265 -2.9882782 1.7890694
16.458214 -0.97763401 1.0527991
16.465118 -0.95879 1.0375056
16.464743 -0.94039524 1.0534844
16.477262 -0.90679204 1.0421004
16.464832 -0.89677995 1.0539128
16.266287 -0.85838473 1.0715797
16.274851 -0.82466745 1.0618236
16.274021 -0.81520009 1.0720953
16.270233 -0.79302591 1.0798407
16.284512 -0.76097536 1.0628768
16.279736 -0.73361498 1.0773234
16.27722 -0.72071815 1.0676402
16.279381 -0.68953347 1.0733759
16.277487 -0.66713291 1.0697374
16.284178 -0.65843409 1.0731317
16.28265 -0.6312055 1.0613714
16.275099 -0.6166063 1.0606227
16.27776 -0.58399683 1.0666337
16.290659 -0.55630553 1.0721097
16.291273 -0.53543431 1.0669256
16.294893 -0.52040446 1.0663897
16.292927 -0.48892426 1.0760369
16.281244 -0.47628722 1.0741537
16.295267 -0.44651464 1.0719546
16.28562 -0.43099058 1.0757365
16.299334 -0.39790276 1.0640279
16.281258 -0.37324262 1.0641981
16.2824 -0.36676642 1.0742562
16.289522 -0.32820246 1.0692829
16.282087 -0.30980542 1.0624571
16.289438 -0.28853914 1.0679362
16.296221 -0.26995718 1.0621696
16.292618 -0.24374278 1.066313
16.287102 -0.22416022 1.0775013
16.299353 -0.19484806 1.0614848
16.295355 -0.17241208 1.0758266
16.299618 -0.14861251 1.0720983
16.304018 -0.12419824 1.0721149
16.298445 -0.11315824 1.0679636
16.287867 -0.090016581 1.079477
16.29043 -0.05995737 1.0695233
16.298441 -0.043516614 1.0754179
16.300655 -0.011047127 1.0647926
16.300724 0.018585533 1.1900814
16.318201 0.037166011 1.1828808
16.299629 0.051474653 1.1953807
16.315369 0.069802813 1.1889441
16.307346 0.092320666 1.1841855
16.299311 0.12908632 1.1877303
16.307091 0.15512644 1.19168
16.306353 0.16361512 1.1829519
16.31563 0.20003141 1.1879275
16.31077 0.21860863 1.1826353
16.315252 0.24349025 1.1812208
16.305925 0.26586443 1.1956304
16.309366 0.28971475 1.1815921
16.305275 0.30938295 1.1831257
16.314716 0.32114059 1.1844211
16.299366 0.34500426 1.179726
16.307529 0.37682265 1.1983153
16.299612 0.38810897 1.1826377
16.302933 0.4289096 1.1806211
16.311199 0.44511908 1.1944271
16.29414 0.46611211 1.1903601
16.295635 0.47811115 1.1859133
16.291508 0.51391566 1.1825633
16.29331 0.52602535 1.1961285
16.296616 0.54800367 1.1986989
16.301184 0.57509196 1.1823812
16.301025 0.61083502 1.1951307
16.299425 0.61918241 1.1964161
16.302114 0.65140611 1.1957526
16.302755 0.6724816 1.1885496
16.297171 0.69711661 1.1795917
16.287489 0.72389674 1.1798855
16.293327 0.74723148 1.1932378
16.295784 0.75308251 1.1959544
16.291773 0.78298342 1.1979053
16.290302 0.79822952 1.1842012
16.29248 0.83412564 1.1834981
16.287378 0.84926105 1.1884016
16.283529 0.86795801 1.1827891
16.278984 0.88820016 1.1955136
16.287205 0.9237932 1.190136
16.286436 0.95067012 1.1888027
16.285929 0.96438414 1.1880696
16.278744 0.98158509 1.1904545
8.146657 -4.9807096 1.949446
8.1428785 -4.9747252 1.9440565
8.1519203 -4.9615593 1.9373797
8.1583138 -4.9526763 1.9376945
8.179821 -4.9261928 1.9371027
8.1761084 -4.931303 1.9391998
8.0157967 -4.7994008 1.9688135
8.0292397 -4.8066607 1.9583527
8.0194359 -4.7770319 1.9718883
8.0250883 -4.7694182 1.9631194
8.0326252 -4.7637038 1.9715959
8.054636 -4.7487173 1.9746972
8.0512409 -4.7316222 1.9595957
8.0611544 -4.7350502 1.9619986
8.0713673 -4.7238722 1.9594971
8.0809717 -4.7032919 1.9604875
8.0726576 -4.6996078 1.9594542
8.0917358 -4.6891923 1.9599818
8.100337 -4.6752753 1.9589497
8.102458 -4.6623845 1.974333
8.1157942 -4.6486211 1.9642237
8.1175909 -4.6394949 1.9578844
8.1224737 -4.6203957 1.9574144
8.1322393 -4.618 1.9622811
8.1243916 -4.6119933 1.9670817
8.1340265 -4.6029668 1.9612087
8.1446362 -4.5888243 1.9677572
8.1541967 -4.5621576 1.9734495
8.1642685 -4.5534286 1.9617777
8.1732922 -4.5491009 1.9717065
8.1776838 -4.5379434 1.9640994
8.1719503 -4.5314803 1.9743099
8.179862 -4.5066094 1.9723022
8.0132599 -4.4024053 1.9835701
8.0254011 -4.3887634 1.9873029
8.0223284 -4.3919148 1.9887176
8.0333672 -4.3708687 1.9929214
8.0309381 -4.3666587 1.9924291
8.0541859 -4.358757 1.9892949
8.0457468 -4.3481956 1.9791081
8.0672197 -4.319592 1.9886895
8.0610704 -4.3230543 1.9933361
8.0651159 -4.3049231 1.9914464
8.0671387 -4.2856674 1.9863173
8.0782061 -4.2804213 1.9836488
8.0929909 -4.2643838 1.9866389
8.0891752 -4.2634277 1.9794767
8.1095467 -4.2510052 1.9853173
8.1094112 -4.2414236 1.9878442
8.1061249 -4.2263546 1.9897079
8.1126366 -4.2158699 1.988943
8.1287136 -4.197576 1.9934744
8.1294212 -4.201263 1.9848877
8.1282234 -4.1889381 1.9842986
8.14188 -4.1715403 1.9976895
8.152853 -4.1653366 1.9958431
8.1468 -4.1489124 1.9836694
8.1535692 -4.1380639 1.992627
8.1661634 -4.1332836 1.9798666
8.1612682 -4.1177049 1.990867
8.1782207 -4.1015158 1.9810361
8.1743927 -4.0951338 1.9981744
8.1950798 -4.0739131 1.9802932
8.1871643 -4.0597434 1.9833958
8.1986437 -4.0577536 1.9925473
8.2034979 -4.050612 1.9965452
8.2064896 -4.0353289 1.985602
8.2172928 -4.0190663 1.9941339
8.2170362 -4.0159836 1.9960649
8.2240038 -4.0035543 1.9821846
8.2419558 -3.9799142 1.9930961
8.2300606 -3.9858286 1.9789836
8.2352886 -3.9567659 1.9946783
8.2426186 -3.9613128 1.993121
8.2530346 -3.9400587 1.9821242
8.2525864 -3.9396126 1.9868314
8.2561207 -3.9218209 1.9953763
8.2686949 -3.8988571 1.9887305
8.2697859 -3.9017642 1.9937062
8.2727909 -3.883302 1.9796423
8.2818995 -3.8724701 1.9977418
8.3019037 -3.8591001 1.9984424
8.3077793 -3.8460534 1.9967134
8.3093328 -3.8312109 1.9789373
8.3093138 -3.8314705 1.9909074
8.3182812 -3.8176804 1.9918083
8.3119402 -3.8058429 1.9789776
8.3341274 -3.7869012 1.9975796
8.3296528 -3.7723231 1.9817362
8.3301373 -3.7601781 1.9928089
8.3365421 -3.7643459 1.9831597
8.3410301 -3.7539158 1.995319
8.3462019 -3.7429996 1.9889566
8.3496294 -3.715903 1.98586
8.3552637 -3.7141836 1.9909201
8.3728523 -3.6888375 1.9981788
8.3713255 -3.6951582 1.9856764
8.3769512 -3.6846004 1.9805095
8.3811626 -3.6638103 1.9983069
8.3895149 -3.6478117 1.9966285
8.3889236 -3.6306689 1.9791536
8.3986664 -3.6342824 1.9804734
8.4005518 -3.6179516 1.9810662
8.4160585 -3.6034057 1.9971051
8.408453 -3.5884204 1.9832062
8.4258909 -3.5810261 1.982988
8.4305706 -3.5603213 1.9847772
8.4227324 -3.5591376 1.9854449
8.4297104 -3.5388722 1.9952164
8.4344692 -3.5353689 1.9892925
8.4375334 -3.517555 1.9888108
8.4431057 -3.5150795 1.9930074
8.4499826 -3.4957836 1.98182
8.4574347 -3.4860291 1.9934564
8.4609098 -3.4689133 1.9883488
8.4704695 -3.4593756 1.9788997
8.4797935 -3.4501574 1.998412
8.470892 -3.4337614 1.987358
8.4826403 -3.435354 1.9848123
8.4841442 -3.4171383 1.9940058
8.4997072 -3.4007928 1.9892423
8.494772 -3.3837919 1.9951764
8.4940176 -3.3848162 1.9886218
8.502059 -3.3632727 1.9800302
8.5017195 -3.3631227 1.996756
8.5162563 -3.3382652 1.9912144
8.521328 -3.3289182 1.9830791
8.5258942 -3.3132927 1.9795212
8.5193911 -3.3107209 1.9825451
8.5303249 -3.2914314 1.9919527
8.5304356 -3.2813482 1.9858671
8.5457659 -3.2809529 1.984937
8.5470142 -3.2660489 1.9911306
8.5616913 -3.247824 1.9870088
8.54776 -3.2346413 1.991172
8.5705376 -3.2316086 1.9883207
8.5677576 -3.2081749 1.9829382
8.5768251 -3.2048283 1.9812962
8.5823174 -3.1926224 1.9903346
8.5708179 -3.1741035 1.9867647
8.5887089 -3.1600773 1.9813738
8.5804977 -3.1553082 1.9844673
8.5913401 -3.1338613 1.9905477
8.5883589 -3.1222918 1.9829296
8.6012392 -3.1091912 1.9965643
8.5982656 -3.0978336 1.9812956
8.6124239 -3.0937607 1.9975181
8.6211834 -3.0851078 1.9851383
8.6282845 -3.075433 1.9930093
8.6244068 -3.061712 1.9874382
8.6369419 -3.0545378 1.9839255
8.6240702 -3.0399954 1.9932084
8.6342745 -3.0190153 1.9919581
8.6305428 -3.005404 1.9902915
8.6391754 -3.003283 1.9897333
8.8292141 -3.053627 1.9663283
8.8362703 -3.0487499 1.9571981
8.8395319 -3.0194337 1.9647105
8.8503962 -3.0073206 1.9698813
8.8491144 -3.0033722 1.9567506
9.0504818 -3.0549831 1.9365596
9.0401707 -3.0396318 1.9410828
9.0591249 -3.0383127 1.9345459
9.0568113 -3.024945 1.9495741
9.0528135 -3.0071471 1.934671
9.0682402 -2.9912841 1.9425037
9.251215 -3.0348706 1.9206811
9.2563639 -3.0369289 1.9180491
9.2690067 -3.0123482 1.9151922
9.2668028 -2.9932575 1.9239401
9.4605608 -3.0464187 1.8903458
9.4672899 -3.0326989 1.9016907
9.4785252 -3.0242701 1.9017305
9.4832039 -3.0023823 1.9025078
9.482893 -2.9887023 1.9084468
9.6771927 -3.0436573 1.8754003
9.6898575 -3.0284433 1.8705717
9.682888 -3.0123241 1.8707675
9.6932669 -3.007787 1.8826205
9.8906345 -3.0484712 1.8584287
9.8869486 -3.0296228 1.8515378
9.8918562 -3.0283015 1.8651617
9.8880882 -2.9999838 1.8540035
9.9043417 -2.9912066 1.8515162
16.288841 -0.96253186 1.1967946
16.277473 -0.93893635 1.1927375
16.276291 -0.92039835 1.1990515
16.274399 -0.90445596 1.1926067
16.285723 -0.87617445 1.1901072
16.291956 -0.85899442 1.1982031
16.289869 -0.83553284 1.1957091
16.295492 -0.80843192 1.1919055
16.28228 -0.7868517 1.1917058
16.288639 -0.76996744 1.1793745
16.293486 -0.74744409 1.1977974
16.292242 -0.7176407 1.1970998
16.286909 -0.69034117 1.1922222
16.287859 -0.66622239 1.180567
16.302334 -0.65203738 1.1944718
16.294275 -0.63284343 1.1828333
16.294281 -0.61693096 1.1919314
16.291763 -0.5765568 1.1854036
16.305408 -0.57052648 1.1977277
16.298822 -0.5392347 1.1842062
16.299873 -0.5241648 1.1904767
16.299314 -0.49137357 1.1838177
16.298027 -0.46491829 1.1817241
16.311831 -0.43848503 1.1810135
16.293947 -0.41851857 1.191751
16.309937 -0.40751845 1.1989441
16.294256 -0.37738892 1.1793102
16.30764 -0.35062391 1.1973097
16.314466 -0.33102712 1.1985977
16.313585 -0.31879827 1.1884344
16.299149 -0.28626883 1.1905969
16.310953 -0.2750158 1.1828055
16.316067 -0.24573684 1.1987234
16.299053 -0.22330962 1.1983275
16.301298 -0.19938929 1.1951503
16.314249 -0.18007113 1.1802243
16.314362 -0.15699369 1.1926782
16.314808 -0.12105902 1.189147
16.313223 -0.098794967 1.1824614
16.312893 -0.077877425 1.1852529
16.302368 -0.051827926 1.1978216
16.313974 -0.03437601 1.1988904
16.317757 -0.012180668 1.1864847
16.330299 0.015684612 1.3129157
16.329536 0.042486724 1.3013492
16.325565 0.061965335 1.3063459
16.326635 0.081313558 1.3116651
16.320127 0.1008974 1.3101634
16.330057 0.11871633 1.30817
16.313269 0.15605824 1.3043381
16.319241 0.1627598 1.3037996
16.317749 0.20098352 1.3179567
16.317295 0.22293806 1.3115528
16.324404 0.24454123 1.3072374
16.318748 0.2653971 1.3069496
16.321493 0.28232834 1.3033662
16.309204 0.30040887 1.3163567
16.322203 0.33209267 1.3061568
16.313667 0.35384837 1.3110018
16.323105 0.37899038 1.310415
16.308681 0.3903102 1.3137563
16.313686 0.42037648 1.3125482
16.312817 0.45025796 1.3105217
16.305511 0.46754891 1.307326
16.31386 0.47951677 1.3022141
16.321888 0.51459503 1.311262
16.306301 0.53778046 1.3156195
16.303673 0.5543921 1.3088903
16.310812 0.58292824 1.3011472
16.302767 0.60139537 1.3157769
16.3141 0.62596166 1.2989581
16.308744 0.65608847 1.3094379
16.302149 0.66593289 1.3070323
16.313496 0.68909091 1.2991518
16.301615 0.72124702 1.3004739
16.304588 0.74211359 1.3141102
16.296579 0.76810706 1.3081686
16.312897 0.79221779 1.3160766
16.302452 0.80424589 1.3097596
16.304234 0.82903641 1.2991498
16.300613 0.84600258 1.3103473
16.30014 0.87848556 1.3089139
16.290117 0.90527719 1.3145688
16.297657 0.92435098 1.3006264
16.297283 0.95251113 1.3160863
16.298201 0.96464574 1.3096604
16.292723 0.98980272 1.3064771
8.3899803 -4.9919643 2.0012248
8.3967485 -4.968761 1.9851364
8.3872023 -4.9604864 1.9866779
8.3939619 -4.9465613 1.9900893
8.4010639 -4.9418182 1.9992616
8.4190874 -4.9187551 1.9925072
8.4151697 -4.9091711 1.9857752
8.4362831 -4.9017444 1.9974226
8.4374352 -4.885931 2.0022538
8.4359875 -4.8764954 1.9893643
8.4423904 -4.8662543 1.9897499
8.44732 -4.8561983 2.0016456
8.4561443 -4.8426247 1.990113
8.4664946 -4.8292112 2.0007925
8.4802399 -4.8155999 1.9844924
8.48314 -4.810853 1.9995241
8.4992695 -4.7968941 1.9923977
8.4886513 -4.7886777 2.000947
8.5096636 -4.7661467 1.9935484
8.5154896 -4.7518854 1.9838153
8.5084105 -4.7380271 1.992543
8.5216999 -4.726028 1.9995376
8.5268688 -4.731977 1.9883069
8.5404882 -4.7143321 1.9986812
8.5447702 -4.689682 1.9908491
8.5527363 -4.6888542 1.9959369
8.5557165 -4.6786036 1.9831465
8.5715542 -4.6656618 1.9867269
8.5759249 -4.6583815 2.000983
8.5728798 -4.6319323 1.9976358
8.5800848 -4.6192026 1.9962732
8.5960007 -4.6198077 1.9950261
8.5988951 -4.601851 1.9959377
8.6105413 -4.5968661 2.0025926
8.612546 -4.574173 2.0019867
8.6067009 -4.5700717 1.9902885
8.625927 -4.549531 1.9969118
8.6323462 -4.5396771 1.9845383
8.6423292 -4.531961 1.9874974
8.6465511 -4.5137806 1.9849497
8.6474094 -4.5148692 1.9831657
8.6468878 -4.4864998 1.9888022
8.665102 -4.4816771 2.0004115
8.6642122 -4.471632 1.9850131
8.6699591 -4.4659905 2.0003061
8.6750841 -4.4525847 1.9876899
8.6884937 -4.4263263 1.9835948
8.688509 -4.4200063 1.9973253
8.6961346 -4.4100437 1.986735
8.7067022 -4.4021831 2.0022788
8.7147055 -4.3797717 1.9846789
8.7209072 -4.3641715 1.9833847
8.7127285 -4.3566298 1.9948406
8.7361431 -4.3562355 1.9842602
8.7241411 -4.3363333 1.9872311
8.7474155 -4.3175292 1.9915094
8.7380571 -4.3115215 1.9899384
8.744586 -4.291687 2.0025716
8.7648287 -4.2903991 1.9930421
8.7544632 -4.2846985 1.99924
8.7796259 -4.2571335 1.9957078
8.76717 -4.2494879 1.9956251
8.7734041 -4.2361245 1.9909248
8.7910767 -4.2254353 1.9944512
8.798151 -4.2128177 1.9857037
8.8081799 -4.2029791 1.9835757
8.8024702 -4.1885362 1.9952625
8.8151722 -4.173583 1.9945824
8.8204899 -4.1643901 2.0029805
8.8162603 -4.1515474 1.9848607
8.838213 -4.1395111 2.0020792
8.8366156 -4.1258812 1.9947089
8.834918 -4.1119518 1.9884582
8.8485031 -4.1062675 2.0006454
8.8455973 -4.0994077 1.9931904
8.8539267 -4.0884027 1.9833058
8.8601103 -4.0689735 1.9955883
8.877964 -4.0626912 1.9905393
8.8751211 -4.0369229 2.0023906
8.8806581 -4.0211978 1.9947841
8.8880577 -4.0093184 1.986905
8.8926592 -4.0048165 2.0003388
8.8898735 -3.9877748 1.9953769
8.9008188 -3.9828942 1.9837667
8.9039345 -3.9666476 1.9866747
8.9195776 -3.9477832 1.9882388
8.9253187 -3.9484286 1.9968752
8.9233255 -3.9368973 1.9994287
8.936265 -3.9138689 1.9953777
8.9410391 -3.9109459 1.9946709
8.9381895 -3.8862481 1.9934548
8.947443 -3.8825567 1.9843442
8.9501133 -3.8672421 1.9998707
8.9478035 -3.846555 1.9878658
8.953866 -3.8483086 1.9996873
8.9628201 -3.8399575 1.9979457
8.97332 -3.8113863 1.9831231
8.9724388 -3.8103127 1.9873888
8.9940939 -3.8017857 2.0022321
8.9916801 -3.7739539 1.9875396
8.9885426 -3.7744238 1.9850791
9.0041714 -3.7510748 1.9938362
9.0106716 -3.750473 1.9854265
9.012681 -3.7375803 1.9852148
9.0226679 -3.7240069 1.9907534
9.0244589 -3.706845 1.9921392
9.0244913 -3.6845305 1.9895847
9.0296822 -3.6884267 1.9955848
9.0391226 -3.6759806 1.9975857
9.0433874 -3.6512427 1.9948846
9.0529432 -3.6349204 1.9991722
9.0600204 -3.6282294 1.9942604
9.0558367 -3.6202803 1.9973947
9.0632267 -3.595547 2.0008583
9.0703859 -3.5860338 1.9853251
9.0630674 -3.5799201 1.9943758
9.077116 -3.5589466 1.9931563
9.0885935 -3.5579367 1.9954482
9.0860529 -3.532624 1.997587
9.085495 -3.5281661 1.9918571
9.1022186 -3.5192547 1.9898359
9.1032124 -3.5083506 2.0018849
9.0992765 -3.486697 1.989255
9.1184568 -3.4827034 1.9887235
9.1210842 -3.4565816 1.985063
9.1281595 -3.4627926 1.9948673
9.1242676 -3.4399512 1.9929888
9.1391392 -3.4306118 1.9994575
9.1362848 -3.4087741 1.9985685
9.1355505 -3.3924375 1.9894608
9.1490698 -3.3843029 1.9965807
9.1405487 -3.3800828 2.001914
9.1640596 -3.3646889 1.9962032
9.1549225 -3.3549874 2.0017817
9.1652365 -3.3475139 2.000771
9.1718721 -3.3178024 2.0008311
9.168294 -3.316802 1.9910082
9.1828194 -3.305732 1.9977932
9.1837959 -3.2823007 1.9936779
9.1838646 -3.2643692 1.9931544
9.194809 -3.2576678 1.988014
9.1928549 -3.2442174 1.9943357
9.1962156 -3.2319691 1.9832865
9.2138481 -3.213553 1.9891677
9.217042 -3.2095003 1.9897444
9.2192059 -3.2034719 1.9872484
9.2214127 -3.1856632 1.9929621
9.2137785 -3.1779528 1.9969485
9.2329111 -3.1538723 1.9915624
9.227911 -3.15431 1.9912975
9.2423687 -3.1283743 1.9849175
9.2316685 -3.1289451 1.9991651
9.2472715 -3.1106892 1.9928315
9.2518082 -3.0993173 1.9920784
9.262207 -3.089251 2.0025361
9.2531652 -3.0615013 1.986174
9.2616091 -3.0560074 1.9947661
9.2757492 -3.0425928 1.9982079
9.2738571 -3.0344722 1.9928635
9.2665615 -3.0157611 1.9942082
