# .PCD v0.7 - Point Cloud Data file format
VERSION 0.7
FIELDS x y z
SIZE 4 4 4
TYPE F F F
COUNT 1 1 1
WIDTH 1506
HEIGHT 1
VIEWPOINT 0 0 0 1 0 0 0
POINTS 1506
DATA ascii
-4.1538815 -3.6471262 1.320505
-4.1470571 -3.6650641 1.319636
-4.1480389 -3.6536741 1.3275013
-4.141398 -3.6774421 1.3233885
-4.1363511 -3.6673918 1.3312052
-4.138526 -3.6834741 1.3206314
-4.1398172 -3.6860421 1.3356698
-4.1357861 -3.6953611 1.3373758
-4.1276631 -3.7025964 1.3261902
-4.1245127 -3.7087481 1.3331268
-4.1162386 -3.7162838 1.3278614
-4.1099601 -3.7221045 1.3304796
-4.1045432 -3.7140248 1.3303024
-4.0912528 -3.7244301 1.3321644
-4.082067 -3.7349222 1.329877
-4.0850563 -3.7327311 1.3373003
-4.0786119 -3.7369814 1.3279412
-4.0771208 -3.7423587 1.3350415
-4.073916 -3.7647793 1.320678
-4.0618887 -3.7692235 1.325927
-4.0629172 -3.7705758 1.329397
-4.0492029 -3.7708402 1.3327959
-4.0528622 -3.7708855 1.3300169
-4.0366912 -3.7828467 1.3225677
-4.03865 -3.7908366 1.3303542
-4.0228882 -3.7870383 1.3260523
-4.0196958 -3.8020256 1.3232131
-4.0258541 -3.80076 1.3207026
-4.0249043 -3.8215358 1.32147
-4.0183105 -3.8155384 1.3234844
-4.0064597 -3.8158309 1.3298303
-3.9911311 -3.8276794 1.3215885
-3.9923956 -3.828465 1.3389703
-3.9964314 -3.8383651 1.3300526
-3.9879086 -3.8555179 1.3387994
-3.9715917 -3.8422105 1.3369914
-3.9795687 -3.8510199 1.3258357
-3.970377 -3.8713048 1.3215774
-3.9636884 -3.8759651 1.3221681
-3.9562244 -3.8793643 1.3343735
-3.9467385 -3.8762536 1.3318957
-3.9508986 -3.8831625 1.323172
-3.9432931 -3.8966925 1.3392575
-3.938298 -3.8996224 1.3310299
-3.9222128 -3.8994017 1.3312294
-3.9173734 -3.9082434 1.3303086
-3.9143341 -3.9104497 1.326143
-3.9224429 -3.9088597 1.3272498
-3.9148023 -3.9259839 1.3292458
-3.9065635 -3.9210548 1.3333846
-3.9061117 -3.9320581 1.3261688
-3.8881299 -3.9326479 1.3375708
-3.8788643 -3.951066 1.3209621
-3.8735056 -3.9499304 1.3269352
-3.8763669 -3.958159 1.3386332
-3.8590212 -3.9670048 1.326986
-3.8625886 -3.958276 1.3386213
-3.8503141 -3.9631281 1.3373277
-3.8569252 -3.9858196 1.3243836
-3.8415329 -3.9857597 1.3218344
-3.8419943 -3.9907429 1.3337401
-3.829664 -4.0032473 1.3305064
-3.8259242 -3.9919958 1.3342977
-3.8187857 -4.0009036 1.3246596
-3.8256664 -4.0181985 1.3322202
-3.8208418 -4.0236802 1.3363546
-3.8076568 -4.0182705 1.3346299
-3.8028293 -4.0261335 1.3334571
-3.7992878 -4.0261641 1.3349892
-3.7886829 -4.036365 1.32197
-3.7806199 -4.032598 1.3293483
-3.7806437 -4.0420785 1.3295954
-3.7638938 -4.0534053 1.3264592
-3.7633452 -4.0631862 1.3197722
-3.7524276 -4.0654488 1.3211404
-3.7539418 -4.0684943 1.3223683
-3.7513142 -4.0639706 1.3343402
-3.7504041 -4.0802422 1.3237747
-3.7306595 -4.0786023 1.3384972
-3.7293756 -4.0919952 1.328329
-3.7211034 -4.1029706 1.3272303
-3.7254457 -4.0996222 1.3219454
-3.7095335 -4.1051836 1.3306205
-3.7167504 -4.1158638 1.3347934
-3.7106469 -4.1213007 1.3219748
-3.7031682 -4.113934 1.3313731
-3.6944542 -4.1296291 1.3305502
-3.6937609 -4.1301107 1.3387027
-3.6836262 -4.1365514 1.3337338
-3.6787615 -4.1474195 1.3206028
-3.6640582 -4.1557336 1.3217195
-3.6704462 -4.1541157 1.3313997
-3.662112 -4.1623192 1.3207254
-3.6450953 -4.1634793 1.3245699
-3.643899 -4.1642838 1.3281683
-3.635514 -4.1633639 1.3243163
-3.6377234 -4.1794925 1.329944
-3.6207488 -4.1806965 1.3202571
-3.6156144 -4.1775427 1.329288
-3.615442 -4.1953077 1.3326018
-3.6083937 -4.2041597 1.3327436
-3.6002214 -4.2051978 1.3196377
-3.6023617 -4.2037067 1.3234549
-3.5951695 -4.2110114 1.3312298
-3.5841255 -4.222939 1.3233105
-3.5894763 -4.2123079 1.3214128
-3.5786724 -4.2297201 1.3284806
-3.5622334 -4.2359982 1.3194295
-3.5554745 -4.2429895 1.3386101
-3.5596776 -4.2356634 1.3250948
-3.56056 -4.2471509 1.3277886
-3.5412936 -4.2563348 1.334497
-3.5351262 -4.2535353 1.327741
-3.5251348 -4.2694263 1.3387167
-3.5273614 -4.2601638 1.3227932
-3.5175004 -4.2621489 1.3225207
-3.5095303 -4.2792339 1.3298479
-3.5144856 -4.2857909 1.3359005
-3.5084848 -4.2915072 1.3199567
-3.5032969 -4.2873511 1.3363259
-3.4916172 -4.29001 1.3261862
-3.4772372 -4.2993407 1.3318329
-3.4761419 -4.3084497 1.3252412
-3.4817955 -4.3135204 1.3277121
-3.4764669 -4.306777 1.324391
-3.4670548 -4.3161387 1.3240218
-3.4579086 -4.323504 1.3314962
-3.4414284 -4.3218045 1.3373339
-3.4388888 -4.3400917 1.3223674
-3.4322863 -4.3391848 1.3364602
-3.4293079 -4.3525987 1.3327898
-3.4364626 -4.3576398 1.3246753
-3.4179637 -4.3476005 1.33233
-3.40605 -4.349236 1.3197842
-3.4116585 -4.3715706 1.3388435
-3.4005816 -4.3705277 1.3333938
-3.3898673 -4.3663797 1.3254236
-3.3916717 -4.3718004 1.3239889
-3.3876319 -4.3807359 1.3290951
-3.3785522 -4.3891306 1.3199276
-3.3753729 -4.4006157 1.3221569
-3.3558574 -4.4053302 1.324147
-3.3644497 -4.3976278 1.3209705
-3.345381 -4.4040999 1.320944
-3.3388515 -4.402276 1.3233597
-3.333256 -4.4154768 1.3315865
-3.3331039 -4.4240718 1.3287207
-3.3209152 -4.4205861 1.3251858
-3.3301549 -4.4391823 1.3374578
-3.3142817 -4.4348269 1.3260689
-3.3075697 -4.4334273 1.3279206
-3.2986219 -4.4386535 1.3297745
-3.2876775 -4.4386201 1.3240393
-3.2999032 -4.4456725 1.3365315
-3.2921491 -4.4523563 1.335539
-3.2819726 -4.4596124 1.326028
-3.2635629 -4.4728909 1.3325961
-3.2680128 -4.4801612 1.327315
-3.2559912 -4.4828582 1.3280941
-3.2516911 -4.4758759 1.3378767
-3.2387736 -4.4883819 1.3336983
-3.2439983 -4.4981465 1.3289243
-3.2273624 -4.50318 1.3288057
-3.2364554 -4.5066586 1.3262478
-3.2130499 -4.5086083 1.3216106
-3.2106307 -4.5066147 1.3343128
-3.2177162 -4.5124497 1.3383241
-3.1982274 -4.5089803 1.3196431
-3.2040133 -4.5197401 1.3228348
-3.189014 -4.5324583 1.3375696
-3.1842256 -4.5385227 1.3243507
-3.1836095 -4.5360827 1.3259104
-3.1677613 -4.5432835 1.3269714
-3.1720254 -4.5458603 1.3290797
-3.1588414 -4.5513215 1.3337548
-3.1502881 -4.5606594 1.324932
-3.1490266 -4.5633845 1.3347733
-3.1437478 -4.5529294 1.332575
-3.1371434 -4.5745749 1.3240983
-3.1273415 -4.5675416 1.3273767
-3.1227987 -4.582047 1.3290545
-3.1114686 -4.5822701 1.3376278
-3.0985725 -4.5929842 1.3234466
-3.1046095 -4.5943079 1.331126
-3.0885322 -4.5888 1.3377728
-3.0877738 -4.6010962 1.3195016
-3.0758321 -4.5984955 1.3229162
-3.074043 -4.5969863 1.3211877
-3.0744462 -4.6152492 1.322207
-3.0633202 -4.6100931 1.3346436
-3.0489097 -4.6267824 1.3369497
-3.0528154 -4.6185365 1.3233992
-3.048142 -4.6237955 1.3234919
-3.1427014 -4.7815127 1.2686582
-3.1442943 -4.7896981 1.261623
-3.1192343 -4.8035436 1.2666217
-3.1124392 -4.811872 1.2785426
-3.1222236 -4.8048425 1.2762852
-3.1137304 -4.8046527 1.2800683
-3.1042118 -4.8197794 1.2733023
-3.1022506 -4.8269448 1.2741324
-3.0779772 -4.8244705 1.2674847
-3.0872481 -4.8237839 1.2798454
-3.0764203 -4.8390651 1.2787614
-3.0624695 -4.8426356 1.273888
-3.0555477 -4.8478484 1.2795556
-3.0636213 -4.8529739 1.2812718
-3.0397682 -4.854599 1.2743855
-3.0381663 -4.8544507 1.272047
-7.0385437 -3.0313988 0.74289459
-7.0285234 -3.0411572 0.73839313
-7.0346646 -3.0487537 0.75111759
-7.0189509 -3.0481431 0.74165052
-7.0281658 -3.0666726 0.75251639
-6.8367758 -2.9912076 0.79934913
-6.8306088 -3.012598 0.79917073
-6.8263927 -3.00806 0.79948455
-6.8198752 -3.0267498 0.81401038
-6.8323822 -3.0321653 0.80646306
-6.8288608 -3.0511339 0.80710238
-6.8196831 -3.0443168 0.80782247
-6.8149939 -3.0678885 0.81077939
-6.6427436 -3.0010214 0.86072457
-6.6348805 -3.0063875 0.86541122
-6.6161389 -3.0003476 0.85834879
-6.6271019 -3.0123358 0.85946012
-6.6182303 -3.0243163 0.85466778
-6.6090317 -3.0340014 0.86073786
-6.6052947 -3.0404284 0.8709389
-6.6090922 -3.0475826 0.85171169
-6.5922375 -3.0698214 0.86883628
-6.4208326 -2.990468 0.90846813
-6.4203887 -2.9989109 0.90895224
-6.4065371 -3.0036821 0.91334271
-6.4079866 -3.013916 0.91303986
-6.3964858 -3.0393298 0.91000956
-6.403861 -3.0401022 0.92425358
-6.3960166 -3.0559194 0.91806161
-6.3820891 -3.0522554 0.91468567
-6.3779483 -3.0566576 0.91339242
-6.2002397 -2.9851313 0.97564209
-6.1982927 -3.0034258 0.96874219
-6.1932526 -3.0054703 0.98237592
-6.1877165 -3.0178697 0.98020899
-6.1977773 -3.0159376 0.97677302
-6.1881294 -3.0267365 0.97688192
-6.1814995 -3.0491548 0.96517128
-6.1806135 -3.0479851 0.96659046
-6.1859074 -3.057157 0.98061466
-6.1745648 -3.0664694 0.97917169
-5.9929013 -2.9893906 1.0313791
-5.9972491 -3.0000749 1.0374236
-5.9884849 -3.0099208 1.0300996
-5.9860749 -3.0184448 1.0390462
-5.9858208 -3.0212562 1.0385889
-5.9689903 -3.0386577 1.0359912
-5.9720397 -3.0336795 1.0396274
-5.9667878 -3.052078 1.0330799
-5.9601054 -3.0600445 1.0260009
-5.9593868 -3.0609555 1.0382435
-5.9600997 -3.0761042 1.0304343
-5.774879 -2.9914062 1.0968741
-5.7739906 -3.0102932 1.0852944
-5.7804151 -3.0109851 1.0935619
-5.7578816 -3.0156484 1.0873833
-5.755794 -3.027719 1.0921625
-5.7562933 -3.0270882 1.0902733
-5.7531447 -3.0454664 1.078333
-5.7565327 -3.0614345 1.0867677
-5.7469883 -3.0609684 1.0826267
-5.7451901 -3.0655107 1.0916668
-5.7311902 -3.0794046 1.0853436
-5.5584016 -2.9856164 1.1447635
-5.5661964 -2.9932129 1.135015
-5.5457129 -3.0024941 1.1486714
-5.5513973 -3.0139172 1.1383191
-5.5522919 -3.0300798 1.1366541
-5.5350642 -3.0273461 1.1446611
-5.5297666 -3.032263 1.1447444
-5.5360231 -3.0519099 1.1533321
-5.5264096 -3.054044 1.1454099
-5.5277457 -3.0664747 1.15162
-5.5153937 -3.0793121 1.1486495
-5.5201621 -3.0841365 1.145861
-5.3473282 -2.9988737 1.1981146
-5.3482981 -2.9970815 1.2101616
-5.3396091 -3.0004077 1.1938068
-5.3325753 -3.0107422 1.2079409
-5.3375244 -3.0200245 1.2049073
-5.3223791 -3.0198205 1.2099699
-5.3186359 -3.034271 1.2006356
-5.3228049 -3.0343356 1.206602
-5.3207531 -3.0463378 1.2074561
-5.3016615 -3.0674081 1.1912053
-5.3053479 -3.0672948 1.1941242
-5.2933207 -3.0723417 1.2063091
-5.2892361 -3.072901 1.2026355
-5.1158872 -2.9938097 1.2526398
-5.1141381 -3.0004854 1.2642673
-5.1154122 -2.9962482 1.263549
-5.1116142 -3.0125105 1.2558244
-5.0971408 -3.0171945 1.2554734
-5.0966907 -3.0240901 1.2505524
-5.0953765 -3.0361676 1.2519876
-5.0903034 -3.0362155 1.2609562
-5.0823011 -3.0485308 1.2522923
-5.0821042 -3.0610664 1.2504774
-5.0855708 -3.0701771 1.2583284
-5.0755734 -3.0617287 1.2666689
-5.0739388 -3.0787549 1.2664057
-5.0730124 -3.0761929 1.2570336
-4.8961158 -2.983331 1.3066753
-4.9033852 -2.9940667 1.3200127
-4.8955665 -3.0077281 1.3084081
-4.8863025 -3.0205665 1.3038855
-4.8880606 -3.0096624 1.3141712
-4.8784728 -3.0228312 1.3190391
-4.8706903 -3.0237465 1.3219082
-4.8750477 -3.0389543 1.3203316
-4.8710546 -3.0368268 1.3088286
-4.8673153 -3.0580828 1.3069814
-4.8529387 -3.0504465 1.3050377
-4.8454614 -3.0742693 1.3192117
-4.8446374 -3.0744715 1.3065715
-4.8354082 -3.0896187 1.3079346
-4.8506923 -3.0907416 1.3070375
-4.6741271 -2.9830525 1.3763515
-4.6743832 -2.9950449 1.3750238
-4.671761 -2.995641 1.3653063
-4.6707063 -3.0165005 1.3645279
-4.6611452 -3.0178866 1.3692998
-4.6534228 -3.0291715 1.368508
-4.6476345 -3.0372639 1.3706875
-4.6476636 -3.028826 1.3794528
-4.6403236 -3.0354629 1.3798531
-4.6316113 -3.0416968 1.3659062
-4.6237874 -3.0572419 1.3629664
-4.6231904 -3.0572309 1.3745728
-4.6239123 -3.058794 1.3721155
-4.6143427 -3.0835083 1.3753254
-4.6055422 -3.0828764 1.3636701
-4.6119609 -3.0787456 1.367245
-4.5991626 -3.0930595 1.3692365
-4.4451227 -2.9843872 1.4227194
-4.4415112 -2.9996612 1.4195122
-4.4374909 -3.010483 1.4365623
-4.4274087 -3.0177505 1.4245524
-4.420258 -3.0086992 1.4190329
-4.4214921 -3.0246572 1.4184237
-4.4251747 -3.0353422 1.4195675
-4.4056392 -3.0415323 1.4278044
-4.4177499 -3.0384555 1.4266273
-4.4062772 -3.0469038 1.4175854
-4.3928046 -3.0646977 1.4364018
-4.402391 -3.0630717 1.4261594
-4.3951755 -3.0616257 1.4313043
-4.3909016 -3.0743062 1.4353853
-4.3786287 -3.0840535 1.434715
-4.3718672 -3.0792611 1.4242781
-4.365706 -3.082386 1.429342
-4.3783927 -3.0902185 1.4343957
-4.2065263 -2.9831934 1.4852502
-4.2122912 -2.9999585 1.4772738
-4.2070904 -3.0075202 1.4776657
-4.2030644 -3.0089459 1.4858394
-4.1892729 -3.0074432 1.481609
-4.1903281 -3.0259616 1.490842
-4.1872945 -3.0365109 1.4764657
-4.1849227 -3.0246108 1.4930139
-4.1729794 -3.0308702 1.4925629
-4.1759644 -3.0541458 1.4903992
-4.1738877 -3.0462005 1.4901541
-4.1574984 -3.0482111 1.4790336
-4.1690774 -3.0692198 1.4862349
-4.1602564 -3.07041 1.4778882
-4.1432538 -3.0820243 1.4769163
-4.1504731 -3.0789175 1.483292
-4.1484518 -3.0770085 1.4849786
-4.1407981 -3.0969679 1.4844195
-4.1365886 -3.0892327 1.4834491
-4.132822 -3.1087384 1.4850454
-4.1312108 -3.1104321 1.4804235
-4.1298366 -3.1200089 1.4796213
-4.119575 -3.1254458 1.4836347
-4.1021042 -3.1263506 1.4922764
-4.1129718 -3.1345496 1.4751164
-4.1048031 -3.1342733 1.4868696
-4.090251 -3.1362884 1.4863319
-4.0940046 -3.1549714 1.4916292
-4.0983086 -3.153774 1.4904501
-4.0835757 -3.1531475 1.4755474
-4.0872378 -3.1752553 1.4847274
-4.0755143 -3.1803422 1.4901004
-4.0645852 -3.1795294 1.4758006
-4.0696344 -3.1856148 1.4863541
-4.0660338 -3.1869457 1.4744602
-4.0595856 -3.2044938 1.4885885
-4.0613761 -3.1918833 1.4864409
-4.0436964 -3.207428 1.4913437
-4.0407114 -3.2116864 1.4831711
-4.038898 -3.2256293 1.481346
-4.1818347 -3.3474321 1.4265777
-4.1855607 -3.3423822 1.4289813
-4.1839051 -3.3508439 1.4179004
-4.1765413 -3.3688042 1.4264301
-4.1586161 -3.3676212 1.419319
-4.1525764 -3.364455 1.4203435
-4.1524005 -3.3875523 1.4196559
-4.1543641 -3.3774509 1.4290951
-4.1514168 -3.3888533 1.4199409
-4.1366339 -3.4029386 1.4225025
-4.1436677 -3.3946097 1.4286857
-4.1289115 -3.4146867 1.425774
-4.1317439 -3.4177961 1.4202491
-4.125649 -3.4182379 1.4226061
-4.1110163 -3.4254589 1.4319817
-4.1234865 -3.4313526 1.4303524
-4.1149244 -3.4417908 1.4314482
-4.1070414 -3.4389215 1.4284612
-4.1097116 -3.4578409 1.4198809
-4.1015277 -3.4467225 1.4230176
-4.0907745 -3.4673913 1.4202793
-4.0938301 -3.4580646 1.4232533
-4.0797896 -3.4763393 1.4289004
-4.0712657 -3.4732962 1.4198813
-4.0803766 -3.4804053 1.4294107
-4.0601044 -3.4847782 1.4188089
-4.0614533 -3.4853902 1.4235245
-4.0616984 -3.5029287 1.4168588
-4.0449228 -3.5079546 1.4170157
-4.0567198 -3.5096219 1.4340266
-4.0453715 -3.5253692 1.4360979
-4.1812873 -3.6551576 1.3766673
-4.1695118 -3.649812 1.3612278
-4.172081 -3.6607995 1.37454
-4.1636605 -3.6657629 1.3664446
-4.1657033 -3.6753271 1.3796712
-4.1583395 -3.6711209 1.3779742
-4.1462517 -3.6920485 1.3644198
-4.1408219 -3.6810973 1.3715142
-4.1352267 -3.6868474 1.3626087
-4.1326132 -3.706162 1.3636165
-4.1279197 -3.7017794 1.3666339
-4.1260986 -3.7107255 1.3608454
-4.119709 -3.7273536 1.3699111
-4.1199989 -3.7206824 1.3798474
-4.108376 -3.7211826 1.3660469
-4.103519 -3.7394559 1.3622726
-4.1003509 -3.7507868 1.3633834
-4.0907288 -3.7418408 1.361251
-4.0940042 -3.7524614 1.3791668
-4.0861778 -3.7656374 1.3635595
-4.0773349 -3.7592974 1.3781185
-4.0654674 -3.7763219 1.369508
-4.0593796 -3.77215 1.370039
-4.064219 -3.7734702 1.3630033
-4.0591135 -3.788377 1.3612224
-4.0478005 -3.7836442 1.3669157
-4.0402541 -3.8009689 1.3670185
-4.0315895 -3.793905 1.3618001
-4.1845412 -3.9470553 1.3151364
-4.1598926 -3.9461265 1.3175656
-4.1708436 -3.9616125 1.3120456
-4.1672273 -3.950496 1.3152047
-4.1522136 -3.958565 1.3082319
-4.1566606 -3.9767544 1.3056282
-4.1481352 -3.9751275 1.313799
-4.1413827 -3.9874849 1.3123767
-4.1289287 -3.9776011 1.3192965
-4.116364 -3.9843647 1.3189392
-4.1290097 -3.9899087 1.32278
-4.1117606 -3.9963169 1.3133887
-4.1120744 -4.0191965 1.3143426
-4.0978999 -4.0239892 1.3122368
-4.1005583 -4.0193048 1.3078777
-4.0901814 -4.0246124 1.3111372
-4.0824003 -4.026948 1.321824
-4.0864401 -4.0480924 1.3059458
-4.0718946 -4.0423517 1.3057365
-4.0704212 -4.0496244 1.3045404
-4.0692973 -4.0551276 1.3035696
-4.0643249 -4.0689754 1.321952
-4.0487356 -4.068738 1.323208
-4.0521841 -4.079936 1.3054172
-4.0377312 -4.0794096 1.3180486
-4.0276289 -4.0941319 1.3111024
-4.0342598 -4.0867071 1.3075427
-4.0301957 -4.0889635 1.3085531
-4.0220017 -4.1023235 1.3210101
-4.0140095 -4.0998678 1.3118932
-4.0072055 -4.1219535 1.3229636
-4.0013642 -4.1247401 1.305869
-3.9971333 -4.1176181 1.3146862
-3.9916382 -4.1196342 1.3179722
-3.9839261 -4.132894 1.307443
-3.9835749 -4.1417565 1.3078424
-3.9701622 -4.1429625 1.3213097
-3.9603012 -4.1458249 1.3181554
-3.9494221 -4.1662221 1.3072677
-3.9460783 -4.1643629 1.3044544
-3.9518437 -4.1614442 1.3051662
-3.9465308 -4.1784363 1.3086944
-3.9383051 -4.1769567 1.3049392
-3.9212544 -4.1757493 1.3047545
-3.9209101 -4.192606 1.3168886
-3.9110873 -4.1948938 1.3057306
-3.9208572 -4.2095599 1.3189291
-3.8971524 -4.2001638 1.3148195
-3.8965943 -4.2056952 1.3158588
-3.8869162 -4.2136965 1.3042952
-3.8800437 -4.213285 1.3211803
-3.8924518 -4.2333903 1.3065952
-3.8813241 -4.2311068 1.3190032
-3.873944 -4.2376175 1.3181237
-3.8667412 -4.2496367 1.3058852
-3.8673968 -4.2576928 1.3168477
-3.8592026 -4.2613873 1.3186249
-3.8378026 -4.267252 1.3152709
-3.8405046 -4.2584419 1.3118502
-3.8421597 -4.2658439 1.3058844
-3.8353708 -4.2722721 1.3057779
-3.8316896 -4.2770143 1.3110058
-3.8225858 -4.2965422 1.3039486
-3.8210666 -4.2946115 1.3158039
-3.8004193 -4.2914062 1.3210549
-3.7920034 -4.2947927 1.3036562
-3.7926173 -4.3159285 1.3079617
-3.7914467 -4.3216157 1.3117924
-3.7736228 -4.3159633 1.3098149
-3.779212 -4.3179326 1.3058084
-3.7707598 -4.3390865 1.3207389
-3.7624068 -4.3425403 1.3162837
-3.7488184 -4.3428788 1.3176488
-3.7422798 -4.3476944 1.3062848
-3.7438786 -4.3578663 1.3234574
-3.7402191 -4.365633 1.3225667
-3.7339511 -4.3600321 1.3058547
-3.7233701 -4.3592863 1.3087618
-3.7289512 -4.3667498 1.3226191
-3.7165027 -4.3858433 1.3197966
-3.7080531 -4.3825321 1.3211011
-3.7046659 -4.3969235 1.3042241
-3.7057269 -4.3837891 1.3122727
-3.6854153 -4.3901858 1.3207612
-3.6764605 -4.4042587 1.3043249
-3.670326 -4.4007568 1.3053602
-3.6650751 -4.4170785 1.3172265
-3.6565289 -4.4089184 1.31506
-3.6650684 -4.432446 1.3106428
-3.6597435 -4.4296389 1.3123368
-3.637234 -4.4245028 1.3225374
-3.6334128 -4.4421082 1.3035342
-3.6264615 -4.4469094 1.3228441
-3.6314545 -4.4575419 1.3209276
-3.6279519 -4.4453697 1.3100996
-3.6208787 -4.4532199 1.3079264
-3.6127627 -4.4619832 1.3145758
-3.6127737 -4.4683719 1.3145208
-3.594944 -4.4694786 1.3160654
-3.5815246 -4.471446 1.3055357
-3.5864041 -4.4770966 1.3052516
-3.5810759 -4.4851255 1.3124634
-3.5747442 -4.4924107 1.3199663
-3.5690951 -4.4909029 1.3219204
-3.565356 -4.5121136 1.3211218
-3.5524378 -4.5124798 1.3175395
-3.5416858 -4.5109649 1.3102512
-3.5442777 -4.5157037 1.3216234
-3.5269175 -4.528862 1.3169293
-3.5280056 -4.5348573 1.3152992
-3.5196168 -4.5319953 1.3130412
-3.5115051 -4.530076 1.3077677
-3.5161748 -4.5481024 1.3202145
-3.4933345 -4.5467639 1.3191653
-3.4885335 -4.5479779 1.3218931
-3.4845243 -4.562572 1.3092337
-3.4840906 -4.5727191 1.323059
-3.4709382 -4.5717702 1.3171067
-3.4664068 -4.5797801 1.3229485
-3.4665627 -4.5752044 1.3077383
-3.4483421 -4.5885725 1.3203244
-3.4523726 -4.5801687 1.3197558
-3.4416697 -4.6027813 1.3060778
-3.4385135 -4.5889068 1.3186462
-3.4363997 -4.5965919 1.3148999
-3.4315515 -4.6066346 1.3214499
-3.4193559 -4.6026177 1.3227339
-3.4133286 -4.6118293 1.3098391
-3.4132466 -4.6228967 1.313798
-3.4073164 -4.6205144 1.3071871
-3.3965895 -4.6263123 1.3120536
-3.39327 -4.6425486 1.3101605
-3.3705125 -4.6344967 1.3104827
-3.3814261 -4.6497097 1.3094978
-3.3597651 -4.6492372 1.3056376
-3.3618436 -4.6503506 1.3165352
-3.3573656 -4.6657104 1.3162417
-3.3515971 -4.6614904 1.3115196
-3.3387167 -4.6636434 1.3205037
-3.341871 -4.666327 1.3166349
-3.3316298 -4.6847525 1.3117237
-3.3165154 -4.6863322 1.3153228
-3.3232875 -4.6916361 1.3117111
-3.309731 -4.6943417 1.3176149
-3.297153 -4.7018805 1.3087108
-3.2884288 -4.6979985 1.3234032
-3.2888005 -4.716146 1.3074374
-3.2894592 -4.7150397 1.3203835
-3.2748337 -4.7075729 1.3158597
-3.2712176 -4.7297883 1.3133259
-3.2714639 -4.7282953 1.3170315
-3.2566149 -4.7382288 1.3038127
-3.2581608 -4.7414808 1.3099366
-3.2433116 -4.7377291 1.3179924
-3.2425528 -4.7479591 1.3231378
-3.2306914 -4.756031 1.3167838
-3.2241313 -4.7510471 1.3168918
-3.2135308 -4.7533007 1.3227071
-3.2099779 -4.7675142 1.3205801
-3.2109425 -4.7647028 1.3208202
-3.1944346 -4.7687364 1.3071259
-3.1942148 -4.7645249 1.3080622
-3.1872077 -4.7884703 1.3103009
-3.1740704 -4.784184 1.3208363
-3.1728711 -4.7857618 1.3056775
-3.1665201 -4.7821083 1.3069735
-3.1465173 -4.7985306 1.317771
-3.1464 -4.7909946 1.3108228
-3.1404612 -4.8065548 1.3141603
-3.1366434 -4.8097339 1.3047986
-3.1325793 -4.8230667 1.3158838
-3.1222034 -4.8228474 1.3156511
-3.1108851 -4.8222942 1.3159347
-3.117322 -4.8352833 1.3049569
-3.0932174 -4.8337598 1.3168442
-3.1042657 -4.8325772 1.3168187
-3.0940118 -4.8380904 1.3047951
-3.0729544 -4.8501906 1.3047221
-3.0788391 -4.8430629 1.3134946
-3.0613804 -4.8588343 1.3234838
-3.0532773 -4.8572645 1.3045268
-3.0540829 -4.8520479 1.3101666
-3.0551155 -4.8622484 1.3207275
-3.0358584 -4.8656268 1.3226573
-6.856988 -2.9947858 0.85583419
-6.8572235 -2.997335 0.8640514
-6.8540692 -3.0182889 0.84927392
-6.841805 -3.021873 0.85725486
-6.8428931 -3.0210543 0.86834556
-6.8359165 -3.0362597 0.86323094
-6.842907 -3.0446446 0.86328489
-6.8289914 -3.0662394 0.85277015
-6.8223791 -3.0757375 0.85735416
-6.6496806 -2.9953592 0.92102528
-6.6498303 -3.0107815 0.90718609
-6.6390495 -3.0106301 0.92038798
-6.6400385 -3.0315285 0.92222047
-6.6357923 -3.0443799 0.91004735
-6.6235518 -3.0425508 0.90826571
-6.6202078 -3.0579891 0.92084527
-6.6219654 -3.0646751 0.91460079
-6.4293561 -3.0006099 0.97146314
-6.4416623 -2.9950802 0.97322935
-6.4293718 -3.0163448 0.96576172
-6.4285445 -3.0219591 0.97216409
-6.4215436 -3.0210061 0.96800417
-6.4213285 -3.0452683 0.9722265
-6.4192686 -3.0495231 0.97287196
-6.409369 -3.0457895 0.96461523
-6.4012389 -3.0629771 0.97018296
-6.400516 -3.0662 0.97832125
-6.2328753 -2.9918721 1.0338155
-6.2167735 -2.9973314 1.0286939
-6.2188935 -3.0147033 1.0313035
-6.2084689 -3.0154631 1.0172883
-6.2116299 -3.0334506 1.0332099
-6.1989388 -3.0354633 1.0338473
-6.202013 -3.039669 1.0192019
-6.1844296 -3.0582409 1.0172559
-6.1950912 -3.0729604 1.0270824
-6.1801729 -3.0712481 1.02264
-6.0051365 -2.9934063 1.0730877
-6.0018287 -3.0093637 1.0716296
-6.0036302 -3.0116518 1.0814941
-6.002811 -3.0277386 1.0792872
-5.995995 -3.0312216 1.0877755
-5.9932456 -3.0462611 1.0829277
-5.9898472 -3.0486341 1.0825449
-5.9810824 -3.0576954 1.0722551
-5.9742522 -3.0617015 1.0759046
-5.9775834 -3.0750854 1.0699192
-5.7945948 -3.0013735 1.1396273
-5.787168 -2.9966493 1.126632
-5.781188 -3.0179384 1.1397433
-5.7853322 -3.0226312 1.1251568
-5.7716722 -3.0247431 1.1354702
-5.7695127 -3.028352 1.1391214
-5.7721891 -3.0328209 1.1287708
-5.7752376 -3.0527949 1.1377242
-5.7685642 -3.0502205 1.1310303
-5.7582302 -3.0752704 1.1393061
-5.7538705 -3.0723877 1.1413065
-5.5855641 -2.9953246 1.1912807
-5.5797434 -3.0071959 1.192916
-5.5808001 -3.0074272 1.1979495
-5.5764327 -3.0182254 1.1889565
-5.5617409 -3.0311022 1.1844337
-5.5633869 -3.0309055 1.1835154
-5.5553727 -3.0380177 1.1906905
-5.558394 -3.0427287 1.1885016
-5.5480986 -3.0613892 1.1893181
-5.5495167 -3.0599847 1.1810669
-5.5289235 -3.0639536 1.1869758
-5.5334921 -3.0862913 1.1888144
-5.368588 -3.0001149 1.2533637
-5.3465972 -3.0073199 1.2397572
-5.3535891 -3.0040555 1.2410573
-5.3450933 -3.006671 1.2503318
-5.3375053 -3.0255163 1.2402655
-5.342732 -3.0316381 1.2532537
-5.3301368 -3.0317309 1.2353411
-5.3367152 -3.0375183 1.2465867
-5.3315339 -3.0469999 1.2416112
-5.3204336 -3.0653489 1.2420397
-5.3274841 -3.0709293 1.2426088
-5.3051219 -3.0787077 1.2434683
-5.3163557 -3.0776775 1.2550818
-5.140182 -2.9955592 1.3067104
-5.1409559 -3.0066433 1.2918247
-5.1317859 -3.0071845 1.2982888
-5.1296182 -3.0193722 1.2921262
-5.1253524 -3.0223894 1.3076363
-5.1098313 -3.0244875 1.3011185
-5.1192756 -3.0397575 1.3037002
-5.1082816 -3.0463607 1.3081436
-5.0967083 -3.0548949 1.2922444
-5.1042657 -3.0589664 1.3048056
-5.1001997 -3.0572753 1.3101074
-5.0996418 -3.0605471 1.2915111
-5.0939598 -3.0788479 1.299554
-5.0818038 -3.0791893 1.3025838
-4.9116273 -2.9994545 1.3649119
-4.9102435 -2.9882281 1.3571577
-4.9153681 -3.0106852 1.3612903
-4.8979015 -3.0063972 1.3459705
-4.8959818 -3.0147953 1.3492613
-4.8899517 -3.0350194 1.3556194
-4.8913507 -3.0354567 1.3508017
-4.8874388 -3.0396247 1.3498392
-4.882113 -3.0424097 1.357697
-4.8687353 -3.0573473 1.3523282
-4.8723183 -3.0506001 1.3537731
-4.8687105 -3.066658 1.3533182
-4.8728471 -3.0720389 1.3572741
-4.8528419 -3.084161 1.3523798
-4.8481464 -3.0785806 1.3459437
-4.8601513 -3.0911973 1.3461336
-4.6838908 -3.0057774 1.4078776
-4.6744809 -3.0041378 1.4171448
-4.6860247 -3.0014286 1.4104594
-4.6697011 -3.0096068 1.415663
-4.6587377 -3.0256429 1.4144342
-4.6663198 -3.0223553 1.403962
-4.6543479 -3.0274985 1.4149173
-4.658411 -3.0369396 1.4205533
-4.6473594 -3.0459983 1.4185659
-4.6427345 -3.0513844 1.4107523
-4.6379108 -3.0667391 1.4114708
-4.646481 -3.0768805 1.4203812
-4.6257749 -3.0827708 1.4185474
-4.6317449 -3.0765526 1.4150759
-4.6325026 -3.0835943 1.4021031
-4.61448 -3.1024508 1.4189465
-4.4473786 -2.9863148 1.4723166
-4.4490047 -3.005533 1.4676158
-4.4449863 -2.9979596 1.4603671
-4.4429464 -3.010031 1.4742376
-4.4487114 -3.0215569 1.4592522
-4.4337492 -3.0259407 1.4606185
-4.4298682 -3.0339148 1.4625815
-4.4278121 -3.0321648 1.457244
-4.4292188 -3.0354867 1.4713398
-4.4235897 -3.0451097 1.4730479
-4.4211087 -3.0515058 1.4700923
-4.4203954 -3.0637197 1.4741527
-4.4043746 -3.0761154 1.4720149
-4.3955941 -3.0706801 1.4640282
-4.3929343 -3.075228 1.4707321
-4.385251 -3.08904 1.4592628
-4.3961935 -3.0832059 1.4660244
-4.3851638 -3.0995593 1.4607347
-4.2226677 -2.990334 1.5134628
-4.2230182 -2.9907598 1.527608
-4.2216525 -3.0129745 1.5215381
-4.2032342 -3.0187545 1.5294294
-4.200747 -3.0128007 1.511094
-4.2003894 -3.0223618 1.5243567
-4.2080107 -3.0335674 1.5192288
-4.1889195 -3.0414031 1.5264398
-4.1812897 -3.044502 1.5256299
-4.1868896 -3.0409017 1.5146053
-4.1777716 -3.055939 1.5277009
-4.1710639 -3.0555186 1.5262786
-4.1702027 -3.0579324 1.5285437
-4.1754036 -3.0661359 1.5309252
-4.1727052 -3.0760686 1.5251505
-4.1683335 -3.0898683 1.5156993
-4.150691 -3.0955219 1.5209208
-4.1581688 -3.0863252 1.5241793
-4.1384273 -3.0937476 1.5302055
-4.1394873 -3.1110277 1.5256928
-4.1315641 -3.1034548 1.5119975
-4.130537 -3.1134479 1.5245713
-4.1309242 -3.1268616 1.5205742
-4.1290383 -3.129766 1.5142103
-4.124763 -3.1342697 1.5237447
-4.1062541 -3.1387079 1.5253041
-4.1171885 -3.1498182 1.5270286
-4.1028934 -3.1527286 1.5237625
-4.1053314 -3.1602275 1.5188807
-4.1017356 -3.1531255 1.5225195
-4.1026444 -3.1624467 1.5195256
-4.0972404 -3.1750956 1.5123272
-4.0792546 -3.1724944 1.5174974
-4.085258 -3.1923783 1.5255395
-4.0776172 -3.1923654 1.514848
-4.0804343 -3.1982307 1.5254822
-4.0616837 -3.1994255 1.530764
-4.0612011 -3.2107279 1.5188872
-4.0639763 -3.2088797 1.5252569
-4.0516253 -3.2278543 1.5244681
-4.0556278 -3.2321649 1.5200913
-4.0426164 -3.2355063 1.5287926
-4.0367951 -3.2453048 1.5258158
-4.1756344 -3.3660035 1.473523
-4.1764169 -3.3632836 1.4620981
-4.1678829 -3.3678474 1.47051
-4.1687064 -3.3781354 1.4634231
-4.1642399 -3.3924229 1.4707235
-4.1716423 -3.3939762 1.4655553
-4.1526666 -3.387677 1.4670895
-4.1544714 -3.4098864 1.4699839
-4.1406455 -3.4035983 1.4752015
-4.1381097 -3.4160113 1.4562784
-4.1385427 -3.4219549 1.4627541
-4.1361136 -3.433387 1.4578042
-4.1251011 -3.4409995 1.4741386
-4.125669 -3.4341576 1.4660263
-4.1133156 -3.4475799 1.4694613
-4.1136537 -3.4531434 1.4571712
-4.0991516 -3.4644778 1.4570018
-4.1031079 -3.4623723 1.4604379
-4.1041613 -3.4712038 1.4559702
-4.0999894 -3.4822705 1.4648911
-4.0947323 -3.4785497 1.4736632
-4.0829921 -3.4771869 1.4567913
-4.0761933 -3.4896071 1.4580885
-4.0730519 -3.4873984 1.4720023
-4.0780153 -3.4976478 1.4582617
-4.0595355 -3.5130546 1.4647193
-4.0533381 -3.5187874 1.4655968
-4.0473022 -3.5133116 1.4743274
-4.0578222 -3.5337331 1.4599679
-4.0528016 -3.5348341 1.4602758
-4.0388527 -3.5355377 1.470032
-4.1806107 -3.6761847 1.4117249
-4.1745682 -3.6682935 1.4018582
-4.1672206 -3.6821446 1.4199072
-4.1659513 -3.6858504 1.4134072
-4.1584139 -3.6959753 1.4171935
-4.1444111 -3.7048099 1.4009336
-4.1495228 -3.7125232 1.4158291
-4.1458955 -3.7156794 1.4159759
-4.1366196 -3.7187462 1.4206877
-4.127028 -3.7128026 1.4103547
-4.1276722 -3.7290766 1.4118433
-4.1314683 -3.7244401 1.4070697
-4.125123 -3.7375956 1.4142845
-4.1207204 -3.7346296 1.403626
-4.1028104 -3.7492824 1.4086678
-4.1011057 -3.7550964 1.4106929
-4.0956531 -3.7511945 1.4108155
-4.0952969 -3.7688458 1.4135853
-4.0947857 -3.7624097 1.4190845
-4.0895548 -3.7715783 1.4163163
-4.0746489 -3.7865956 1.4030557
-4.0782466 -3.7906218 1.4202062
-4.0666099 -3.7935233 1.4099683
-4.0677505 -3.7972515 1.4084563
-4.0595417 -3.8083062 1.418044
-4.0462828 -3.802901 1.4075627
-4.0509911 -3.8172958 1.4067212
-4.1751738 -3.9487669 1.3588122
-4.1767893 -3.9530189 1.3582094
-4.1728973 -3.9573164 1.3541535
-4.1517658 -3.9719925 1.3607887
-4.1638865 -3.9755585 1.3490988
-4.1588483 -3.9927883 1.3602008
-4.1440401 -3.9964669 1.3532609
-4.1307359 -3.9972529 1.3609451
-4.1278358 -4.0101042 1.3597059
-4.1354089 -4.0129962 1.3497356
-4.1238155 -4.005806 1.3461223
-4.1249762 -4.0257635 1.3641008
-4.1067319 -4.0273695 1.3636179
-4.112535 -4.0333929 1.3542869
-4.0916953 -4.0370941 1.3472104
-4.1025372 -4.0413218 1.3487167
-4.0822692 -4.0563149 1.3523493
-4.088933 -4.0435843 1.3609931
-4.0679045 -4.0535436 1.3625747
-4.0681076 -4.056673 1.3470459
-4.0582728 -4.0738144 1.3644811
-4.0520434 -4.0777297 1.3477246
-4.0478277 -4.0890222 1.3551195
-4.0440869 -4.0917473 1.3622413
-4.0496693 -4.0992699 1.3514042
-4.177227 -4.2402434 1.3069267
-4.1681724 -4.2498269 1.3083297
-4.1554766 -4.2517362 1.3081813
-4.1541295 -4.2582855 1.3037845
-4.1511922 -4.2507153 1.3019609
-4.1437759 -4.2589955 1.3086907
-4.1389165 -4.2667394 1.2971917
-4.130805 -4.2759681 1.3000793
-4.1152906 -4.2871647 1.3059125
-4.1126471 -4.2896605 1.3098859
-4.120832 -4.2905316 1.2955037
-4.0983391 -4.3082719 1.2973728
-4.0944357 -4.2992487 1.3031598
-4.090673 -4.3148179 1.3082155
-4.0912986 -4.3133988 1.3066516
-4.07374 -4.3305192 1.3026093
-4.0694432 -4.3287449 1.296617
-4.0766377 -4.3248315 1.307181
-4.0609369 -4.3313842 1.2923251
-4.0593948 -4.3412819 1.3007419
-4.0538716 -4.3453608 1.2940476
-4.0427222 -4.352952 1.2953645
-4.049696 -4.3626518 1.291448
-4.0308752 -4.3746099 1.2976967
-4.0269904 -4.3732224 1.2910911
-4.024662 -4.3803124 1.2930827
-4.0063677 -4.3891506 1.3025585
-4.0140581 -4.3912358 1.3016489
-4.0111761 -4.4036808 1.2998787
-4.0031428 -4.4006519 1.2938954
-3.9866848 -4.3981757 1.3095087
-3.9769132 -4.410635 1.303198
-3.985817 -4.4161601 1.2928456
-3.9786294 -4.4289641 1.2961855
-3.9651854 -4.4239917 1.3065548
-3.9583392 -4.4428062 1.2954668
-3.9494936 -4.44945 1.301165
-3.9511647 -4.4499154 1.3103938
-3.9337375 -4.453639 1.292785
-3.9380729 -4.4554758 1.3038038
-3.9283838 -4.4670091 1.3028886
-3.923074 -4.4749341 1.2950958
-3.924067 -4.4779329 1.3073509
-3.9154046 -4.4799223 1.292366
-3.9033949 -4.4746542 1.3079094
-3.9010081 -4.4887333 1.3101852
-3.8897018 -4.5001683 1.2913555
-3.8926897 -4.4994831 1.2975897
-3.8864412 -4.5075879 1.3056216
-3.8777938 -4.5062528 1.2973288
-3.8581202 -4.5214605 1.3030059
-3.859354 -4.5175982 1.3062531
-3.8483732 -4.5209765 1.2919874
-3.84513 -4.5419478 1.3012096
-3.836864 -4.5371718 1.3011687
-3.8330472 -4.5362797 1.2925085
-3.8269467 -4.5503592 1.2978643
-3.819669 -4.5537124 1.3093474
-3.8061492 -4.5571103 1.2981591
-3.8045902 -4.5581613 1.2937309
-3.8113165 -4.5658474 1.2995106
-3.7923584 -4.5810828 1.2945596
-3.7901456 -4.5716615 1.2916285
-3.782191 -4.5853271 1.2931155
-3.785007 -4.5970654 1.3047588
-3.7678564 -4.5913329 1.3026658
-3.7593586 -4.6058536 1.2918561
-3.7654977 -4.5994573 1.3030469
-3.7601464 -4.6059093 1.296185
-3.745976 -4.6171784 1.293608
-3.7362263 -4.6215568 1.308672
-3.7406898 -4.633368 1.2938186
-3.7300971 -4.629364 1.2936962
-3.7224281 -4.6438112 1.3052081
-3.7132649 -4.6474872 1.3102729
-3.712451 -4.6404328 1.3063529
-3.693723 -4.6513085 1.2931855
-3.6857975 -4.654758 1.291679
-3.6866739 -4.6592979 1.3089756
-3.6744049 -4.6761174 1.3002495
-3.6647058 -4.6696444 1.2923821
-3.6599355 -4.674099 1.297932
-3.6500115 -4.6944318 1.2927051
-3.6602027 -4.6935749 1.298241
-3.638875 -4.6900406 1.3053023
-3.6324751 -4.6921854 1.3046099
-3.6299884 -4.7021031 1.298225
-3.6206617 -4.7106023 1.2935647
-3.6128345 -4.7064934 1.3095288
-3.6077037 -4.7166376 1.2938292
-3.6112919 -4.7236118 1.3097494
-3.6027403 -4.7323523 1.3063524
-3.5886319 -4.7377124 1.3077507
-3.5797434 -4.7398143 1.2951251
-3.5853119 -4.7471466 1.2911439
-3.5838122 -4.7546439 1.3101184
-3.5629981 -4.7662263 1.3042672
-3.5685616 -4.7550611 1.2949988
-3.5587785 -4.7626553 1.2949127
-3.5530243 -4.7717123 1.3097465
-3.542963 -4.7709575 1.3026608
-3.5369744 -4.7882586 1.2918801
-3.5343759 -4.7780657 1.3007758
-3.5303724 -4.7856059 1.2925963
-3.5189874 -4.8053432 1.3021026
-3.5115767 -4.8102164 1.3091201
-3.5051847 -4.8009176 1.3095542
-3.484637 -4.8038316 1.3061432
-3.493351 -4.8236189 1.3001186
-3.4821444 -4.8243155 1.3100085
-3.4760969 -4.8216209 1.3056153
-3.4571285 -4.8396153 1.3088735
-3.4689338 -4.8416948 1.3072679
-3.4518368 -4.8464618 1.3030559
-3.4429126 -4.8465414 1.3040314
-3.4444752 -4.8459153 1.3050491
-3.4390137 -4.8456082 1.3002714
-3.4331114 -4.8514724 1.2974761
-3.4106133 -4.8727756 1.2997802
-3.4141333 -4.8696036 1.3062655
-3.4077566 -4.8671231 1.3003136
-3.4057662 -4.8724198 1.3012264
-3.4005113 -4.8762746 1.304909
-3.3768554 -4.889791 1.3086647
-3.3774047 -4.9011488 1.2971711
-3.376972 -4.9008422 1.2911248
-3.355515 -4.9018531 1.3101969
-3.358829 -4.9037476 1.308207
-3.3449321 -4.9099369 1.3097068
-3.3487241 -4.9064455 1.2991612
-3.3460245 -4.9233828 1.2958696
-3.3292701 -4.9251432 1.2920452
-3.3315964 -4.9284673 1.309121
-3.3102336 -4.9349618 1.2974253
-3.3051088 -4.9488378 1.2991071
-3.311471 -4.94912 1.3058214
-3.3038731 -4.9547915 1.2962412
-3.2971966 -4.9506288 1.309473
-3.2725036 -4.9594283 1.3012128
-3.2663045 -4.9588847 1.3011315
-3.2706444 -4.9625139 1.3087906
-3.2582695 -4.9762669 1.2993578
-3.2497127 -4.9792309 1.2912593
-3.2440736 -4.9877238 1.3013157
-3.2301242 -4.9779897 1.3021355
-6.8792052 -2.9902 0.92360842
-6.8662057 -3.0028632 0.92177379
-6.8716655 -3.0255351 0.91810757
-6.8720293 -3.0200641 0.90891784
-6.857801 -3.0420711 0.91645366
-6.8634191 -3.0539441 0.91935885
-6.8471408 -3.0522614 0.90855044
-6.8403149 -3.070477 0.9077127
-6.6720753 -2.9961233 0.96310836
-6.6522827 -3.0023913 0.96776348
-6.6605759 -3.0058293 0.96472102
-6.6568642 -3.0204673 0.95862573
-6.6549745 -3.0247781 0.95946264
-6.6367378 -3.0336785 0.97536904
-6.6476779 -3.0525906 0.95886087
-6.6310692 -3.0613737 0.9600662
-6.6315422 -3.0781448 0.97253501
-6.4481502 -2.9910948 1.0301031
-6.4403572 -2.9967976 1.0187793
-6.4508963 -3.0069041 1.0305051
-6.4367681 -3.0295126 1.0281042
-6.4256692 -3.0326314 1.020371
-6.4406533 -3.0380955 1.0176269
-6.4347882 -3.0495706 1.015276
-6.4130039 -3.0562468 1.0233008
-6.4277153 -3.0705879 1.0118244
-6.2475829 -2.9862258 1.0665933
-6.2287116 -3.0006528 1.0826668
-6.2260008 -3.0114858 1.0820576
-6.2346015 -3.0170698 1.0803561
-6.2314644 -3.0327497 1.0850544
-6.2107158 -3.0415676 1.0756363
-6.2176881 -3.049619 1.0697505
-6.2073927 -3.0560668 1.0813802
-6.1994357 -3.0650048 1.0753183
-6.2034421 -3.0729413 1.0838939
-6.0264692 -2.9927914 1.1360812
-6.0210195 -3.0036042 1.1288255
-6.019484 -3.0159135 1.119455
-6.0185461 -3.0210431 1.1332128
-5.9992981 -3.0272675 1.1199975
-5.9953403 -3.0369871 1.1266649
-6.0007887 -3.0379353 1.1339754
-5.9921107 -3.0528564 1.1235267
-5.9917917 -3.064101 1.1328228
-5.9775229 -3.0636444 1.122859
-5.8034396 -2.9946847 1.1895772
-5.802248 -2.992511 1.1801662
-5.808301 -3.0130105 1.1868641
-5.8037133 -3.0167925 1.1768445
-5.7853565 -3.0255585 1.1890069
-5.8002033 -3.03461 1.1798501
-5.788372 -3.0333655 1.1781394
-5.7892184 -3.0477102 1.1898962
-5.7805028 -3.0660145 1.1787908
-5.7824793 -3.0743406 1.1765186
-5.7744083 -3.0641129 1.1832981
-5.7733483 -3.076884 1.180377
-5.5919638 -2.9887753 1.2388164
-5.5937219 -3.0111897 1.2278471
-5.5854888 -3.0194716 1.2362196
-5.5850821 -3.0268364 1.2436427
-5.5738215 -3.0266168 1.2404065
-5.5642605 -3.0315022 1.2309155
-5.562932 -3.0519414 1.2312043
-5.5526981 -3.0586381 1.231245
-5.5647254 -3.0615561 1.2295859
-5.5499625 -3.0677176 1.2432215
-5.5581098 -3.0665336 1.2418914
-5.5415473 -3.0913062 1.2459641
-5.3677697 -2.9980896 1.2833065
-5.3739133 -3.0024173 1.287349
-5.3726234 -3.0197158 1.2994107
-5.3545599 -3.0116956 1.2943805
-5.3459764 -3.0266001 1.2966989
-5.3570938 -3.0355346 1.3001024
-5.3481598 -3.0407712 1.2883635
-5.3408747 -3.0555305 1.2982327
-5.3399439 -3.0627339 1.2970498
-5.340332 -3.0576818 1.298852
-5.3366375 -3.0713437 1.2876571
-5.3293304 -3.0753469 1.2996454
-5.3179708 -3.0822685 1.2818402
-5.148098 -2.9983425 1.3532947
-5.1498213 -3.0068319 1.3435977
-5.1492162 -3.0106783 1.3524534
-5.1451979 -3.0098407 1.3435538
-5.1329083 -3.0259786 1.3473703
-5.1307392 -3.025456 1.3514532
-5.1297431 -3.0496032 1.3480517
-5.126935 -3.0543475 1.3384457
-5.1153116 -3.056087 1.3522879
-5.11169 -3.0707788 1.3466541
-5.1058636 -3.0663614 1.3353834
-5.1023126 -3.0678649 1.3428243
-5.1084495 -3.0929711 1.3536143
-4.9210677 -2.9982691 1.4061714
-4.9273677 -2.9952824 1.3960338
-4.929842 -2.9943647 1.3935962
-4.9082236 -3.0166991 1.3941829
-4.9099975 -3.0204828 1.3971909
-4.9013672 -3.016911 1.4056193
-4.8988853 -3.0339956 1.4065095
-4.9020276 -3.0295413 1.3989648
-4.8964314 -3.0458341 1.3970582
-4.8833842 -3.0525713 1.3971813
-4.8795376 -3.0608971 1.3991288
-4.8768649 -3.059711 1.3909568
-4.8843203 -3.0651963 1.3905903
-4.8742037 -3.0732703 1.3947717
-4.8634911 -3.0873346 1.4020455
-4.8697605 -3.0969951 1.3997614
-4.7052145 -3.0047491 1.4609976
-4.7022915 -3.0033247 1.4598061
-4.686904 -3.0005589 1.4491742
-4.6934137 -3.0090106 1.4586518
-4.6797915 -3.01789 1.4466441
-4.6842127 -3.0283802 1.4426574
-4.6767964 -3.0306191 1.4600137
-4.6697378 -3.0470443 1.4561187
-4.6584883 -3.0570688 1.4449759
-4.659956 -3.0576847 1.4509832
-4.6636987 -3.0604637 1.4523807
-4.6599369 -3.0645154 1.4417744
-4.6573572 -3.0773845 1.4605
-4.6454 -3.0809777 1.4573339
-4.6439567 -3.0951717 1.4518427
-4.6345115 -3.0980194 1.4424092
-4.4690228 -2.9904308 1.5110196
-4.4663401 -3.0070724 1.4960009
-4.4675436 -2.9967246 1.4974881
-4.4598813 -3.0121138 1.5048839
-4.4462032 -3.0155239 1.4960194
-4.4511185 -3.0194592 1.5096155
-4.4466314 -3.0251112 1.4968491
-4.4434104 -3.0431116 1.50699
-4.4433465 -3.043983 1.5094311
-4.4287653 -3.0397332 1.4955132
-4.4236088 -3.0543485 1.5084046
-4.4235735 -3.070473 1.5109075
-4.4185486 -3.0720012 1.5100051
-4.4120278 -3.0700765 1.4999549
-4.4181023 -3.0786912 1.5127299
-4.413033 -3.0964477 1.507799
-4.3943586 -3.0939527 1.5034398
-4.3884425 -3.0924799 1.5072978
-4.2351007 -2.9839473 1.5502362
-4.2367406 -2.9961238 1.5498902
-4.2322903 -3.0074139 1.5611283
-4.2149401 -3.0029478 1.5624359
-4.2150788 -3.0177436 1.5684029
-4.2161117 -3.0303147 1.5624764
-4.2071867 -3.0332649 1.5541111
-4.2054782 -3.035459 1.5541589
-4.2086926 -3.0433006 1.5628656
-4.1962581 -3.0495563 1.5592026
-4.1999574 -3.044085 1.558975
-4.1944499 -3.0644457 1.5524969
-4.189281 -3.0645564 1.5606489
-4.1728654 -3.0715253 1.5591815
-4.1751342 -3.08285 1.5688264
-4.1714277 -3.0794322 1.5518029
-4.1736393 -3.0913229 1.5577257
-4.1642084 -3.0857465 1.5673451
-4.1547213 -3.1076341 1.5550077
-4.1565194 -3.1013448 1.5622933
-4.1419725 -3.1030207 1.560923
-4.1476455 -3.1234639 1.5650588
-4.1397877 -3.1230202 1.5549449
-4.1437702 -3.1304517 1.5637169
-4.1292124 -3.1244504 1.5670133
-4.125001 -3.1390495 1.5595702
-4.1178055 -3.1401758 1.5660733
-4.1246791 -3.156194 1.5639837
-4.1219249 -3.1670566 1.5658312
-4.1115003 -3.1640568 1.5597867
-4.1137819 -3.1708577 1.5578787
-4.0974259 -3.1676867 1.5613343
-4.0969262 -3.1810222 1.5510339
-4.0865321 -3.1827118 1.5590965
-4.087358 -3.1942234 1.5589484
-4.0848799 -3.2059116 1.5499831
-4.0898366 -3.1948004 1.5656677
-4.0682821 -3.2149665 1.5511039
-4.0688095 -3.2167907 1.5514412
-4.0674815 -3.2126102 1.5605357
-4.0521898 -3.2351396 1.5685805
-4.0587983 -3.2257493 1.5655413
-4.0619435 -3.2403033 1.5549054
-4.0553808 -3.2489154 1.5683125
-4.0407481 -3.2428138 1.5559345
-4.1962352 -3.3796062 1.503848
-4.1905308 -3.3851366 1.5023272
-4.1891336 -3.3935966 1.506348
-4.182292 -3.3870754 1.514246
-4.1751051 -3.4037261 1.5120194
-4.1588154 -3.4095929 1.5129521
-4.1544728 -3.4065835 1.5089576
-4.153161 -3.4112427 1.4960854
-4.1424775 -3.4138708 1.5002708
-4.1383786 -3.4264052 1.4962215
-4.1466494 -3.4289942 1.5019412
-4.1332583 -3.4306023 1.5079906
-4.1413798 -3.4355457 1.5114336
-4.1254725 -3.4583876 1.5072443
-4.1216593 -3.458791 1.5122448
-4.1200647 -3.4676616 1.4972121
-4.1175294 -3.4769542 1.5110155
-4.0989799 -3.4697084 1.5059799
-4.0932951 -3.4765596 1.5041299
-4.1034169 -3.4841013 1.4955522
-4.09758 -3.4847107 1.5101858
-4.0860152 -3.4967346 1.5090046
-4.0883932 -3.5016935 1.5086669
-4.0873199 -3.5155663 1.5112671
-4.0704284 -3.5104556 1.4992371
-4.0685282 -3.5285878 1.5041031
-4.0616527 -3.5290298 1.5054362
-4.060966 -3.5357766 1.4997679
-4.0453067 -3.5417001 1.5129945
-4.0514898 -3.5426147 1.5044191
-4.0462427 -3.5425699 1.5009664
-4.1909623 -3.6831267 1.4574753
-4.1720691 -3.6838763 1.4484847
-4.1735053 -3.6884539 1.451333
-4.1723332 -3.7010489 1.4449972
-4.1631827 -3.696661 1.4462276
-4.1491585 -3.7103229 1.4527072
-4.1537929 -3.708231 1.4581245
-4.1440873 -3.7154212 1.4432961
-4.1411471 -3.733743 1.4532238
-4.1467743 -3.7317746 1.44886
-4.1358461 -3.7348821 1.4568769
-4.1346602 -3.7442467 1.4499961
-4.1224575 -3.7602062 1.4443821
-4.107398 -3.7601604 1.4520103
-4.1186662 -3.7561393 1.4498562
-4.1086965 -3.7632766 1.4598631
-4.0922389 -3.7802393 1.4577774
-4.0903559 -3.772696 1.4543098
-4.083293 -3.7874198 1.4583212
-4.0862947 -3.7929862 1.4500948
-4.0736523 -3.7928476 1.4445473
-4.0729847 -3.7967548 1.4554143
-4.0591903 -3.8136988 1.4560934
-4.071002 -3.8208308 1.4425827
-4.0551772 -3.8244867 1.4588505
-4.0614986 -3.8234365 1.4537306
-4.0378056 -3.8312004 1.4573901
-4.03619 -3.8423607 1.4543281
-4.1775575 -3.9845817 1.3885294
-4.1751966 -3.9824593 1.3966252
-4.1610546 -3.9929976 1.3905722
-4.1524515 -3.9881802 1.4063172
-4.1529732 -3.9948871 1.3908165
-4.1528077 -3.998733 1.393874
-4.1461449 -4.0120893 1.3989586
-4.1432061 -4.0171103 1.390769
-4.1253796 -4.0237889 1.4004836
-4.1238847 -4.0342112 1.4046985
-4.1254444 -4.0318446 1.4051811
-4.1190543 -4.0326772 1.3936262
-4.1045599 -4.0449357 1.3973655
-4.0961108 -4.0541677 1.3917471
-4.0919089 -4.0495062 1.4052386
-4.0831995 -4.070272 1.4006934
-4.0914245 -4.0699759 1.388593
-4.0745568 -4.0723495 1.397265
-4.0658712 -4.0825138 1.4050438
-4.0674624 -4.0768085 1.3881783
-4.0648313 -4.0982957 1.3994493
-4.0617094 -4.0990338 1.3956498
-4.0501347 -4.1109266 1.4053457
-4.0548124 -4.100028 1.3915557
-4.1800952 -4.2480273 1.3344251
-4.1766925 -4.255744 1.3359995
-4.1578264 -4.2573662 1.3435924
-4.151053 -4.2678099 1.3345259
-4.1555991 -4.2752643 1.3410019
-4.1523581 -4.2700152 1.3388817
-4.1459746 -4.2878475 1.3409648
-4.1283121 -4.2882786 1.3479923
-4.1344414 -4.3028631 1.3488011
-4.1308665 -4.3078623 1.3461754
-4.1210732 -4.3088942 1.3386439
-4.1146626 -4.3124676 1.3492349
-4.1066694 -4.3231268 1.3440341
-4.0910749 -4.3329735 1.3342118
-4.0845394 -4.3333344 1.3427488
-4.0915194 -4.3364315 1.3423402
-4.0806122 -4.3391304 1.3498967
-4.0676136 -4.3501592 1.3428106
-4.0675797 -4.3533182 1.3469201
-4.0667286 -4.358911 1.3518025
-4.0484958 -4.3607283 1.3414165
-4.0577865 -4.3621597 1.3532125
-4.036478 -4.3816309 1.3400958
-4.1708746 -4.5332479 1.2891304
-4.1643758 -4.5228615 1.2972741
-4.1493316 -4.5455117 1.2880419
-4.1546884 -4.5433197 1.2818241
-4.1324801 -4.5542021 1.2902817
-4.1373496 -4.5511312 1.2812761
-4.1381021 -4.553298 1.2923648
-4.1139636 -4.5633283 1.2873154
-4.1202035 -4.5687532 1.2865049
-4.1146393 -4.5789828 1.2918848
-4.1021833 -4.579217 1.293
-4.0869446 -4.5792785 1.2903284
-4.0835543 -4.5906301 1.2908241
-4.0893884 -4.5936804 1.2993207
-4.0814319 -4.6008725 1.2827353
-4.0650101 -4.6192932 1.2950122
-4.0575857 -4.6248331 1.2909048
-4.0590644 -4.6126089 1.2825406
-4.0455852 -4.633007 1.2945155
-4.0529084 -4.634232 1.2820168
-4.0348434 -4.6293998 1.2950304
-4.035656 -4.6357355 1.2937202
-4.0191317 -4.6450953 1.2867875
-4.0221043 -4.6467118 1.2825242
-4.016572 -4.6668024 1.2967794
-4.0076175 -4.6769099 1.2983155
-4.0063782 -4.6660399 1.300005
-3.9892385 -4.6831031 1.2996023
-3.9804554 -4.6931496 1.2844759
-3.9796894 -4.6969891 1.2937907
-3.9714143 -4.6892424 1.2935944
-3.970118 -4.7087936 1.2927099
-3.950124 -4.6983151 1.2881041
-3.9570551 -4.7173109 1.287511
-3.9482417 -4.7172842 1.2924476
-3.9451654 -4.7148204 1.2928878
-3.9405451 -4.7376423 1.2898004
-3.9342279 -4.7298579 1.2952428
-3.9283056 -4.7398314 1.2962228
-3.9175022 -4.7355871 1.2989378
-3.8973761 -4.7496247 1.294965
-3.8974388 -4.74893 1.2969971
-3.8983781 -4.7548132 1.295055
-3.8839161 -4.7742071 1.2996552
-3.8900392 -4.7713752 1.289811
-3.8712184 -4.7720618 1.2879503
-3.8719497 -4.7747312 1.2887776
-3.8557608 -4.7976933 1.2828904
-3.8541219 -4.801352 1.292522
-3.8514955 -4.8008323 1.29188
-3.8461468 -4.8068204 1.282674
-3.8247631 -4.8195119 1.2996266
-3.8213401 -4.8197918 1.2961508
-3.8198514 -4.8122659 1.2987264
-3.813755 -4.8175268 1.2895703
-3.7974956 -4.8306379 1.2851545
-3.8030894 -4.8311596 1.2834867
-3.7878485 -4.8421793 1.2842646
-3.7784872 -4.8382535 1.2867829
-3.7794871 -4.8584032 1.29521
-3.7811217 -4.8599133 1.2830291
-3.771955 -4.866756 1.2835273
-3.7658281 -4.8768997 1.2891068
-3.7431695 -4.8722868 1.2875645
-3.7379282 -4.8883162 1.2861035
-3.7418356 -4.8748322 1.2968642
-3.7301517 -4.8936963 1.2924267
-3.7201281 -4.9040809 1.2822841
-3.7093194 -4.8918724 1.2813717
-3.7159851 -4.9074402 1.2856047
-3.6942165 -4.9114261 1.2936137
-3.7046213 -4.9130359 1.3000557
-3.694521 -4.9153166 1.2816209
-3.6788337 -4.9217448 1.2930565
-3.6846819 -4.9297442 1.2937102
-3.6719835 -4.9284711 1.2930859
-3.6685174 -4.9423413 1.2988261
-3.6494815 -4.953023 1.2994012
-3.6405814 -4.9597373 1.2973938
-3.6325862 -4.9599671 1.2850187
-3.6403511 -4.9652848 1.2938482
-3.6200998 -4.9678707 1.2862488
-3.6133995 -4.9672275 1.2815396
-3.6051269 -4.9777751 1.2955638
-3.6054115 -4.9810562 1.2867407
-3.6050355 -4.9785314 1.2843328
-6.8979025 -2.9844944 0.96471506
-6.8934951 -2.9937844 0.96916693
-6.8796682 -3.0097914 0.96642447
-6.8715343 -3.0223584 0.97303945
-6.8853216 -3.0398996 0.96160394
-6.8666182 -3.0473526 0.97333032
-6.8616204 -3.0608473 0.97802144
-6.8729196 -3.0557625 0.97367519
-6.6742969 -2.990555 1.0163136
-6.6862392 -2.9981868 1.0223968
-6.6668782 -3.0022936 1.0214752
-6.6770287 -3.0261872 1.0208991
-6.662714 -3.0204623 1.0139452
-6.6711292 -3.0308244 1.0240481
-6.6529164 -3.0392084 1.0262274
-6.6461258 -3.0531373 1.0305656
-6.6475959 -3.0663302 1.0310148
-6.4692364 -2.9939029 1.0784798
-6.4704494 -3.0042231 1.069428
-6.4613423 -3.0106773 1.0820866
-6.4661393 -3.0219746 1.0799745
-6.4518456 -3.0276399 1.0832989
-6.4581151 -3.043221 1.0816729
-6.4513264 -3.0514607 1.079003
-6.4344215 -3.0657442 1.0772616
-6.4353251 -3.0575063 1.0708978
-6.2577863 -2.9916332 1.1329728
-6.253994 -3.0099666 1.1232448
-6.2550554 -3.0137076 1.1322405
-6.2451568 -3.0125494 1.1238203
-6.2425871 -3.0204084 1.1331352
-6.2421174 -3.0382061 1.1258112
-6.2383108 -3.046519 1.1319265
-6.2361183 -3.0523007 1.1188167
-6.2165833 -3.0654483 1.120432
-6.2187777 -3.0637822 1.1192877
-6.0344133 -2.9971542 1.1819563
-6.0333233 -2.9964943 1.182708
-6.0419497 -3.0011001 1.1684604
-6.0215683 -3.0200229 1.1841067
-6.0295954 -3.0206041 1.1806241
-6.028296 -3.0449562 1.1880678
-6.0143085 -3.0497544 1.1759167
-6.014194 -3.0566247 1.1866961
-6.0071778 -3.0682368 1.1730341
-5.9985347 -3.0663326 1.1697382
-5.991024 -3.0772755 1.175954
-5.8215919 -3.0028656 1.2236075
-5.823092 -3.0095034 1.2227653
-5.8188286 -3.0199769 1.2314354
-5.8189073 -3.0227063 1.2279533
-5.8024573 -3.0283766 1.2285423
-5.7985525 -3.0443118 1.2327505
-5.8067875 -3.0443964 1.2384999
-5.7842317 -3.0617406 1.2210422
-5.7953267 -3.0547287 1.2338881
-5.7897058 -3.0645051 1.2241846
-5.7778583 -3.0807323 1.2288224
-5.6004834 -2.9915781 1.2872953
-5.5942602 -3.0132136 1.2910997
-5.5993557 -3.0191498 1.2803047
