# .PCD v0.7 - Point Cloud Data file format
VERSION 0.7
FIELDS x y z
SIZE 4 4 4
TYPE F F F
COUNT 1 1 1
WIDTH 1562
HEIGHT 1
VIEWPOINT 0 0 0 1 0 0 0
POINTS 1562
DATA ascii
5.9795737 2.2514572 1.3306283
5.987545 2.2417815 1.3330536
5.9821858 2.265017 1.3223106
5.9822345 2.2676096 1.3207836
5.9775524 2.2849681 1.3324829
5.972084 2.2887757 1.3204241
5.9751039 2.2864382 1.3249956
5.9751182 2.3020685 1.3216697
5.9717059 2.3007154 1.3284335
5.9594636 2.3216043 1.3224868
5.9603968 2.3303554 1.3208896
5.9481096 2.3301971 1.3212709
5.9582362 2.3478103 1.3365461
5.9576082 2.3486147 1.3260765
5.9354415 2.3678908 1.3246326
5.9449625 2.3648643 1.3386679
5.9424133 2.3680348 1.3220419
5.9444242 2.3744085 1.3327265
5.9230971 2.4005704 1.3337429
5.9285226 2.3977022 1.3273374
5.92799 2.4189909 1.321377
5.9258485 2.4112275 1.3269567
5.9240766 2.4168375 1.3218526
5.9175687 2.4250777 1.3292602
5.9205794 2.4344211 1.3276561
5.9021349 2.4565673 1.3347423
5.8977146 2.4594569 1.3367201
5.896656 2.4676621 1.3367975
5.906271 2.4778564 1.3347673
5.8968906 2.4768038 1.3216041
5.8810935 2.4985576 1.3214693
5.8793244 2.5015206 1.3253155
5.8831239 2.506074 1.3265208
5.8818073 2.507493 1.3277202
5.8678875 2.5153079 1.3300215
5.8723516 2.5280752 1.3262323
5.8638906 2.5398297 1.337101
5.8573961 2.5539455 1.3279475
5.8709674 2.5611074 1.3207661
5.8624973 2.5623314 1.3243146
5.8608527 2.5712123 1.3214041
5.8590617 2.5817895 1.3332487
5.8411055 2.5796428 1.3214437
5.8443432 2.599668 1.3228594
5.8487687 2.609273 1.3238969
5.8354845 2.6068532 1.3295132
5.8383999 2.6194949 1.3387007
5.8321719 2.6291764 1.3338255
5.8167796 2.6359744 1.3279384
5.8141947 2.6378591 1.3351068
5.8151469 2.6616673 1.3229923
5.8131771 2.667264 1.3332964
5.8030405 2.6784952 1.3333002
5.8010879 2.6765664 1.3251808
5.8005395 2.682677 1.3385226
5.8010173 2.6991282 1.3213061
5.7871003 2.7021308 1.3285981
5.8023591 2.7025535 1.3374432
5.7927318 2.7112429 1.3249632
5.7772059 2.7210176 1.3262498
5.7888374 2.7354259 1.3232316
5.768343 2.7515574 1.337702
5.7781415 2.7612567 1.3353013
5.7679329 2.7527187 1.3228742
5.7695932 2.767359 1.3284656
5.7645841 2.7662156 1.3224211
5.7623472 2.774904 1.3312975
5.7473917 2.7826123 1.3325201
5.7412696 2.8044648 1.3343608
5.7426562 2.814575 1.3379102
5.7453184 2.8201106 1.3278071
5.7449512 2.8289576 1.3257803
5.7390437 2.8314199 1.3254026
5.7307239 2.8475015 1.3284423
5.7299657 2.8490825 1.338083
5.714788 2.8495052 1.3385463
5.7135544 2.8715527 1.3396695
5.7211862 2.8625174 1.3204777
5.7100296 2.871244 1.3351208
5.7007027 2.8852525 1.3318616
5.6949139 2.8858297 1.3261313
5.6990108 2.9099574 1.3212467
5.7010698 2.9121058 1.3308284
5.6827402 2.9098742 1.3285012
5.687439 2.9308355 1.3197705
5.6817679 2.9405813 1.3234828
5.6765485 2.9530666 1.3212689
5.6724415 2.9571681 1.3220513
5.6691318 2.9541085 1.3235978
5.6604538 2.9657285 1.3311958
5.6685057 2.9755771 1.3314196
5.6508164 2.9735515 1.3278252
5.6482315 2.9976246 1.3384391
5.6552176 3.0074191 1.3388867
5.6398649 3.0059743 1.3323671
5.6357708 3.0229313 1.3276697
5.6353779 3.0187531 1.3275404
5.63276 3.0345628 1.323601
5.6309142 3.0311687 1.3286958
5.6306033 3.0432141 1.3375102
5.6178799 3.0474396 1.3282788
5.6253691 3.0581148 1.329133
5.6092529 3.0703552 1.3261775
5.6037397 3.0737424 1.3251394
5.5986633 3.0859494 1.3347852
5.6070561 3.0982451 1.3335226
5.5907412 3.094342 1.3202221
5.5942855 3.1120262 1.3348777
5.5938802 3.1120801 1.3382914
5.5785584 3.11605 1.3259084
5.5720401 3.1315341 1.3299149
5.5762796 3.138756 1.3367665
5.5613623 3.1541214 1.3280344
5.5634789 3.1482444 1.3348714
5.5645466 3.1615722 1.3261032
5.5552492 3.1675854 1.3218246
5.5446782 3.1815865 1.3258427
5.5407963 3.1834464 1.3197508
5.551559 3.1892254 1.3259246
5.5457244 3.2040184 1.3282863
5.5274963 3.21664 1.338356
5.5332642 3.2178583 1.3278779
5.5258722 3.2285278 1.3250014
5.509738 3.225693 1.32849
5.5204296 3.2483158 1.3375549
5.5023427 3.2460418 1.3248876
5.4999661 3.2576084 1.3384823
5.5015969 3.2697153 1.3262036
5.4971256 3.2770181 1.331977
5.498817 3.2829301 1.3248229
5.4828596 3.2950687 1.3225757
5.4769611 3.2974401 1.3338387
5.4805737 3.2968962 1.3280692
5.4812994 3.3047044 1.3317693
5.4655027 3.3077023 1.3304026
5.6240578 3.4175408 1.28816
5.6244969 3.429333 1.2807261
5.6185203 3.4472854 1.2777287
5.6202536 3.4453065 1.2743697
5.6077499 3.4495699 1.2692649
5.6080809 3.4624376 1.2886474
5.606154 3.4739788 1.2827562
5.5954785 3.4737155 1.2886825
5.5990233 3.4787712 1.2747847
5.586257 3.4926348 1.2762589
5.7359924 3.6070883 1.2286137
5.7503705 3.6042581 1.235836
5.7373037 3.6202273 1.2331741
5.7212281 3.6227179 1.220703
5.7217827 3.6375024 1.2246718
5.7172208 3.6374273 1.2336913
5.7120309 3.6602454 1.2264421
5.7009382 3.6572192 1.2311262
5.6957607 3.6625795 1.2330695
5.8592501 3.7847953 1.1701676
5.8614802 3.793189 1.1821374
5.8469734 3.8009787 1.1832721
5.8396769 3.8007302 1.1723784
5.8497071 3.8094466 1.1759841
5.8272552 3.8237684 1.1863908
5.8287606 3.8385911 1.1687456
5.8192744 3.833297 1.1859488
5.8225269 3.841995 1.1721634
5.9716988 3.9574149 1.124864
5.9614077 3.9722767 1.117982
5.9591212 3.974633 1.131326
5.9687934 3.9877577 1.1242987
5.9595885 3.9988728 1.12887
5.9394784 4.0053167 1.1340116
5.9429622 4.0146179 1.1253365
5.9368415 4.0107455 1.1233532
6.0931067 4.1313162 1.0770333
6.086369 4.1521096 1.0822144
6.085834 4.146183 1.067903
6.0689068 4.1554804 1.0801275
6.0650854 4.1680183 1.0663898
6.0545964 4.1757665 1.0774661
6.0570683 4.1798601 1.0713547
6.0440998 4.189405 1.0833919
-0.052730117 3.8814359 1.9929835
-0.048793737 3.8710003 1.9938823
-0.046840616 3.8823841 1.9984828
-0.060288344 3.8727903 1.9953891
-0.068554923 3.8684335 1.9978896
-0.071132638 3.8729331 2.0012164
-0.081485756 3.8794074 1.9886178
-0.085576318 3.8812001 1.9953126
-0.078590393 3.8712842 1.9976541
-0.097715698 3.8742306 2.0011017
-0.10480365 3.8751814 1.9947207
-0.098840408 3.8854613 1.9979831
-0.11197806 3.8830869 1.9927156
-0.12051506 3.8726573 1.9979483
-0.11214554 3.8793533 1.9989258
-0.12127518 3.8688641 1.984512
-0.12707788 3.8734136 1.9966891
-0.14547883 3.8792644 1.990783
-0.13718468 3.8774929 1.9950927
-0.14654878 3.8819878 1.9824883
-0.15246499 3.8847859 1.9909812
-0.16476184 3.8789384 1.9899085
-0.15379599 3.865344 1.986623
-0.16809726 3.8686035 1.9930774
-0.17716546 3.865623 1.9864048
-0.18525586 3.8789027 1.9894272
-0.18775968 3.8717699 1.9971913
-0.19808607 3.8716257 1.9910059
-0.19431807 3.865165 1.983256
-0.20623997 3.8747292 2.0002155
-0.21076596 3.863766 2.0001953
-0.20679851 3.8658943 1.9945573
-0.22390348 3.8643765 1.9955622
-0.22429341 3.8739455 2.0000713
-0.21822855 3.8798335 1.9818519
-0.23883584 3.8630183 1.9971724
-0.23642014 3.869086 1.9856271
-0.24623989 3.8702135 1.9942125
-0.2422446 3.8604951 1.9966197
-0.24599867 3.8642402 1.9888809
-0.25279269 3.8688445 1.9904765
-0.25960639 3.8628011 1.9945053
-0.27205759 3.8650367 1.9973291
-0.28350332 3.8722665 1.9900417
-0.29043946 3.8709445 1.9889699
-0.29559433 3.874398 1.9914181
-0.28542829 3.8656497 2.0002766
-0.30680683 3.8724637 1.9906126
-0.29959935 3.8686545 1.9915879
-0.30998415 3.866472 1.9966736
-0.30810705 3.8628762 1.9867363
-0.32463378 3.8578465 1.9911357
-0.31713098 3.8657451 1.9981587
-0.3268038 3.8675766 1.9928067
-0.34376335 3.8678505 1.9865353
-0.34179395 3.8683472 1.984128
-0.33737573 3.864387 1.9933902
-0.34409845 3.8644249 1.9898918
-0.36048433 3.8570464 1.983017
-0.35589418 3.8646581 1.9944001
-0.36621761 3.8595221 1.9826354
-0.36647764 3.8632331 1.9862963
-0.38233748 3.8598206 1.9983188
-0.3911736 3.852108 1.9926432
-0.38536099 3.852808 1.9877195
-0.3858189 3.8608489 1.983778
-0.40868339 3.8586788 1.9963692
-0.40228489 3.8551562 1.989499
-0.419384 3.8606172 1.9957581
-0.42335716 3.8560369 1.9901445
-0.41594622 3.8465011 1.9999177
-0.42029926 3.8620725 1.9939327
-0.44099045 3.8471508 1.9850731
-0.42965835 3.8487585 1.9890463
-0.44400087 3.8615439 1.9942727
-0.44326624 3.8592355 1.9881004
-0.44647226 3.859426 2.0003262
-0.45708609 3.8513777 1.9896048
-0.45456931 3.8515921 1.9849274
-0.46579257 3.8531942 1.9962603
-0.48262843 3.8475676 1.9986553
-0.48969007 3.8429472 1.9972274
-0.48273584 3.8429942 2.0014906
-0.48464027 3.8397307 1.9879822
-0.50257045 3.8474815 1.987887
-0.49527332 3.8413229 1.9861189
-0.5141474 3.8373129 1.9851844
-0.52079469 3.8480434 1.996852
-0.51816231 3.8466439 1.9893919
-0.52020633 3.8393734 1.9841994
-0.53091657 3.8406181 1.9940531
-0.53923059 3.8401518 1.9999669
-0.52897149 3.831989 1.9866153
-0.53444809 3.8472703 1.9906957
-0.55343211 3.8299687 1.9832296
-0.5525102 3.8453109 1.9903152
-0.55335528 3.8271244 1.9941088
-0.57513374 3.8276353 1.9893582
-0.56524348 3.8361218 1.9839406
-0.58281225 3.8279066 1.9919927
-0.5855723 3.8343229 1.9820373
-0.57847744 3.8377652 1.9923706
-0.58546776 3.8368063 1.9953036
-0.60580844 3.8357086 1.994288
-0.60206759 3.8209643 1.9967483
-0.60579157 3.832478 1.9953358
-0.62242872 3.8284814 1.9965292
-0.61527109 3.8280404 1.9990333
-0.63286287 3.8228221 1.9908313
-0.63587093 3.8253667 1.995229
-0.6308257 3.830482 1.9868652
-0.63573462 3.8280213 1.9827735
-0.65030903 3.8238983 1.9985598
-0.64194906 3.8247616 1.9940934
-0.65460348 3.8146918 1.9957346
-0.66479623 3.8262224 1.9897488
-0.67640018 3.8264391 2.0006335
-0.66680938 3.8191359 1.9919515
-0.67471319 3.8195617 1.9989331
-0.69081771 3.8222992 1.9893488
-0.68252313 3.8154006 1.9857761
-0.70259106 3.8089101 2.0006468
-0.70674926 3.8131611 1.9923064
-0.69511968 3.8110869 1.9857482
-0.70795524 3.8016715 1.9900464
-0.71914822 3.8073757 1.9868093
-0.71632552 3.8067865 1.9847302
-0.72261667 3.8010976 1.9962966
-0.73758847 3.812813 1.9892449
-0.74557716 3.8137307 1.9858944
-0.7431488 3.8082485 1.996616
-0.74429154 3.8080027 1.9818256
-0.75056207 3.8089011 1.992272
-0.76517171 3.8067305 1.9816374
-0.76633799 3.7970245 1.9825881
-0.76320451 3.8014238 1.9902509
-0.76330668 3.7939432 1.99834
-0.7854864 3.8054669 1.9817631
-0.77609819 3.7873132 1.997932
-0.79376 3.7864637 1.9960562
-0.79477084 3.793334 1.9897434
-0.80505848 3.7843516 1.9842368
-0.81013495 3.7943869 2.0006888
-0.80476344 3.7950997 1.9960374
-0.81002492 3.7799315 1.9827545
-0.81433415 3.7931812 1.994953
-0.83097893 3.7916107 2.0007601
-0.83953297 3.7931418 1.9991879
-0.84466231 3.7893405 2.0005662
-0.83362108 3.7931552 1.9822067
-0.84445405 3.7812352 1.9918363
-0.86159819 3.7843025 1.9936098
-0.86424708 3.7875664 1.9865522
-0.87044233 3.7814736 2.0013485
-0.86128736 3.7753892 1.9821252
-0.86541355 3.7702639 1.9973072
-0.87733948 3.7737606 1.9920819
-0.88345653 3.7739685 1.9895582
-0.89114404 3.7743104 1.984411
-0.89745146 3.7709556 1.9842638
-0.90211666 3.7620277 1.9933891
-0.89715052 3.7612145 1.9867818
-0.91040915 3.7630093 1.9846458
-0.91072351 3.7638638 1.9976314
-0.9162398 3.7591269 1.9857547
-0.92097753 3.7555156 1.989982
-0.93053156 3.7652285 1.9989426
-0.94530898 3.7540724 1.9893552
-0.94260824 3.7604756 2.0013611
-0.9450528 3.765816 1.9912708
-0.94764286 3.7517343 1.9935188
-0.96110553 3.7478602 1.996227
-0.96117365 3.7559669 1.9820106
-0.96337599 3.748997 1.9899367
-0.97259068 3.7417467 1.9944212
-0.97368032 3.7549927 1.9965972
-0.99054068 3.743917 1.9897958
-0.9784385 3.7432942 1.9931557
-0.99592179 3.7506011 1.9842433
-1.0013971 3.74069 1.9820033
-0.99696094 3.7334137 1.9870209
-1.0102746 3.7378979 1.9895107
-1.0208783 3.747535 2.001461
-1.0256963 3.7401891 1.9878025
-1.0225862 3.7288458 1.9882621
-1.0349895 3.7416284 1.9833434
-1.0452148 3.742764 1.988732
-1.0422395 3.7412136 1.9948882
-1.0359023 3.7273896 1.9897487
-1.0584754 3.7332976 1.996103
-1.0632864 3.7288477 1.9965932
-1.0630778 3.7362878 1.982987
-1.0603774 3.7183261 2.0004447
-1.0657244 3.720746 1.9919902
-1.0847278 3.7314739 1.9936337
-1.0832696 3.7149944 1.9895084
-1.0867279 3.7134831 1.9879744
-1.0847955 3.720139 1.986353
-1.0967046 3.7183216 1.9923776
-1.0937511 3.7191188 1.985788
-1.1044412 3.7202904 1.9962332
-1.1146388 3.7068541 1.9956105
-1.1184405 3.7012997 1.9985254
-1.1247824 3.7155776 1.9853668
-1.1195766 3.7160292 1.9844499
-1.1327249 3.703114 1.9885743
-1.1299964 3.7119133 1.9927157
-1.1487997 3.7078161 1.9850483
-1.149222 3.6969783 1.9971063
-1.1636175 3.6942604 1.9915115
-1.1646004 3.7060168 1.9886453
-1.1551356 3.6927378 1.9939072
-1.1662915 3.7008169 1.9951862
-1.17453 3.687712 1.992322
-1.1759249 3.6849682 1.9914951
-1.1782345 3.6942298 1.9993464
-1.1964172 3.6913707 1.9975975
-1.1904563 3.6948576 1.9933587
-1.1921602 3.6830685 1.999897
-1.2018038 3.6820285 1.9853395
-1.2170401 3.6851475 1.9841675
-1.21514 3.6828713 1.9913528
-1.2279756 3.6745768 1.9882609
-1.2195297 3.6831789 1.9937146
-1.2339458 3.675519 1.9980826
-1.2291864 3.6706803 1.9933773
-1.2365732 3.6727872 1.9874852
-1.2457066 3.6659811 1.9867593
-1.259076 3.6625943 1.9959309
-1.2659048 3.6746855 1.9857562
-1.2672887 3.6566591 2.0004015
-1.2698421 3.6656494 1.9944787
-1.2652076 3.6669183 1.9819765
-1.2836628 3.6617448 1.9997988
-1.2766616 3.6472645 1.9916908
-1.2852898 3.6626506 2.0004807
-1.2986208 3.6557543 1.9931213
-1.2978414 3.6448267 2.0007064
-1.2977854 3.6456294 1.9866633
-1.3085551 3.6447003 1.9864763
-1.3094971 3.6474819 1.9900353
-1.315791 3.6528025 1.9843642
-1.3280053 3.6478472 1.9817483
-1.3327192 3.629524 1.9957527
-1.3396081 3.6432869 1.9970775
-1.3346025 3.6335037 1.9955962
-1.3408042 3.635469 1.9890336
-1.3543628 3.623291 1.9933656
-1.3603334 3.6362436 2.0003293
-1.3603448 3.6234984 1.9882003
-1.3605404 3.634881 2.0006964
-1.3771743 3.6250362 2.0003636
-1.3794767 3.6280417 1.996933
-1.384392 3.6113951 1.9970437
-1.3753005 3.6129186 1.992789
-1.3848814 3.6245041 2.0006299
-1.3959409 3.6149418 1.9923218
-1.3935603 3.6168723 1.9937288
-1.4068449 3.6178808 1.9899883
-1.4131628 3.6039238 1.9954097
-1.4116071 3.6148145 1.9941275
-1.4175526 3.6141119 1.9849219
-1.4238281 3.5961449 2.0006499
-1.4335315 3.5982978 1.9816663
-1.4431213 3.5945747 1.9861485
-1.436963 3.6063006 1.9841655
-1.442961 3.591994 1.9945768
-1.4572642 3.5850925 1.9888817
-1.4501575 3.5899279 1.9861654
-1.4667885 3.5934644 1.9914696
-1.4579954 3.5835724 1.9896488
-1.4704814 3.5927484 1.9891169
-1.4721702 3.5806596 1.9926165
-1.4781282 3.5838749 2.0002744
-1.4830668 3.5825057 1.9862214
-1.4835204 3.5722969 1.9859139
-1.4859539 3.5810893 1.9933261
-1.4979732 3.580575 1.9958701
-1.4956847 3.572161 1.9852901
-1.5161095 3.5721068 2.0002937
-1.5112273 3.565834 1.9874598
-1.5281627 3.5720601 1.9858632
-1.5256271 3.5615795 1.9942459
-1.5195889 3.5501204 1.9879193
-1.52589 3.5586989 1.9823056
-1.5462408 3.5517974 1.9885721
-1.5468963 3.5474331 1.9857272
-1.5401366 3.5560172 1.9844711
-1.5508298 3.5518544 1.996911
-1.5521001 3.5522287 1.9914138
-1.5583636 3.542444 1.9817674
-1.5774578 3.5406797 2.000478
-1.5781456 3.5464041 1.9908457
-1.5704477 3.5431163 1.9918989
-1.5890732 3.5384746 1.9836822
-1.5933093 3.5384257 1.9907227
-1.5912758 3.5226624 1.9955641
-1.5920841 3.5185964 1.9911619
-1.5941453 3.5287724 1.9847761
-1.6037635 3.5226097 2.0009508
-1.6188757 3.5151124 1.9895337
-1.6236311 3.5134463 1.9985523
-1.6296729 3.5160153 1.9955019
-1.6253437 3.5112016 1.9913774
-1.6399583 3.5126789 1.9848317
-1.6427861 3.5148332 2.0004644
-1.6385705 3.5039313 1.9825683
-1.6495101 3.4971285 1.9828472
-1.6448487 3.5131681 1.9955502
-1.6465698 3.5044906 1.9843452
-1.6521131 3.5055983 1.9879047
-1.6690701 3.4868453 1.9920666
-1.6770053 3.4869418 2.0010729
-1.6679876 3.4962556 1.9875474
-1.6830912 3.4958401 1.9977884
-1.6847371 3.4774783 1.9924797
-1.6907469 3.4882107 1.9985718
-1.6946497 3.4728789 2.0001705
-1.6982701 3.4870806 2.0001252
-1.7091844 3.4844303 1.9937254
-1.7113001 3.4811022 1.9907634
-1.7098532 3.4656796 1.9913851
-1.7242408 3.467181 1.9944469
-1.7296189 3.4625559 1.9891729
-1.728519 3.46768 1.9858403
-1.7371747 3.4560072 1.9865098
-1.7311358 3.4631708 2.0002825
-1.7390014 3.4512744 2.0011008
-1.7452649 3.4605968 1.9985051
-1.7515702 3.443841 1.9956499
-1.764272 3.4498022 1.9918646
-1.7599322 3.44204 1.9950612
-1.7749672 3.4447157 1.9821702
-1.766937 3.4468362 1.9870723
-1.7841773 3.434876 1.999523
-1.7847466 3.4390759 1.9827327
-1.7846431 3.4341271 1.9955441
-1.7907633 3.4261217 1.9989038
-1.7960618 3.4366586 1.9940376
-1.8039523 3.4256923 1.9948741
-1.8146945 3.4268231 1.9841369
-1.8092185 3.4170892 1.9881091
-1.8205425 3.4171121 1.9972357
-1.8247538 3.4099538 1.990968
-1.8240595 3.4103401 1.9952317
-1.8309107 3.4149384 1.986194
-1.8345488 3.4044187 1.9947127
-1.845372 3.4125528 1.9977379
-1.8528318 3.4001598 1.9938186
-1.845154 3.4046438 2.0014584
-1.8566363 3.4031494 1.9927609
-1.858852 3.3918915 1.9968681
-1.857092 3.3940666 1.9835435
-1.8662018 3.3967836 1.9856124
-1.8815756 3.3849449 1.9906261
-1.872682 3.391001 1.9828033
-1.8728223 3.3781617 1.9870325
-1.8844404 3.3792381 1.9819745
-1.8930295 3.3775904 1.9871085
-1.9055341 3.3683522 1.999318
-1.9103954 3.3723598 1.9926314
-1.9039503 3.3788764 1.9972918
-1.9133943 3.3718739 1.9867388
-1.9161593 3.3604791 2.0015209
-1.9168515 3.3584239 1.9870889
-1.9325264 3.3699725 2.0013442
-1.9360201 3.366087 1.9853983
-1.9352809 3.3552861 1.9931731
-1.9395959 3.360595 1.9819512
-1.9387733 3.3580945 1.9841487
-1.9457374 3.3554244 1.993018
-1.9593841 3.3438871 1.9910747
-1.9483665 3.3475897 1.9848061
-1.9678982 3.3332078 1.9898263
-1.9726441 3.3428104 1.9954817
-1.971818 3.3414109 1.9953828
3.9896121 -4.9889874 1.3364928
3.9897943 -4.9833431 1.3308429
3.9921198 -4.9752851 1.3220656
3.9984541 -4.9720988 1.3359346
4.0174007 -4.9683051 1.3315412
4.0197959 -4.9618387 1.3294959
4.0202684 -4.9515181 1.3224322
4.0206623 -4.9504471 1.3244987
4.0374537 -4.9436703 1.3351171
4.0530581 -4.9300313 1.322726
4.0497155 -4.9254556 1.3307649
4.0534277 -4.9276609 1.3388991
4.0714822 -4.9144969 1.3295331
4.060751 -4.921946 1.337785
4.0838814 -4.9173889 1.3242525
4.0826101 -4.8973694 1.3315985
4.0992861 -4.9038014 1.3236681
4.0888901 -4.8967566 1.3312017
4.1005526 -4.8798294 1.3198954
4.1028252 -4.8741984 1.3366017
4.112699 -4.8788037 1.3322479
4.1306038 -4.8665824 1.3200428
4.1366348 -4.863184 1.3353467
4.1332917 -4.8573861 1.3375362
4.1381927 -4.85532 1.3386085
4.1495528 -4.8413787 1.3340166
4.1682506 -4.8376074 1.3372989
4.1590104 -4.8310704 1.3219227
4.1772957 -4.8197012 1.3377609
4.1842661 -4.8128805 1.3335078
4.1879349 -4.8230004 1.3389176
4.187242 -4.802021 1.3308074
4.1943355 -4.8018093 1.3203449
4.1967249 -4.7917304 1.3299197
4.2212958 -4.7835331 1.3357909
4.2269306 -4.7907491 1.3298241
4.2279654 -4.7860332 1.3218397
4.2322741 -4.7773151 1.3345941
4.2411981 -4.7770615 1.3329104
4.2459526 -4.7565794 1.3322301
4.2464452 -4.759161 1.3356035
4.2523398 -4.7491617 1.3341199
4.2701159 -4.7387857 1.327003
4.277421 -4.7327294 1.3241102
4.2742929 -4.7288032 1.3235507
4.2770271 -4.725935 1.3299017
4.2937865 -4.7287164 1.335086
4.3025537 -4.7138653 1.323096
4.3040662 -4.7167583 1.325458
4.3038869 -4.7015567 1.3223917
4.3230186 -4.6925135 1.3308233
4.3255157 -4.6842189 1.3233249
4.3265204 -4.6847839 1.3202639
4.3404002 -4.68467 1.3373111
4.3513784 -4.6743031 1.3323272
4.3617887 -4.6678119 1.3242453
4.358542 -4.6711626 1.3274062
4.3604703 -4.6523404 1.3394332
4.3704009 -4.6585908 1.3225733
4.3826847 -4.651597 1.3349117
4.3918939 -4.63204 1.3302809
4.3895259 -4.6365457 1.3279226
4.3996511 -4.6265984 1.3389686
4.4067063 -4.609314 1.3240886
4.4108005 -4.6075869 1.3335261
4.4099026 -4.601975 1.3233968
4.4209137 -4.6061287 1.3238491
4.4350772 -4.5948625 1.3370471
4.4412589 -4.5801668 1.3379093
4.4505725 -4.57968 1.3396705
4.4522157 -4.576468 1.3348851
4.4492192 -4.5620995 1.3394811
4.4638557 -4.5640726 1.3279028
4.4695296 -4.5654483 1.3274775
4.4803152 -4.54918 1.3226396
4.4805293 -4.5402508 1.3372644
4.4906054 -4.5467429 1.3215779
4.5011249 -4.525496 1.3309906
4.5048337 -4.5244823 1.3289226
4.5093961 -4.5205622 1.3211569
4.5157108 -4.5213971 1.3304093
4.5172319 -4.5116177 1.3278276
4.5233397 -4.4935827 1.3370612
4.5378604 -4.4962459 1.3386983
4.5319467 -4.4944873 1.3303745
4.5411868 -4.4788694 1.3247412
4.5450425 -4.4795218 1.3263685
4.5532031 -4.4759917 1.3229868
4.5707674 -4.4550815 1.3343538
4.5662546 -4.4559288 1.323367
4.5739675 -4.4567723 1.3252627
4.5909238 -4.4423981 1.330646
4.58529 -4.4282093 1.3277642
4.5888801 -4.4257846 1.33591
4.5940986 -4.4155498 1.3394964
4.6109843 -4.4223423 1.332374
4.6222281 -4.4115372 1.3382641
4.6150899 -4.3988214 1.32134
4.6245613 -4.3947816 1.3389733
4.6253905 -4.4014864 1.3293977
4.6352239 -4.3867016 1.3326081
4.646944 -4.3811741 1.323814
4.6440387 -4.3674865 1.3228209
4.6582417 -4.3564048 1.3378561
4.6605821 -4.3662915 1.3367212
4.6664996 -4.3454709 1.3223802
4.6652861 -4.3395762 1.332422
4.6899529 -4.3469806 1.3287489
4.6776867 -4.3310647 1.3226758
4.6830449 -4.3204622 1.3234497
4.6988182 -4.3261604 1.332552
4.697793 -4.3062625 1.3207161
4.7079644 -4.3153858 1.3360944
4.7171335 -4.2964125 1.3360721
4.7213287 -4.3011961 1.339672
4.7243795 -4.2861509 1.3375931
4.7330804 -4.2783985 1.3349009
4.7318139 -4.2720494 1.3382883
4.7468653 -4.2640276 1.3310665
4.7558336 -4.2566996 1.3279135
4.7655673 -4.2596412 1.3325211
4.7643938 -4.2496424 1.3304759
4.7713752 -4.2354965 1.3327487
4.7737255 -4.2381973 1.3274279
4.7760444 -4.2227092 1.3307478
4.7819533 -4.2301669 1.3225294
4.7857747 -4.2149124 1.335471
4.8068943 -4.206903 1.3281611
4.8113918 -4.2098122 1.3222641
4.8086586 -4.189713 1.3370775
4.8227625 -4.1858311 1.3223236
4.821465 -4.189065 1.3309348
4.8381128 -4.1712503 1.3270495
4.8370237 -4.1770082 1.333813
4.850605 -4.1663618 1.3294058
4.8474965 -4.1557112 1.3308735
4.8561602 -4.1471343 1.3209206
4.8577561 -4.1433249 1.3322934
4.8720326 -4.1408939 1.3340653
4.8604026 -4.1270642 1.3292365
4.8835764 -4.124989 1.3215811
4.8719869 -4.1100597 1.3239756
4.888999 -4.1043224 1.3374603
4.9021163 -4.105504 1.338454
4.901988 -4.0989251 1.3233533
4.8974428 -4.0812659 1.3321545
4.9143553 -4.0807452 1.3227751
4.9213057 -4.0644207 1.3304404
4.9196196 -4.0596032 1.333763
4.9196954 -4.0521889 1.3241336
4.9349332 -4.0473652 1.3297906
4.9425058 -4.039885 1.323579
4.9524632 -4.0411382 1.3362993
4.9558959 -4.0350099 1.3210245
4.9603124 -4.0347357 1.3255069
4.8195868 -3.902668 1.3717377
4.8175139 -3.88166 1.3807329
4.8260531 -3.8793993 1.3792068
4.8222475 -3.8845134 1.3756449
4.8417554 -3.8752301 1.3726358
4.8316245 -3.8563781 1.3875812
4.8471413 -3.8556132 1.3831291
4.8564372 -3.8505409 1.3905387
4.8584437 -3.8476763 1.3771837
4.8651657 -3.8260257 1.3772017
4.8563609 -3.8206899 1.3803227
4.8628588 -3.8228679 1.3777448
4.8783422 -3.8219388 1.3707128
4.8722901 -3.8102376 1.3718444
4.8826666 -3.8044415 1.3755295
4.8900242 -3.7941799 1.3713289
4.8923182 -3.7937958 1.3811485
4.9101501 -3.7895012 1.3892878
4.9153824 -3.7685754 1.3735318
4.9072499 -3.7662933 1.3726586
4.919126 -3.7581728 1.3903462
4.9141135 -3.7489014 1.3790733
4.9265132 -3.7494845 1.3819395
4.9318714 -3.7414479 1.3897096
4.9383521 -3.7283535 1.3764708
4.9485078 -3.7332106 1.3866813
4.9544535 -3.7210736 1.390456
4.9502091 -3.7163949 1.3716983
4.9540944 -3.7117646 1.3870318
4.8073645 -3.5846553 1.4287244
4.8144393 -3.5670307 1.4407696
4.8191929 -3.5596707 1.4352293
4.832664 -3.5651536 1.422242
4.8289919 -3.5505114 1.4304202
4.8330803 -3.5546124 1.4248139
4.8439207 -3.5337715 1.4274647
4.8449621 -3.5321891 1.4353592
4.8497691 -3.520046 1.4410322
4.8558083 -3.5292025 1.4244276
4.857172 -3.515415 1.4321349
4.8693004 -3.4995563 1.4307609
4.8734636 -3.5039392 1.430034
4.8720775 -3.4998364 1.4371045
4.8776946 -3.4843819 1.4320904
4.8914804 -3.4898055 1.4362416
4.8796506 -3.469346 1.4344931
4.8904619 -3.4727929 1.4275792
4.8891582 -3.4563718 1.4260541
4.913518 -3.4588399 1.428611
4.9012632 -3.4448643 1.4381872
4.9167066 -3.4436707 1.4368469
4.9107666 -3.4432142 1.4243416
4.9240899 -3.4290352 1.4291502
4.9244738 -3.4141209 1.4226178
4.9398346 -3.4102931 1.4238592
4.9393368 -3.4031584 1.4387509
4.9370804 -3.3900657 1.4233793
4.9479012 -3.3831203 1.437606
4.9571867 -3.3766499 1.4225349
4.9490199 -3.3872585 1.4346031
4.9704194 -3.367239 1.4410218
4.970469 -3.3579657 1.441047
4.8179808 -3.2515376 1.4793135
4.810163 -3.2383628 1.4747123
4.8158035 -3.2346048 1.4870687
4.8226757 -3.2361124 1.4796833
4.8244305 -3.2246342 1.4785074
4.8308039 -3.2070837 1.4773868
4.8313951 -3.2049863 1.4758401
4.8369055 -3.1957853 1.4767816
4.854475 -3.189904 1.4908327
4.8584533 -3.188683 1.4872408
4.8624477 -3.1846278 1.4745265
4.8537803 -3.1729295 1.4882809
4.8605018 -3.1601207 1.479081
4.8595705 -3.1649601 1.4816549
4.8712444 -3.1525557 1.4889821
4.8817329 -3.1382794 1.4871285
4.8910913 -3.1479044 1.4806346
4.8788934 -3.1365018 1.4765981
4.8876276 -3.1320033 1.4916927
4.8904033 -3.1279902 1.4812517
4.9095778 -3.1044376 1.4881035
4.896028 -3.1139977 1.4798846
4.9162235 -3.1012719 1.4776996
4.9072094 -3.0939038 1.4838941
4.9207597 -3.0792785 1.4757056
4.9216275 -3.0785723 1.4749998
4.9206324 -3.0729055 1.4778694
4.9331336 -3.0638249 1.4853356
4.9415884 -3.0503891 1.4904884
4.9451289 -3.0585468 1.4728361
4.9382181 -3.0518904 1.4919121
4.9381499 -3.0431337 1.4745978
4.9498529 -3.0385225 1.4831729
4.9593616 -3.0272567 1.4922738
4.9550552 -3.0267625 1.4891514
4.9625502 -3.0097127 1.4798807
4.9693303 -2.9979608 1.4894162
4.9789701 -2.9980009 1.4811659
5.1416245 -3.0938578 1.4285599
5.1440034 -3.0902288 1.4318365
5.1487198 -3.0777743 1.434885
5.1525025 -3.0696428 1.4397999
5.1589608 -3.0540531 1.4224294
5.1539841 -3.05319 1.4294225
5.1780977 -3.0408595 1.4300015
5.1790795 -3.0452495 1.4407163
5.1707802 -3.0270662 1.4362627
5.1720066 -3.0234399 1.4248433
5.1849723 -3.0269046 1.4306237
5.1962409 -3.0123072 1.4328641
5.1907763 -2.9973001 1.4403839
5.1883497 -3.0028074 1.4288543
5.3783092 -3.0828767 1.3748088
5.3835421 -3.0752323 1.3853521
5.3757577 -3.0677407 1.3810275
5.3885417 -3.063524 1.3851079
5.3920298 -3.0518529 1.3801608
5.3910537 -3.0431921 1.3716232
5.3986483 -3.0457919 1.3723984
5.3920121 -3.0413392 1.3805425
5.4076061 -3.0265574 1.3764591
5.4107094 -3.0183985 1.3796283
5.4022727 -3.0119469 1.3722152
5.4106989 -3.0045736 1.3849605
5.4296575 -2.9892855 1.3777056
5.5934906 -3.0791807 1.3362505
5.5923147 -3.0759535 1.3298814
5.6061807 -3.0579708 1.3246632
5.6114984 -3.0566523 1.3293294
5.6175804 -3.0462177 1.3309264
5.6117954 -3.0444262 1.3197774
5.6219163 -3.0437586 1.3292537
5.6151953 -3.035744 1.337642
5.6210504 -3.0235093 1.325858
5.6396399 -3.0165112 1.3218111
5.6309633 -2.999074 1.3339893
5.6317396 -2.9871178 1.3215952
5.8168907 -3.0764189 1.2884595
5.8261847 -3.0736177 1.2797499
5.8201332 -3.0690064 1.2736574
5.8356676 -3.0544412 1.281533
5.8400416 -3.0540054 1.2822471
5.8338804 -3.0445299 1.2831403
5.8360963 -3.033428 1.2884272
5.8465166 -3.0279539 1.2728653
5.852879 -3.015363 1.2868874
5.851408 -3.0061913 1.2850071
5.8575315 -3.0068078 1.2767904
6.0335565 -3.0706272 1.232347
6.0288539 -3.0763502 1.2353188
6.0380468 -3.0508165 1.2247348
6.0551038 -3.0451751 1.2264595
6.0528631 -3.0499494 1.2295268
6.0515037 -3.0367517 1.2355573
6.0554194 -3.0173655 1.218917
6.0637612 -3.0158377 1.2267169
6.0661139 -2.9999905 1.235532
6.0665741 -3.0022178 1.2355682
6.0788059 -2.9847364 1.2318128
6.2509651 -3.0617983 1.1830008
6.2527399 -3.0681691 1.1822208
6.2639184 -3.0617573 1.1786557
6.2768092 -3.0418494 1.1818837
6.2727551 -3.0275519 1.169871
6.2747197 -3.0335779 1.1688
6.2800317 -3.0154893 1.1808064
6.2931309 -2.9992642 1.1802037
6.2950335 -3.0067828 1.1689115
6.2969599 -2.9862618 1.1866328
6.4697599 -3.074338 1.1334416
6.4701295 -3.0615711 1.1160766
6.489706 -3.0419011 1.1163954
6.4857049 -3.0336037 1.1278881
6.4849191 -3.0336111 1.1249385
6.4921083 -3.0158932 1.1272172
6.4982138 -3.0170901 1.1188325
6.4963126 -3.0094018 1.1179154
6.5137963 -2.9840136 1.1207162
6.6756473 -3.0618 1.0843498
6.6996474 -3.0644491 1.0651629
6.7013621 -3.0510104 1.069718
6.7056994 -3.0422637 1.0849118
6.7103419 -3.0217741 1.0793663
6.7064643 -3.0263138 1.0847704
6.7196245 -3.0078952 1.0788436
6.7150497 -3.0075898 1.0826653
6.8986421 -3.072335 1.0141956
6.9048495 -3.0645988 1.0329667
6.9138441 -3.0548642 1.0257901
6.9173779 -3.0454097 1.0266409
6.9217119 -3.0385075 1.0316008
6.9105868 -3.0115228 1.0159721
6.9146428 -3.0041366 1.0314916
6.9331393 -3.0048563 1.0331242
6.9370265 -2.9966316 1.0238218
7.1125164 -3.0539029 0.97454697
7.114378 -3.0513687 0.98102486
7.1186757 -3.0469131 0.96562147
7.1217303 -3.0377352 0.97032934
7.1375942 -3.0092826 0.9748624
7.1342955 -3.0007424 0.97666222
7.1359429 -3.0075591 0.97580558
7.3202314 -3.0695193 0.92176896
7.321846 -3.061959 0.92827851
7.325079 -3.0347035 0.91335386
7.3389955 -3.0336795 0.92821229
7.3345418 -3.0150652 0.91568625
7.3365517 -3.0164113 0.91769141
7.3431435 -2.9989471 0.91894388
7.3544292 -2.9898491 0.91871256
7.5293441 -3.0612504 0.86616039
7.5270357 -3.0419729 0.86776215
7.5438561 -3.0408792 0.87242991
7.5375438 -3.0224502 0.87444896
7.5577269 -3.0050528 0.87350863
7.5629702 -2.9979899 0.86337161
7.5630574 -2.9996173 0.86162215
7.7504191 -3.0546873 0.81737489
7.7400551 -3.0358918 0.81127214
7.7509289 -3.030004 0.82402313
7.7615557 -3.0124915 0.82810658
7.7505345 -3.0015535 0.8209613
7.7610998 -2.9980476 0.82439744
8.3199654 0.50338197 0.8908416
8.3277798 0.5187127 0.87718296
8.3309879 0.52476317 0.88608456
8.3340006 0.53467274 0.87947112
8.3232107 0.54646003 0.87750763
8.3149157 0.55650645 0.88785499
8.3282423 0.55956352 0.8732661
8.3216553 0.57681459 0.88784486
8.3226709 0.59132087 0.8821246
8.3243866 0.5989989 0.87738705
8.3167524 0.61249977 0.87242651
8.3154163 0.6345036 0.89118326
8.320406 0.6404202 0.88437808
8.1210756 0.63520461 0.92537516
8.1283426 0.65453267 0.93704498
8.1136293 0.66631919 0.92715192
8.1292477 0.67220241 0.9287076
8.1302624 0.67228478 0.93590719
8.1258392 0.69418472 0.92600697
8.1156797 0.69861829 0.93217981
8.1207676 0.71625203 0.94024968
8.1208782 0.733401 0.93872076
8.11973 0.73640645 0.93150705
8.1117611 0.75417006 0.92234343
8.1152697 0.76007825 0.9211787
8.1104317 0.77216762 0.94047248
7.9227815 0.76241529 0.98382682
7.9096007 0.77270329 0.98643404
7.923604 0.77950966 0.97961706
7.907692 0.79711407 0.98591089
7.9179368 0.80077893 0.978517
7.9162369 0.82554376 0.97695202
7.912992 0.83016515 0.98707378
7.9025183 0.84783804 0.98364186
7.9028654 0.85005534 0.97480237
7.9020324 0.86848688 0.98673779
7.9004779 0.87323958 0.97597814
7.9127579 0.88586909 0.98446447
7.90763 0.89357495 0.98871654
7.8956699 0.90645695 0.97953397
7.9099879 0.91068786 0.98297882
7.7044201 0.91193175 1.0296565
7.7097802 0.9132027 1.0204172
7.7052469 0.9251498 1.0378178
7.6972666 0.93860948 1.0264047
7.7004318 0.95241696 1.0223936
7.695518 0.96586591 1.0321072
7.6998291 0.97280669 1.0234241
7.6926112 0.97584641 1.0314225
7.689631 0.98816818 1.0212801
7.697453 0.9960658 1.0243475
7.688705 1.0121453 1.0200455
7.6971154 1.0148417 1.0262657
7.6962714 1.0342766 1.033686
7.6928134 1.0470183 1.0238209
7.697927 1.0642272 1.0370197
7.6790147 1.0578387 1.032926
7.4978728 1.0503932 1.0745374
7.4999986 1.0635089 1.0789468
7.490108 1.0750059 1.084942
7.4900603 1.0757016 1.0881007
7.4930658 1.0890409 1.0766068
7.4917545 1.1121973 1.0770792
7.4766488 1.1159315 1.0862584
7.4889493 1.1176442 1.0774533
7.4913692 1.1259222 1.0751328
7.4869742 1.1367543 1.0757017
7.4784703 1.1598542 1.084805
7.48206 1.1665388 1.0765738
7.4700437 1.1848065 1.0693918
7.4840083 1.1845146 1.0724597
7.4811172 1.1887308 1.078423
7.4667172 1.2131531 1.077101
7.2814918 1.1930211 1.1385778
7.2767577 1.1974488 1.1218258
7.283205 1.2058578 1.1229166
7.2673173 1.2114469 1.1244065
7.2719846 1.2301224 1.1385655
7.2657404 1.2339916 1.1289805
7.2712517 1.2474641 1.127237
7.2695665 1.2565346 1.1347774
7.2709351 1.264362 1.1361125
7.2582526 1.2794524 1.1314503
7.2642341 1.2822783 1.1272193
7.2621741 1.3020189 1.1372684
7.2633481 1.3098688 1.125581
7.2655988 1.3235077 1.1293397
7.2493253 1.3235044 1.1216333
7.2471967 1.3389623 1.1276577
7.2554688 1.3416501 1.1370186
7.2419834 1.364386 1.1253165
7.2560244 1.3702375 1.1313107
7.0609913 1.3491247 1.1717709
7.0517273 1.3515465 1.1754267
7.0582185 1.3536981 1.1686994
7.0547452 1.3788275 1.1797009
7.0395708 1.3880254 1.1742226
7.0481415 1.3827819 1.1786251
7.0489917 1.3972557 1.1683718
7.0358529 1.4218619 1.1706955
7.0320611 1.414857 1.1856468
7.0365534 1.4237814 1.1763439
7.0270267 1.4499701 1.1718684
7.0284419 1.4487609 1.1799803
7.0334997 1.4559228 1.1804118
7.0318165 1.4615049 1.1761435
7.0211205 1.4738199 1.1712464
7.0249333 1.4966263 1.1712818
7.0131345 1.5022177 1.1759697
7.0110688 1.5166184 1.1754454
7.011313 1.5291895 1.1781003
6.8371229 1.4871478 1.2293707
6.8230457 1.4983851 1.2275155
6.8244801 1.5130409 1.2346436
6.814013 1.514771 1.2191288
6.8239641 1.5368482 1.2193944
6.8096333 1.5302739 1.2221758
6.8103924 1.5495697 1.2179676
6.8111734 1.5591382 1.2295574
6.8166294 1.5687261 1.2257577
6.8015475 1.580657 1.2247417
6.8091078 1.5898821 1.2329804
6.7984209 1.5870987 1.2229391
6.8058653 1.6078311 1.2180394
6.8004246 1.6201913 1.2253585
6.7994561 1.6246109 1.2252463
6.7987399 1.6368214 1.2290545
6.8007917 1.6319256 1.222656
6.7986221 1.649959 1.2363266
6.7880292 1.6556096 1.2300886
6.7936234 1.6683528 1.2262881
6.7781882 1.6708438 1.2222223
6.6028924 1.638234 1.2753899
6.5856938 1.6416351 1.2703017
6.5835824 1.661823 1.2680926
6.5887775 1.6632832 1.2808251
6.5738473 1.686281 1.2762933
6.5827127 1.6935978 1.2773939
6.5851665 1.7010254 1.2870595
6.5812783 1.7001537 1.2729104
6.5711393 1.707183 1.2820424
6.5771871 1.721097 1.2842065
6.5791564 1.7301346 1.2709202
6.5647764 1.7442544 1.2718451
6.5652952 1.7585566 1.2837715
6.563592 1.7603604 1.2679746
6.5546088 1.7695535 1.2859954
6.5610809 1.7699442 1.2821561
6.5486412 1.7951339 1.2765709
6.5458541 1.7987934 1.2809438
6.5489049 1.8146845 1.2831788
6.5410752 1.8190066 1.2701643
6.5353966 1.8276939 1.2770269
6.5364194 1.8244102 1.2688524
6.5383539 1.8440671 1.2858266
6.5322022 1.8444555 1.2754542
6.343822 1.8054177 1.3346323
6.3399429 1.8079418 1.3355538
6.3522124 1.8204988 1.332525
6.3388839 1.8327543 1.3240193
6.329916 1.8505589 1.3222717
6.3431711 1.8430448 1.3357167
6.3233991 1.8523759 1.3287232
6.3304772 1.8652661 1.3293235
6.3293686 1.8826401 1.3204619
6.325222 1.8964244 1.3228734
6.3306909 1.8908221 1.3300254
6.3258214 1.9038538 1.3308539
6.3218608 1.9116805 1.3353951
6.3148594 1.9287167 1.323351
6.3193398 1.9393355 1.3202742
6.3020606 1.9457716 1.3208497
6.2982135 1.9550105 1.3219264
6.3073611 1.9539151 1.3270665
6.2970967 1.9743108 1.3207581
6.2979584 1.9731715 1.3194147
6.3012195 1.980125 1.3236536
6.2916203 1.9848453 1.3321123
6.2828374 2.0082538 1.3195895
6.278583 2.0073218 1.3352987
6.2822728 2.0135434 1.3328257
6.2828736 2.0251713 1.327992
6.0996609 1.976029 1.3731081
6.0819726 1.9781082 1.3788354
6.0894127 1.9926453 1.3761727
6.0905323 2.0107787 1.3835889
6.0902972 2.0149198 1.3691807
6.0742884 2.0122209 1.3707186
6.0867271 2.0235105 1.3668947
6.0666308 2.0333295 1.3733726
6.062232 2.049634 1.3773096
6.0753484 2.0493469 1.3841159
6.0636191 2.0530441 1.3726466
6.0674901 2.0618019 1.374763
6.0570765 2.0807605 1.3829271
6.0639887 2.0836117 1.380739
6.0583053 2.0890119 1.3742105
6.0582013 2.1011999 1.3765053
6.0396242 2.1086345 1.3816156
6.0372109 2.1187928 1.3680753
6.0412641 2.1273839 1.3823732
6.0492425 2.1319351 1.3679222
6.0440154 2.1476123 1.3687104
6.027307 2.1500278 1.3698022
6.0327034 2.1649084 1.3814029
6.0262523 2.1695921 1.3674086
6.0176015 2.1714947 1.3703728
6.0224099 2.1962078 1.377087
6.0095019 2.2052696 1.382802
6.0216923 2.2148561 1.3702457
6.0203309 2.2114453 1.3778551
6.0132551 2.2189739 1.3815941
6.0117173 2.2242484 1.3725929
6.0109558 2.2357996 1.3775941
5.9912744 2.2557435 1.3690672
6.0031819 2.2522442 1.3768193
6.0010834 2.2631142 1.3780732
5.9819379 2.2818244 1.3756442
5.9894943 2.2906697 1.3738848
5.9827542 2.2947605 1.3733243
6.1644015 2.3698716 1.3314652
6.1525946 2.371923 1.3182598
6.1645145 2.3755264 1.321954
6.1474214 2.4014697 1.3288286
6.1553173 2.410845 1.3272809
6.1546745 2.4152529 1.3338723
6.1417713 2.4206989 1.322976
6.1301107 2.4301474 1.3224368
6.1360087 2.4303124 1.3223944
6.1401358 2.4469087 1.3180985
6.1236901 2.4473805 1.3312589
6.1348777 2.459337 1.3178828
6.1128478 2.466517 1.3195267
6.1145005 2.4799194 1.3185353
6.1230154 2.4845455 1.3183452
6.109971 2.4918683 1.3339934
6.1035061 2.5096397 1.3265231
6.106133 2.5191138 1.3199412
6.1082087 2.5178614 1.3249688
6.09023 2.5241232 1.3180425
6.087944 2.5373387 1.3230422
6.0988064 2.5451529 1.3314573
6.0962806 2.5543604 1.3185159
6.075387 2.568655 1.3304455
6.0734901 2.5749118 1.3184747
6.0713911 2.5715828 1.3253045
6.0649285 2.5852594 1.3213888
6.0709844 2.6050453 1.3184351
6.070446 2.6104014 1.3257216
6.0549235 2.6212852 1.3307678
6.0524626 2.6134009 1.3205317
6.0549903 2.6399088 1.3296175
6.0459208 2.6474326 1.3194231
6.0438981 2.6376164 1.3350409
6.0337934 2.6494687 1.3284377
6.0317063 2.6627994 1.3300329
6.036437 2.6732564 1.3368371
6.0372405 2.6733699 1.3349645
6.0350785 2.6965575 1.3299905
6.0201912 2.7078469 1.3274478
6.0303383 2.7003121 1.3285733
6.0102377 2.7189527 1.3277643
6.0192108 2.7321835 1.3260418
6.0179782 2.7270632 1.326071
6.0123515 2.7355213 1.3295256
6.0001101 2.7455873 1.3178889
5.9894524 2.7640908 1.3282926
5.9855866 2.7671163 1.3303984
5.9998369 2.7717097 1.3272855
5.9891019 2.7851577 1.3270613
5.975812 2.7925065 1.3309064
5.9836364 2.8035197 1.3250014
5.9706397 2.8072836 1.3239418
5.9759092 2.8136034 1.3293822
5.9611959 2.8180971 1.3349061
5.9699259 2.8341613 1.3221266
5.9670076 2.8433914 1.3194866
5.9544811 2.8525913 1.3315133
5.9440494 2.8598883 1.3197802
5.9504929 2.8603089 1.3331473
5.9367003 2.8713102 1.3255206
5.9467416 2.8740172 1.3205702
5.9308662 2.8876216 1.3310521
5.9339199 2.8904004 1.3195276
5.9224019 2.9023829 1.3241761
5.9163966 2.9070234 1.3365735
5.9176006 2.9326859 1.3298912
5.9161525 2.9297733 1.3241047
5.9067202 2.940392 1.3173167
5.9055429 2.9414289 1.322656
5.8977213 2.9526596 1.330709
5.9022613 2.9579291 1.3331872
5.9018397 2.9713328 1.3209933
5.8918881 2.9718108 1.3233074
5.8904009 2.9848037 1.3293388
5.8735509 2.9958351 1.3317515
5.8690867 3.0121255 1.3315727
5.8779287 3.011035 1.3202331
5.8609729 3.0245903 1.3312699
5.8572173 3.0210583 1.3351068
5.8587899 3.0338063 1.3219434
5.8484039 3.055207 1.3258244
5.8604851 3.0603106 1.3348894
5.8403606 3.0595987 1.3362187
5.8425393 3.0615466 1.322333
5.8307376 3.0708029 1.3312763
5.8413372 3.0797653 1.3283138
5.8317466 3.1017511 1.3360704
5.8308053 3.1109741 1.3291976
5.8208895 3.1206458 1.3306143
5.8147993 3.1161058 1.3366059
5.8155341 3.1254072 1.3358314
5.8001385 3.1310282 1.3319993
5.813797 3.1407747 1.3193002
5.808773 3.156961 1.3203999
5.7898526 3.1656182 1.3226128
5.7998638 3.1691592 1.3256507
5.7869015 3.1674047 1.3225434
5.7816844 3.1890156 1.3205336
5.7695832 3.1850288 1.3200766
5.7788873 3.1992807 1.3269664
5.7741723 3.1986084 1.3350507
5.768671 3.2068923 1.3206549
5.7593265 3.2331977 1.3279108
5.7572718 3.2388539 1.323264
5.7563057 3.2499752 1.3191918
5.7575412 3.2555048 1.3305839
5.7418032 3.2524803 1.3321514
5.7429471 3.2686582 1.3272657
5.7420697 3.2771657 1.3303351
5.7207246 3.2794194 1.3196046
5.7262578 3.2814109 1.3201562
5.7198639 3.302366 1.3209523
5.7190638 3.2984521 1.3200207
5.7055078 3.3169706 1.3367184
5.707294 3.3190207 1.3365169
5.7049971 3.3268154 1.3338307
5.6940813 3.3433928 1.3201121
5.6847219 3.3456454 1.3345697
5.6904655 3.3515635 1.3295395
5.6792679 3.3606899 1.3187742
5.6773281 3.3599145 1.322018
5.6759291 3.3773215 1.3182406
5.6753154 3.3785152 1.3225799
5.6737585 3.3907514 1.317474
5.6688886 3.3893836 1.3264614
5.6638064 3.4103389 1.3352932
5.6560268 3.4050102 1.3327583
5.6545177 3.4149647 1.3245386
5.6474552 3.4353166 1.3343059
5.6353512 3.4291351 1.3252752
5.6324711 3.4456902 1.3275511
5.6328239 3.445533 1.3193227
5.6293888 3.4694598 1.3243833
5.6102815 3.4765387 1.3337818
5.6060576 3.4834676 1.3339206
5.6108098 3.4900451 1.32713
5.6043835 3.4935849 1.3271321
5.5954108 3.5003684 1.329217
5.598208 3.504853 1.3237884
5.7548075 3.6251504 1.274816
5.7381749 3.6244409 1.2840509
5.7438073 3.6288807 1.2852837
5.7412004 3.6346924 1.2826047
5.7236423 3.6462152 1.279173
5.7354717 3.6583433 1.2748455
5.7274294 3.660064 1.2692772
5.7125845 3.6802094 1.2794374
5.717731 3.676244 1.2685764
5.8676887 3.8051434 1.2248983
5.8693223 3.8065121 1.2200891
5.8514757 3.8162868 1.2265573
5.8428531 3.8167436 1.2294592
5.8554521 3.8396542 1.2301738
5.8453603 3.8300788 1.2344196
5.8318257 3.8374162 1.2228086
5.833952 3.861805 1.2249408
5.8304987 3.8564546 1.2192477
5.9785967 3.9685986 1.172122
5.9742699 3.9860842 1.1702485
5.9757576 3.9904888 1.1815677
5.9724245 4.0023441 1.1744928
5.9555483 4.0108852 1.1797136
5.9615617 4.0173445 1.1796908
5.9482789 4.019043 1.1819464
5.9392295 4.0325489 1.1834002
6.098753 4.1625628 1.1316072
6.1000495 4.1656842 1.1358439
6.0956416 4.1608777 1.1368767
6.0735998 4.1772814 1.1270609
6.0696726 4.1807218 1.1333233
6.0770531 4.1863899 1.1231223
6.0573468 4.2007537 1.1331513
-0.11423229 4.0715837 1.9629058
-0.12856948 4.0812325 1.9644941
-0.14065093 4.0674396 1.9713013
-0.13127832 4.0785937 1.9708149
-0.14419432 4.076827 1.9649547
-0.15287332 4.0764465 1.9658005
-0.16051917 4.0798306 1.974571
-0.1579805 4.0851064 1.9783112
-0.16917911 4.0835919 1.9792564
-0.17057838 4.0682135 1.9661106
-0.18194823 4.0841908 1.9704792
-0.18513252 4.0715017 1.9646827
-0.186728 4.0724015 1.9652871
-0.20151596 4.0683446 1.9772475
-0.19678986 4.0770411 1.9676512
-0.19792353 4.0827279 1.9778924
-0.21821102 4.0664387 1.9717437
-0.20972757 4.0783567 1.971104
-0.21750358 4.0647449 1.9691918
-0.22433387 4.0754018 1.9721503
-0.22430953 4.0803571 1.9713438
-0.23991607 4.0677953 1.9781137
-0.2413186 4.0793056 1.9660568
-0.24211624 4.0616941 1.9702239
-0.25095299 4.0744758 1.9633766
-0.26938552 4.0717893 1.9625136
-0.27757633 4.074481 1.9656661
-0.27191535 4.071321 1.9610496
-0.28689343 4.0660501 1.9631419
-0.28378323 4.0596132 1.9762203
-0.29771391 4.0588641 1.9745903
-0.29245049 4.068172 1.9607434
-0.30041659 4.0617399 1.9787591
-0.30043897 4.0601726 1.979524
-0.31629369 4.0754299 1.9734386
-0.318995 4.0579166 1.9650432
-0.32255873 4.0578728 1.9797237
-0.32296932 4.0691504 1.9716365
-0.32799575 4.0711098 1.9786782
-0.35092908 4.0618382 1.9796908
-0.34078345 4.0642943 1.9803703
-0.35226703 4.057672 1.9707811
-0.35759681 4.0687408 1.9751916
-0.36491024 4.065444 1.9784743
-0.37145799 4.0519485 1.9774622
-0.38409033 4.0614071 1.9793919
-0.38511735 4.0529571 1.9617413
-0.39146319 4.0697508 1.9758395
-0.3858954 4.0671711 1.972376
-0.39328507 4.0673113 1.9801278
-0.39966139 4.0632491 1.9708308
-0.40535751 4.0533547 1.9754143
-0.42064196 4.0637817 1.9715774
-0.41151506 4.0525451 1.9649622
-0.41910464 4.06041 1.9653782
-0.42770547 4.0612912 1.9757872
-0.43437567 4.046793 1.9782884
-0.43869564 4.0515962 1.9781334
-0.44891652 4.0476136 1.975957
-0.46260008 4.0618868 1.9744866
-0.46853086 4.0554285 1.9695281
-0.46375766 4.0489178 1.975257
-0.47440007 4.0527658 1.9720025
-0.46887851 4.051383 1.9781088
-0.48997116 4.0480518 1.9726856
-0.49064696 4.0417604 1.9687568
-0.50091267 4.0544391 1.9709512
-0.50867617 4.0484362 1.978578
-0.49659368 4.0378504 1.962859
-0.50668663 4.0392179 1.9620581
-0.51824892 4.0402913 1.9754515
-0.51476878 4.0517726 1.9629948
-0.52555853 4.0382462 1.9750547
-0.53960186 4.0358748 1.9664081
-0.5475378 4.038043 1.9751148
-0.54089594 4.045167 1.9782225
-0.55818176 4.0476556 1.9747083
-0.55327207 4.0480103 1.9658992
-0.56073451 4.0460763 1.9672202
-0.56391478 4.0396767 1.9706324
-0.56789482 4.0273409 1.9758494
-0.57848036 4.0441113 1.9732872
-0.58152139 4.0357165 1.9779458
-0.59250134 4.0389013 1.9609879
-0.59212673 4.039773 1.9669613
-0.60304427 4.0329075 1.9608293
-0.61085296 4.0343761 1.9779646
-0.62217456 4.0263739 1.9762415
-0.62230408 4.0365272 1.9733783
-0.62111145 4.0291171 1.9649178
-0.63650531 4.0233431 1.964932
-0.62668103 4.0325975 1.9625343
-0.63941759 4.024425 1.9725673
-0.64749426 4.0308847 1.966619
-0.65252763 4.0233302 1.9623836
-0.65158635 4.030468 1.9721321
-0.65677577 4.0154061 1.9642067
-0.66482842 4.0146298 1.9691441
-0.67460304 4.0193305 1.9651077
-0.68723941 4.0108294 1.9745418
-0.68833494 4.012538 1.9790902
-0.68941504 4.0096736 1.9737897
-0.69289142 4.0196743 1.9612206
-0.70633334 4.0071983 1.9760232
-0.70572221 4.0152879 1.9641911
-0.70934504 4.0099163 1.9604245
-0.72321796 4.004952 1.9625314
-0.72501487 4.0175295 1.9648056
-0.72187299 4.0059261 1.9727318
-0.74276608 4.0072789 1.9731156
-0.7342236 4.0131273 1.9761748
-0.74113125 4.0034847 1.9773444
-0.75333792 4.0159545 1.969497
-0.75811219 4.0005693 1.9701638
-0.76808232 4.0113807 1.9799184
-0.76988316 4.0041533 1.9653072
-0.77544898 4.0086355 1.966745
-0.77890635 3.9969022 1.961782
-0.78008801 3.9938908 1.9662451
-0.79334188 3.9955647 1.9730978
-0.80621046 3.9913578 1.9668436
-0.79601824 4.0058193 1.9719998
-0.80465478 3.9936476 1.9706861
-0.82113719 4.0022745 1.9750552
-0.81695116 3.9865022 1.9713118
-0.82300895 3.9944987 1.9614247
-0.82367635 3.9824975 1.9771116
-0.84290427 3.9926054 1.9621645
-0.84709352 3.9870965 1.9653133
-0.84681815 3.9938972 1.9712509
-0.85968834 3.9933913 1.9741045
-0.85881102 3.9886379 1.9725498
-0.87277585 3.9808066 1.9799619
-0.86805266 3.9820499 1.9771469
-0.87895852 3.9730351 1.9797134
-0.8736062 3.983516 1.9714381
-0.87813926 3.9788821 1.9723309
-0.88698363 3.9805708 1.9645087
-0.8907733 3.9836192 1.9723624
-0.91141242 3.9724903 1.9682096
-0.90611219 3.9740372 1.9647512
-0.91795659 3.9820051 1.9777476
-0.91135389 3.9815505 1.9641284
-0.9173373 3.9713597 1.9729763
-0.92613387 3.9758019 1.9740406
-0.93236208 3.9711337 1.9668251
-0.94686371 3.9674678 1.9762224
-0.94047076 3.9604914 1.9685631
-0.96189815 3.9552572 1.9652146
-0.95546985 3.9549139 1.9720073
-0.97319251 3.9653993 1.9616244
-0.97437167 3.9695668 1.9604951
-0.98255259 3.965862 1.9802045
-0.98435074 3.9616969 1.971024
-0.97729903 3.9542561 1.9675945
-0.9891811 3.9461067 1.9608133
-0.98827672 3.9489729 1.9716903
-0.99797308 3.943748 1.9769225
-1.0153267 3.9426095 1.9782602
-1.0160271 3.9534111 1.9606018
-1.0099326 3.9520001 1.9747839
-1.014219 3.9549181 1.9744962
-1.0196327 3.9351616 1.9718741
-1.0253351 3.9391112 1.9664648
-1.0402158 3.9356148 1.9750005
-1.0385239 3.9457369 1.9767803
-1.0436114 3.9422617 1.9628276
-1.0578197 3.9345868 1.9650587
-1.0667937 3.9350529 1.9675677
-1.0744278 3.9403112 1.9623026
-1.0797184 3.9371548 1.9770584
-1.0708246 3.9352005 1.9761719
-1.0822165 3.9333189 1.9769759
-1.0962284 3.9312196 1.9631844
-1.0956475 3.9197223 1.9673589
-1.1065285 3.9153972 1.9631259
-1.1156278 3.9314632 1.9768957
-1.1186775 3.9187973 1.964476
-1.119494 3.9226317 1.9740157
-1.1177992 3.924304 1.9703145
-1.1213672 3.926156 1.9649653
-1.1301773 3.9223697 1.979178
-1.1398716 3.9126575 1.9730328
-1.1487598 3.9143972 1.9663199
-1.1514373 3.9021795 1.9696487
-1.1499377 3.9045401 1.9701992
-1.1526691 3.9032588 1.96837
-1.1616284 3.9043829 1.9754367
-1.163005 3.9101434 1.9679075
-1.1748397 3.9030495 1.9636279
-1.1903733 3.8978362 1.9627851
-1.1912537 3.8892591 1.9797485
-1.1979191 3.8964319 1.9685997
-1.1907274 3.9001584 1.9607983
-1.2102461 3.886647 1.9623944
-1.2064337 3.9000723 1.9679739
-1.2220683 3.8962016 1.9739027
-1.21953 3.8888044 1.9625937
-1.2299223 3.8854611 1.9786909
-1.2278416 3.8757112 1.9693475
-1.230038 3.8758538 1.9764516
-1.2330748 3.8805397 1.9766471
-1.2391458 3.8839812 1.9656914
-1.256363 3.8800337 1.9801457
-1.2613794 3.881984 1.9627798
-1.264797 3.8731608 1.960538
-1.2626326 3.8741148 1.9761318
-1.274537 3.8630166 1.9660423
-1.2777479 3.8669333 1.9743309
-1.2848592 3.8583353 1.9745986
-1.2813112 3.8729432 1.9767456
-1.2906566 3.8699141 1.9653226
-1.2998039 3.8662112 1.9790927
-1.2999043 3.8506861 1.9706744
-1.305548 3.8555374 1.9659731
-1.308555 3.8623607 1.974223
-1.3138011 3.8567362 1.9652086
-1.3234508 3.8445921 1.9668857
-1.3431875 3.8546197 1.9742761
-1.334633 3.8429163 1.9748728
-1.345808 3.8401382 1.9718893
-1.3548335 3.8533897 1.9676961
-1.3552793 3.8428664 1.9616271
-1.3619523 3.8376126 1.9618676
-1.357041 3.8320823 1.968801
-1.3768283 3.8289099 1.9644076
-1.3683631 3.8458533 1.9762462
-1.3889095 3.8385069 1.9778055
-1.3877761 3.8367805 1.9712644
-1.3992497 3.828963 1.9748991
-1.3901237 3.8353224 1.9776427
-1.4039785 3.8180053 1.9755323
-1.4020238 3.8255887 1.9648005
-1.4061352 3.8318429 1.970724
