# .PCD v0.7 - Point Cloud Data file format
VERSION 0.7
FIELDS x y z
SIZE 4 4 4
TYPE F F F
COUNT 1 1 1
WIDTH 1532
HEIGHT 1
VIEWPOINT 0 0 0 1 0 0 0
POINTS 1532
DATA ascii
0.57209659 3.1162472 1.758733
0.58042461 3.1231377 1.7713473
0.574453 3.1143293 1.763431
0.56540471 3.1242263 1.7691914
0.56237006 3.1191368 1.7596215
0.56558281 3.1223431 1.7669781
0.54732883 3.1320877 1.7741902
0.54432362 3.1309121 1.7580551
0.55653632 3.1236453 1.7573789
0.54268295 3.128644 1.7758781
0.54386568 3.1300967 1.7596174
0.54154986 3.1242177 1.7694525
0.53184736 3.1367085 1.7696904
0.53422743 3.1244934 1.7590429
0.522367 3.1335869 1.7625294
0.5209356 3.1302381 1.7684515
0.5068599 3.1329808 1.7633538
0.49999529 3.1370649 1.7763224
0.49699455 3.1377099 1.761272
0.49331671 3.12885 1.770474
0.48813707 3.1455226 1.7603886
0.48669583 3.1442304 1.7636904
0.49508867 3.1375875 1.7587548
0.48371854 3.1376777 1.7608823
0.4817 3.1302614 1.7713878
0.46316707 3.1457686 1.7578348
0.47055528 3.131556 1.7663208
0.47284499 3.1348357 1.7581937
0.4681024 3.1394725 1.77002
0.44830841 3.1447902 1.7723012
0.45771557 3.1492879 1.7705758
0.43703657 3.1367052 1.7668852
0.4396584 3.1368771 1.7758847
0.4373439 3.1500411 1.7643137
0.43715605 3.1455503 1.7646714
0.42747289 3.1468909 1.7598877
0.42423585 3.1399848 1.7602488
0.42948413 3.1397347 1.763253
0.4066045 3.1391091 1.7702637
0.41555035 3.1430576 1.7619678
0.40677652 3.1407819 1.7575516
0.39627659 3.1421969 1.7599405
0.40208527 3.150604 1.7618954
0.39689279 3.1610682 1.7764145
0.38012844 3.1557167 1.7658491
0.38372111 3.1450551 1.7760366
0.38252929 3.1555302 1.7587367
0.38169786 3.155628 1.7606114
0.36386997 3.1572218 1.7612911
0.373052 3.1521378 1.7653562
0.35393745 3.1626565 1.7665884
0.35040599 3.1470535 1.7686849
0.34926286 3.1616375 1.7586437
0.35007387 3.1554084 1.758528
0.3454034 3.1567948 1.7725283
0.35016686 3.1661549 1.7753404
0.34511718 3.1587045 1.7681074
0.32276696 3.1548049 1.7604582
0.32229078 3.1574602 1.7738948
0.32249376 3.1536815 1.7617452
0.32676116 3.1551723 1.7596189
0.31226024 3.1575167 1.7613997
0.31985509 3.1631038 1.7572812
0.29740822 3.1538882 1.766456
0.2948451 3.1643891 1.7765461
0.30628166 3.1640413 1.7755311
0.30052984 3.1630321 1.7666068
0.28754446 3.1640615 1.77333
0.28690928 3.1690044 1.762262
0.27971014 3.1585405 1.7669746
0.28036091 3.1567349 1.7727436
0.27888486 3.1648197 1.7604289
0.25918913 3.1648915 1.773279
0.25537431 3.1669087 1.7764976
0.26073387 3.1707563 1.7698072
0.25618306 3.170434 1.7623653
0.25061676 3.1687543 1.7735165
0.23612563 3.158484 1.7653059
0.24835728 3.1719739 1.7616528
0.22952047 3.1626606 1.7671567
0.23539579 3.1583946 1.7704819
0.22703972 3.1770494 1.7615252
0.22636849 3.1604059 1.7722794
0.21854699 3.1643457 1.7646965
0.21394366 3.1580434 1.7606126
0.20264962 3.1715891 1.7758642
0.20391326 3.1639683 1.7691001
0.19632778 3.166256 1.7717357
0.20053123 3.1651757 1.7675374
0.20108128 3.1696594 1.7737081
0.18713486 3.1644197 1.7753013
0.17651334 3.1752255 1.775244
0.17693472 3.1697621 1.7582442
0.16810998 3.1608796 1.7648909
0.17170201 3.1717968 1.7649486
0.17120986 3.1758235 1.7582715
0.16596907 3.1655171 1.7636988
0.1539638 3.1720295 1.7711455
0.14459382 3.1671495 1.7572496
0.15102524 3.1672246 1.7675813
0.14362715 3.1777585 1.7724234
0.13782202 3.162076 1.7678275
0.13195933 3.171221 1.7575306
0.12909649 3.1759472 1.7581199
0.13288024 3.1686721 1.7694012
0.11672147 3.1653116 1.7644899
0.11388534 3.1811171 1.7690592
0.11647631 3.1693249 1.7599342
0.10651372 3.1725705 1.7657286
0.10265508 3.1666553 1.7714037
0.089128003 3.1777501 1.7674241
0.1004428 3.1674483 1.7675802
0.087161526 3.1756926 1.7567052
0.083583251 3.165483 1.7703867
0.080594182 3.1834662 1.7766292
0.06888625 3.1697001 1.7593538
0.072266772 3.1775074 1.7577326
0.060216568 3.1723156 1.7641742
0.059041172 3.1815712 1.7737223
0.06366016 3.1713784 1.7572223
0.053954095 3.1720688 1.7716906
0.040268425 3.1684847 1.7757366
0.046738729 3.1760299 1.7679125
0.042333934 3.1644077 1.7697706
0.031610534 3.1742077 1.76951
0.027129684 3.1767106 1.7753875
0.025373319 3.1670055 1.7689826
0.021995839 3.1696618 1.7573025
0.025059897 3.1755538 1.7748007
0.017671971 3.1704767 1.7620348
0.013784051 3.1801052 1.7698945
0.004364403 3.18046 1.7741112
-0.0010092247 3.1716967 1.7658204
0.0057930904 3.1829407 1.765861
-0.0055464539 3.1678734 1.7756613
-0.017146567 3.1727371 1.7679305
-0.022869172 3.1802568 1.7704666
-0.014996538 3.1688111 1.7756369
-0.01880398 3.1648417 1.7666839
-0.025113212 3.1778963 1.7726443
-0.024188217 3.1714754 1.7682298
-0.035403498 3.180047 1.7641729
-0.042402036 3.1676571 1.7713619
-0.037691187 3.1664817 1.7698102
-0.052939534 3.1783791 1.7732124
-0.058387537 3.1830883 1.761506
-0.051566247 3.1664872 1.7573529
-0.062208742 3.1821706 1.7617941
-0.067680709 3.1784585 1.7623117
-0.082105547 3.1728492 1.7759364
-0.070569865 3.1725764 1.7631985
-0.083448425 3.1655004 1.7590969
-0.080383711 3.1758373 1.762676
-0.0901298 3.1752965 1.7651567
-0.10142749 3.163919 1.7596179
-0.10932273 3.1715047 1.7588775
-0.10892414 3.1703231 1.7616313
-0.11267838 3.1629097 1.7601701
-0.11199127 3.1744354 1.7751045
-0.11078626 3.175947 1.7645434
-0.11595633 3.1734049 1.7738299
-0.13386403 3.1623945 1.7761664
-0.13587317 3.178859 1.7689723
-0.13430284 3.1699877 1.7613761
-0.13025147 3.1742284 1.7625471
-0.15173869 3.1749835 1.7714548
-0.15396598 3.1605465 1.7593378
-0.15343918 3.1667647 1.7599707
-0.15437329 3.1780789 1.7722986
-0.16037263 3.1750066 1.7663137
-0.1569327 3.1711729 1.7579683
-0.16420598 3.1738398 1.7588006
-0.16914238 3.1789052 1.7762915
-0.18127251 3.1699488 1.7651112
-0.18099843 3.1694512 1.7583779
-0.17955297 3.1718736 1.7726123
-0.18919948 3.1764753 1.7726285
-0.19096267 3.1660104 1.7590877
-0.19209257 3.1590176 1.757092
-0.20089409 3.1704311 1.7722614
-0.21568008 3.1696901 1.7638404
-0.21881099 3.166081 1.7583357
-0.22110923 3.1619403 1.7581522
-0.22591612 3.170074 1.7692744
-0.22190288 3.1628859 1.7601666
-0.2246224 3.1615469 1.7737554
-0.23310705 3.1549647 1.7722262
-0.24157497 3.1710224 1.7605184
-0.24358326 3.1703525 1.7621105
-0.24758673 3.1652834 1.7754148
-0.25642028 3.1698298 1.7682832
-0.25367436 3.1556466 1.7578536
-0.25643259 3.1635661 1.7636006
-0.25937369 3.1710789 1.7578046
-0.27119228 3.1670051 1.76515
-0.27211797 3.1646111 1.7714921
-0.27945438 3.1581314 1.7715938
-0.28831941 3.1675823 1.7681012
-0.28889155 3.1594229 1.7642928
-0.28787109 3.1516576 1.7757756
-0.29354569 3.1594558 1.7721711
-0.3063513 3.1543963 1.7747562
-0.30958593 3.1509748 1.7656394
-0.30707297 3.1490073 1.7644203
-0.31035537 3.1596162 1.7595184
-0.32629174 3.1536939 1.7726195
-0.31588537 3.1648288 1.7596444
-0.32537654 3.1514921 1.7765296
-0.33835977 3.1619759 1.765671
-0.33515069 3.157872 1.7674688
-0.34045818 3.1524851 1.7574927
-0.34936941 3.1586835 1.7628912
-0.35569486 3.1460376 1.765308
-0.35113645 3.1602941 1.7662039
-0.36779639 3.1556573 1.7581611
-0.36935756 3.1594727 1.7646545
-0.37781683 3.158082 1.7627475
-0.37925053 3.1515872 1.7679746
-0.3837983 3.1564958 1.7641624
-0.37920392 3.148999 1.7567296
-0.39281088 3.1405799 1.7643991
-0.39639324 3.147634 1.7587622
-0.39457637 3.1527464 1.760981
-0.39034179 3.1468 1.7579639
-0.40521055 3.1485763 1.7708238
-0.40812132 3.1531727 1.7680188
-0.40453789 3.1536906 1.7643492
-0.42286053 3.1371551 1.774717
-0.41595525 3.1404512 1.7705315
-0.4328613 3.1527202 1.7593937
-0.43719941 3.1357601 1.7603873
-0.43386722 3.1395946 1.7689917
-0.43617094 3.1496224 1.763271
-0.59627163 4.2536273 1.3333583
-0.60091513 4.2415466 1.3246113
-0.61269754 4.250927 1.3210418
-0.62728369 4.2482615 1.3185775
-0.62553817 4.2516432 1.3201711
-0.63342369 4.2462997 1.32566
-0.64549339 4.2484188 1.3240235
-0.64869958 4.2505674 1.3260385
-0.65091091 4.2404146 1.3325058
-0.66451669 4.2323241 1.3296248
-0.66384178 4.2285147 1.3260115
-0.6742636 4.2459688 1.3311781
-0.67343116 4.2375464 1.3265936
-0.67616683 4.2404428 1.3202209
-0.68136543 4.2309885 1.3181156
-0.68496919 4.2395511 1.3315604
-0.70308256 4.2419453 1.3280261
-0.70283109 4.2270327 1.3275502
-0.70056319 4.2358079 1.3378401
-0.71182662 4.2368741 1.320966
-0.72596961 4.2245116 1.3212171
-0.72372448 4.227622 1.3198653
-0.73631138 4.2174582 1.3310426
-0.73348123 4.2304506 1.3260761
-0.73702228 4.2241354 1.332623
-0.74266726 4.2201056 1.3287084
-0.75486594 4.2238507 1.3281722
-0.77059752 4.2137337 1.3337162
-0.76680344 4.2117696 1.3290359
-0.77271795 4.2244263 1.3264309
-0.77550507 4.2088223 1.3324807
-0.77803952 4.2213445 1.3226662
-0.80192417 4.207159 1.3237214
-0.79462993 4.2216821 1.3188111
-0.81230062 4.2185407 1.3286355
-0.80342287 4.2156296 1.3354883
-0.81845808 4.2063932 1.3271526
-0.81402785 4.2072978 1.3297747
-0.82405204 4.2178669 1.3315157
-0.83875495 4.2083907 1.3270044
-0.83606112 4.2019954 1.3279883
-0.84731591 4.1989312 1.3226018
-0.84838355 4.1978474 1.3241458
-0.84839422 4.2099209 1.3213366
-0.85331362 4.2101851 1.3365183
-0.86840695 4.2051864 1.329929
-0.87664562 4.1910114 1.3352519
-0.87321824 4.2071228 1.322636
-0.88716716 4.1990652 1.3217543
-0.89937329 4.2021585 1.3325696
-0.89608896 4.1937966 1.3181705
-0.91181892 4.2000308 1.321897
-0.91293365 4.1910453 1.3257372
-0.91250259 4.1878963 1.3228565
-0.91487885 4.1856728 1.3214539
-0.92207164 4.1941991 1.336275
-0.93585199 4.1803288 1.3181511
-0.94430751 4.1757255 1.3373773
-0.94537705 4.1830115 1.3297926
-0.94732648 4.183928 1.3265557
-0.95845878 4.173964 1.3362201
-0.96398818 4.1741023 1.3333896
-0.9657892 4.1789575 1.322853
-0.96374816 4.170073 1.3304546
-0.98458582 4.1846399 1.3371283
-0.98682427 4.1778398 1.3336321
-0.99423963 4.1630831 1.3375773
-0.99977696 4.1656928 1.3182395
-1.0060861 4.1730537 1.3275158
-0.99997795 4.1642833 1.3190452
-1.0171047 4.1701975 1.3219544
-1.0245651 4.1563969 1.3263546
-1.0348541 4.1666079 1.3369707
-1.0356776 4.1646709 1.3200711
-1.0288974 4.1677051 1.3191152
-1.0354416 4.1543078 1.3327441
-1.0454799 4.1593003 1.3330096
-1.0515709 4.1645589 1.3372864
-1.0569977 4.1493092 1.3303332
-1.0731459 4.145967 1.3360273
-1.0777628 4.1512957 1.329061
-1.0794684 4.1549587 1.3297276
-1.0767715 4.1541262 1.3220472
-1.0834565 4.1382613 1.3338796
-1.087039 4.1549659 1.3302042
-1.0915753 4.1509132 1.3345978
-1.1024804 4.1426077 1.3254582
-1.1131178 4.1339941 1.3230591
-1.1194763 4.1457348 1.326901
-1.1327858 4.1471062 1.328899
-1.120399 4.1296372 1.337732
-1.1349761 4.1362376 1.3317425
-1.1488844 4.1313071 1.3264432
-1.1504711 4.1254625 1.3268098
-1.160223 4.1218033 1.3254198
-1.153648 4.1193743 1.321524
-1.1626773 4.131804 1.3308777
-1.1608438 4.1193581 1.3331805
-1.1814071 4.1263137 1.3287952
-1.1781262 4.1257167 1.3273603
-1.1928449 4.1232619 1.3300436
-1.1987283 4.1119833 1.3209224
-1.1905988 4.1125469 1.328474
-1.2077664 4.1172724 1.3317922
-1.2045649 4.1179924 1.3330706
-1.2227511 4.1110315 1.3335474
-1.2248306 4.1007829 1.3280892
-1.2175541 4.1181073 1.3318287
-1.2279723 4.100606 1.3241748
-1.2427734 4.1121197 1.3375834
-1.239007 4.0946479 1.330205
-1.2525549 4.0970225 1.3332231
-1.2552215 4.0932546 1.3184882
-1.270334 4.0980444 1.3301706
-1.2621258 4.0917592 1.3242724
-1.2726367 4.0930085 1.3331205
-1.2826684 4.0978966 1.3334357
-1.2781556 4.0957775 1.3327987
-1.2899009 4.0889535 1.3363916
-1.2892977 4.09304 1.333238
-1.2952832 4.0866013 1.3343599
-1.3086447 4.0923209 1.3196118
-1.3189853 4.0810776 1.3228592
-1.3240584 4.0804234 1.3326679
-1.3174465 4.0736766 1.3179708
-1.3367301 4.0821152 1.32631
-1.3271631 4.066216 1.3213328
-1.3372782 4.0805206 1.3360395
-1.3480277 4.0687695 1.3257334
-1.3551817 4.0633073 1.3213327
-1.3654865 4.0575438 1.3323203
-1.3546668 4.0640998 1.3308628
-1.3785925 4.0659943 1.3200049
-1.3792682 4.0684915 1.330344
-1.3901324 4.0632744 1.3357948
-1.3956912 4.0644445 1.3315508
-1.3929077 4.0608501 1.3332824
-1.3950989 4.0528059 1.3312014
-1.4025806 4.0596757 1.3192595
-1.4003656 4.0450521 1.3237542
-1.4225485 4.0457811 1.3243915
-1.4137411 4.042985 1.3334994
-1.4263886 4.0419159 1.3264238
-1.429891 4.0458207 1.3237754
-1.4430515 4.0445085 1.3378481
-6.2446542 2.8740788 0.2986528
-6.2552299 2.8726554 0.30606237
-6.2662921 2.8628538 0.30243725
-6.2680936 2.8558924 0.29575011
-6.2692828 2.8403776 0.30483663
-6.2789483 2.8321147 0.29609847
-6.2659292 2.8337786 0.31374764
-6.2748504 2.8154895 0.31391686
-6.279593 2.8136683 0.29857996
-6.295413 2.7965906 0.30758956
-6.2858906 2.8032598 0.3096692
-6.2850952 2.7833519 0.2990686
-6.2968783 2.7763679 0.3074154
-6.2922745 2.7715561 0.29755518
-6.3143449 2.7495174 0.30094025
-6.3073173 2.7417629 0.30482787
-6.3090148 2.7509644 0.29915047
-6.3130512 2.7351699 0.30396068
-6.316906 2.7185462 0.29573166
-6.3160849 2.7100024 0.2992124
-6.1549487 2.6420026 0.37129113
-6.1629124 2.6317806 0.37912449
-6.1614647 2.6136394 0.36877748
-6.1716585 2.6039541 0.38242805
-6.1717 2.5960374 0.38285434
-6.1683445 2.5989759 0.38434592
-6.1810894 2.5840316 0.38386428
-6.1794996 2.5688534 0.37641886
-6.1930876 2.5736108 0.38118535
-6.1948924 2.5629668 0.38624942
-6.1932044 2.5459309 0.38502747
-6.1925616 2.5445831 0.38219592
-6.204073 2.5283225 0.36984077
-6.2059197 2.5254958 0.37642291
-6.2141032 2.5062432 0.38371611
-6.201849 2.4939497 0.38258055
-6.2080903 2.4925027 0.3751384
-6.2148018 2.4762249 0.38116091
-6.2289462 2.4699266 0.38058856
-6.2183118 2.4653788 0.37802494
-6.2226014 2.4660623 0.38708326
-6.0547447 2.3831058 0.45659205
-6.0629687 2.380213 0.44537207
-6.0635362 2.3589811 0.45999801
-6.0575099 2.3530605 0.44404876
-6.0641785 2.3428774 0.44448817
-6.0719709 2.3499236 0.45216772
-6.067193 2.3337173 0.45226154
-6.0763812 2.3268135 0.45475391
-6.0861301 2.3139782 0.44140014
-6.0784302 2.3002756 0.45743623
-6.0816607 2.3044839 0.44704118
-6.0885057 2.2837715 0.44222733
-6.0865593 2.2857835 0.44466001
-6.0899749 2.2771018 0.44965509
-6.1093273 2.2650194 0.45295477
-6.1082292 2.2484012 0.45179287
-6.0994391 2.2398047 0.44292152
-6.1105433 2.2452528 0.45564738
-6.1191435 2.2241728 0.44404373
-6.1210852 2.2140014 0.44724783
-6.1269789 2.2037966 0.44317502
-6.1232557 2.2099319 0.44690904
-6.1243348 2.2011869 0.44117859
-6.1229687 2.1921878 0.4552944
-5.9610648 2.1250169 0.51899618
-5.9512939 2.1042957 0.52148086
-5.9626732 2.09549 0.52391034
-5.9629126 2.0986938 0.52033347
-5.9704137 2.0763996 0.52422667
-5.9695072 2.0752535 0.52650267
-5.9853849 2.0712917 0.52713257
-5.9853239 2.0541193 0.52246064
-5.9815173 2.0589223 0.51761085
-5.983429 2.0481331 0.53233343
-5.9912138 2.0267475 0.53042918
-5.9884205 2.0180645 0.51613832
-5.9831309 2.0209227 0.52138066
-5.9954 2.0064504 0.51816982
-5.9912343 2.0073738 0.52101177
-6.0031638 1.992089 0.53105867
-6.0128055 1.9838004 0.52549893
-6.0018058 1.978435 0.53112572
-6.0154662 1.9597269 0.52991849
-6.0139647 1.9619457 0.52628934
-6.0177283 1.9592071 0.52964532
-6.023385 1.9420772 0.53269345
-6.0233207 1.9330407 0.52697849
-6.0180025 1.9145272 0.51517415
-6.015883 1.9229597 0.53267986
-6.03091 1.9022313 0.52329147
-5.8582139 1.8390616 0.58714461
-5.8486528 1.825442 0.60089487
-5.8534532 1.8208956 0.60433912
-5.8594499 1.8205729 0.59840798
-5.8690639 1.8191963 0.59814805
-5.8753104 1.7948618 0.58917165
-5.8584976 1.7932785 0.59957612
-5.8673882 1.7796886 0.59988803
-5.8680716 1.7708814 0.59705716
-5.8712382 1.7696989 0.60192651
-5.8837814 1.7661878 0.58761501
-5.8855958 1.7547885 0.58787155
-5.8736482 1.741128 0.59177297
-5.8782449 1.7439989 0.60354656
-5.8887615 1.719772 0.60214198
-5.8995266 1.7118034 0.60460478
-5.8992567 1.7031412 0.59368956
-5.8885703 1.7080705 0.59739327
-5.8975611 1.6947869 0.60050213
-5.9093704 1.6807963 0.59064406
-5.8962998 1.6767101 0.6054942
-5.8975286 1.6732459 0.59716767
-5.8984895 1.6641539 0.60340655
-5.9155374 1.6528783 0.60074568
-5.9208002 1.6534879 0.60209066
-5.9074559 1.645723 0.60370314
-5.9116373 1.6206071 0.60489285
-5.9267225 1.6285448 0.59925455
-5.9180923 1.6098478 0.58857876
-5.7465744 1.5533659 0.66529745
-5.7446027 1.5408585 0.67304683
-5.7477703 1.5494437 0.66558778
-5.739253 1.5393779 0.6772958
-5.7444854 1.5145627 0.66599047
-5.7523675 1.5067717 0.66356039
-5.7588935 1.5146002 0.66163409
-5.7637959 1.5005111 0.66286379
-5.7674971 1.4935892 0.6603061
-5.7568254 1.4775382 0.66732961
-5.7568183 1.475467 0.67447197
-5.7732167 1.4775175 0.67714041
-5.7618546 1.45854 0.67643028
-5.7779408 1.4502078 0.67369378
-5.7623072 1.4387599 0.67418432
-5.7779679 1.4415355 0.67492914
-5.7760472 1.4198794 0.67155063
-5.7760415 1.4154043 0.66213411
-5.7747951 1.4092999 0.67384976
-5.7760949 1.3959277 0.67757136
-5.79036 1.4046121 0.66728151
-5.7774715 1.3789361 0.66710484
-5.7819033 1.3866489 0.67601609
-5.7870336 1.3802916 0.66466355
-5.7948895 1.3715723 0.66993421
-5.8022432 1.3491855 0.66605437
-5.7888408 1.3507012 0.66859519
-5.7988057 1.3341932 0.67474031
-5.7981758 1.3208911 0.66286308
-5.805819 1.3282373 0.66569865
-5.8097291 1.3232553 0.66530633
-5.8039179 1.3130875 0.66732836
-5.6165257 1.2601602 0.73829198
-5.621901 1.2445014 0.73785824
-5.618618 1.2428787 0.73680341
-5.6300535 1.2357826 0.74146289
-5.6253576 1.2239581 0.73574162
-5.6381102 1.2240266 0.74161863
-5.6247063 1.2065716 0.74230236
-5.6431684 1.2033087 0.73844367
-5.6387844 1.1979597 0.73771691
-5.6347818 1.1802346 0.7349388
-5.648746 1.1699567 0.74759448
-5.6448712 1.1760374 0.75245911
-5.6414194 1.1671243 0.7435711
-5.6390114 1.1484878 0.73545963
-5.6519327 1.1562483 0.74339855
-5.6505642 1.1329465 0.7392832
-5.6433077 1.1247275 0.74559253
-5.6553564 1.1197143 0.73652101
-5.6512527 1.1207422 0.74998474
-5.6478653 1.1074191 0.73360997
-5.6472445 1.1017669 0.73484629
-5.6539569 1.1016136 0.7500546
-5.6557937 1.0865254 0.74424314
-5.6665072 1.0754476 0.74769098
-5.6653214 1.0730394 0.7467972
-5.6561856 1.0535798 0.75050175
-5.671154 1.0429459 0.73388964
-5.6598024 1.0418211 0.74016887
-5.6775107 1.026347 0.73538274
-5.6617446 1.0357969 0.74518239
-5.845614 1.0599887 0.66410512
-5.8650093 1.0461299 0.66392344
-5.849185 1.0319372 0.67656881
-5.8591609 1.0285225 0.66605365
-5.8656774 1.0277746 0.66104972
-5.853076 1.0176321 0.66450775
-5.8567586 0.99397987 0.66525525
-5.8570418 1.0031273 0.67280358
-5.8710346 0.99600273 0.67280549
-5.869802 0.98607004 0.67018676
-5.8587584 0.97695434 0.66709518
-5.8756447 0.96989208 0.67833424
-5.8727012 0.96009147 0.66357201
-5.8771009 0.94174123 0.67358863
-6.0558782 0.9672969 0.59791684
-6.0558143 0.95759237 0.59343588
-6.0522809 0.94559669 0.59350204
-6.0679879 0.93469781 0.59091693
-6.0561347 0.93117499 0.58941054
-6.0642676 0.93024206 0.60617656
-6.0750074 0.92169869 0.60203385
-6.0688272 0.91760343 0.59903783
-6.0713959 0.8977747 0.59445196
-6.0687151 0.89485776 0.59972847
-6.0760055 0.87833756 0.58976722
-6.0658202 0.88321012 0.5985744
-6.2644386 0.89885664 0.530725
-6.2586808 0.87392092 0.51358926
-6.2554955 0.88213187 0.52140909
-6.2538047 0.86349142 0.51677632
-6.2553353 0.85538077 0.53208226
-6.2609963 0.85470849 0.53177679
-6.2696414 0.83271354 0.52012819
-6.2628603 0.83463377 0.51404995
-6.2707901 0.83048582 0.51994056
-6.2686691 0.81773365 0.51919448
-6.2777286 0.81189632 0.51666415
-6.2614894 0.79304004 0.5179497
-6.4471164 0.80141085 0.44306356
-6.4602003 0.80958211 0.45142761
-6.4579048 0.79740888 0.44043761
-6.4602904 0.78074855 0.45753348
-6.4629688 0.77660501 0.44139424
-6.4572835 0.76039255 0.4559367
-6.4576635 0.75738758 0.45509422
-6.4721403 0.73762888 0.45026422
-6.4673505 0.72992367 0.44836307
-6.4650788 0.71955842 0.45637336
-6.4615083 0.70939726 0.45869255
-6.6447477 0.72725141 0.38507599
-6.6545663 0.72824717 0.38145223
-6.6553621 0.70794004 0.37019992
-6.659049 0.70602471 0.38383743
-6.6588621 0.69085246 0.37029725
-6.6641197 0.67634517 0.38278836
-6.6502066 0.66839343 0.3845585
-6.6611109 0.66625112 0.36766261
-6.653903 0.64738804 0.36944202
-6.6586719 0.6530897 0.37010226
-6.8464413 0.65901107 0.30453297
-6.84937 0.63844681 0.30239835
-6.8559089 0.63807094 0.30926117
-6.8536868 0.63497943 0.30351451
-6.8578138 0.61303306 0.31190288
-6.8554678 0.60677433 0.29509252
-6.8606172 0.5953607 0.29964027
-6.8439832 0.59396219 0.31135693
-6.8442316 0.58067769 0.31352293
-6.8626871 0.56351751 0.31070429
-7.0460267 0.57961702 0.23258086
-7.0362496 0.55860406 0.23660386
-7.048593 0.55193013 0.2298272
-7.03406 0.54834294 0.22953646
-7.0452595 0.54148 0.23687795
-7.0480576 0.51780111 0.22754045
-7.0476518 0.50979745 0.23637027
-7.0426846 0.49923918 0.23338369
-7.0459871 0.48923039 0.22669585
-7.2328386 0.49403378 0.15929638
-7.2367835 0.4890838 0.15590149
-7.2257018 0.47468945 0.16133925
-7.2305832 0.46871617 0.14994973
-7.2422266 0.45802683 0.1648207
-7.2341471 0.43687472 0.16267748
-7.2387118 0.43364826 0.16670515
-7.2325997 0.43153715 0.15257992
2.5633805 3.7014079 1.2966889
2.5605569 3.6916773 1.2947202
2.5424647 3.703361 1.294726
2.5345607 3.7086625 1.2922217
2.5338554 3.7033799 1.2946378
2.5270393 3.7061052 1.2796115
2.5172389 3.7214906 1.2900878
2.5201054 3.7143207 1.2897885
2.5070167 3.7238185 1.2832727
2.5091765 3.7344298 1.2902422
2.5104828 3.7345276 1.28563
2.504535 3.7369437 1.287735
2.4966137 3.7464142 1.2779785
2.4886935 3.7331321 1.2899857
2.4782641 3.7443016 1.2931795
2.4702461 3.7538161 1.2955753
2.4671967 3.7586968 1.2898402
2.4746189 3.751615 1.2934262
2.4617372 3.7566209 1.2830082
2.4623346 3.7689676 1.2797071
2.4498971 3.7678063 1.2930164
2.4528422 3.7658882 1.2852619
2.4378879 3.7812445 1.2835048
2.4331722 3.773881 1.2850004
2.440459 3.7812932 1.2942072
2.4309349 3.7858973 1.2894776
2.4238017 3.7926672 1.2861849
2.410929 3.792079 1.2923741
2.4016376 3.7838333 1.2801403
2.4019234 3.8014145 1.2968313
2.3989034 3.7917919 1.2889466
2.3891883 3.8103535 1.2957368
2.3917136 3.7992041 1.2944833
2.3924775 3.8085873 1.2824738
2.3747325 3.8105104 1.2944914
2.3661892 3.808167 1.2877353
2.3729122 3.8239529 1.2843788
2.3563375 3.8321331 1.2970711
2.3659477 3.8162937 1.278162
2.3433194 3.8260164 1.2934858
2.3373773 3.8380005 1.2958462
2.3435464 3.8455551 1.2934345
2.3365009 3.8409255 1.2965474
2.3281972 3.8423548 1.2857248
2.3278797 3.8513386 1.2935138
2.3195753 3.8570838 1.2956554
2.3245103 3.8548603 1.2902864
2.3060842 3.861376 1.2898086
2.3003459 3.8628199 1.2902098
2.2956941 3.8669579 1.2970595
2.2863617 3.8704813 1.2926265
2.2793851 3.8655052 1.2924887
2.2899923 3.8788199 1.2844694
2.2837083 3.8691719 1.2946352
2.266597 3.8845515 1.2905478
2.2572703 3.8769767 1.2889761
2.2700808 3.8796911 1.2819592
2.2575181 3.8893383 1.2782434
2.244473 3.8986104 1.2927644
2.2518249 3.8885984 1.2882241
2.246022 3.8946261 1.2840151
2.2357817 3.8990541 1.2916456
2.2253995 3.8994706 1.2894139
2.2269936 3.8989882 1.2943648
2.218749 3.9067845 1.2915336
2.2064128 3.9106486 1.2779731
2.2125008 3.9127219 1.2839801
2.1915674 3.9276354 1.2964952
2.186914 3.9149115 1.2951506
2.1967773 3.9149513 1.2806702
2.1820962 3.9346042 1.2891009
2.1832018 3.9294376 1.2788506
2.1719337 3.9393134 1.2859153
2.1784296 3.9362125 1.2894038
2.169872 3.9303007 1.2776026
2.1584792 3.9374905 1.2865868
2.1535218 3.9362102 1.2945733
2.1545672 3.9394429 1.29441
2.1481235 3.9434726 1.2784671
2.140331 3.962821 1.2795156
2.1380539 3.9529469 1.2971766
2.1242034 3.9696419 1.2866381
2.1200986 3.9605362 1.2829503
2.123054 3.9633985 1.293144
2.1094942 3.9631791 1.2944158
2.1041291 3.9770472 1.279875
2.087744 3.971442 1.2810595
2.0993414 3.9723709 1.2824897
2.0907714 3.9723485 1.2849705
2.0862546 3.9900308 1.283828
2.082782 3.9909368 1.2898476
2.0769665 3.9834974 1.2896061
2.0606086 3.9974623 1.2973104
2.0605588 3.999896 1.2849361
2.0506985 3.9942875 1.2894093
2.0421064 4.0088353 1.2848252
2.0389693 4.0125237 1.2917184
2.0370128 4.013339 1.2966305
2.0364826 4.0111179 1.2786181
1.5147802 3.0094745 1.7260338
1.5169777 3.0096414 1.7208284
1.5051919 3.0095406 1.7253047
1.5131615 3.0186334 1.7208749
1.5088327 3.0132322 1.7160155
1.4921266 3.0235305 1.7226918
1.4998908 3.0308003 1.7210679
1.483068 3.0205009 1.7202922
1.4931356 3.0338166 1.7174996
1.4881123 3.0321774 1.7096615
1.4850737 3.0380647 1.7178065
1.4788077 3.0303352 1.7240115
1.4673333 3.0350091 1.7280149
1.4603325 3.0318449 1.7190163
1.468899 3.0485463 1.7225274
1.4526032 3.0327396 1.7142535
1.4629809 3.0488977 1.7111721
1.4517319 3.0524366 1.7157197
1.4397045 3.0502496 1.7115173
1.4448816 3.0472486 1.7236162
1.4422178 3.0454214 1.7195483
1.4276961 3.061543 1.7257032
1.419377 3.0504081 1.7144898
1.4150584 3.0564935 1.718076
1.4217383 3.0553687 1.7163334
1.4119266 3.0621748 1.7167597
1.4138383 3.0635877 1.7113256
1.4126658 3.0579834 1.7274179
1.3960383 3.0645869 1.7193166
1.3952056 3.060605 1.7262136
1.3864692 3.0781999 1.7092886
1.3936622 3.065516 1.7264963
1.3870072 3.0687592 1.7105865
1.3891364 3.0719323 1.7187849
1.3748488 3.0860372 1.7238877
1.3788161 3.0745842 1.7138313
1.363207 3.0893002 1.7232287
1.3621612 3.0871034 1.7250689
1.357205 3.0925412 1.7115653
1.364145 3.0814118 1.7121384
1.3579793 3.0858138 1.7083712
1.3548859 3.1016791 1.7099909
1.3489978 3.0951629 1.7129303
1.3471972 3.0950515 1.7171255
1.3335924 3.1049314 1.7135142
1.3250879 3.1030595 1.7165446
1.3265244 3.1098626 1.7123916
1.3173556 3.0999062 1.7241483
1.3100245 3.109283 1.7194555
1.3091872 3.1098914 1.7217518
1.3089205 3.1086285 1.7265747
1.3048841 3.1085694 1.7253935
1.3024647 3.1069217 1.7158326
1.3029824 3.1077754 1.724303
1.2876929 3.1193295 1.7208018
1.2887894 3.1266861 1.7135836
1.2729139 3.1197891 1.711329
1.2728829 3.128036 1.7172848
1.2646061 3.1332667 1.71079
1.2716341 3.1219778 1.7230824
1.2609559 3.1347425 1.7122968
1.2550982 3.1277931 1.7196429
1.2480568 3.1227498 1.7235382
1.2514521 3.1225517 1.7264901
1.2433155 3.1313944 1.719205
1.2516752 3.1456661 1.7174916
1.2328143 3.1283977 1.7271025
1.2316964 3.1354361 1.7231873
1.2365319 3.1385374 1.7227362
1.2348701 3.1330094 1.7092355
1.2254984 3.1411483 1.7267448
1.2253389 3.1477768 1.7155563
1.212523 3.1517141 1.7175819
1.2036 3.1433988 1.7176731
1.1976267 3.1513016 1.7248766
1.204366 3.1519213 1.7246277
1.1893896 3.1580396 1.7253925
1.1840217 3.147402 1.7114832
1.1947364 3.1659641 1.7189697
1.1849976 3.1672311 1.7192284
1.1817558 3.1634955 1.7259322
1.1760211 3.1639719 1.7175771
1.1590954 3.1560063 1.7114776
1.1641933 3.1634936 1.7153875
1.14938 3.1693861 1.7255309
1.161768 3.1663988 1.714631
1.1539049 3.1728179 1.7081923
1.1468043 3.1782546 1.7094653
1.1457924 3.1787937 1.7276554
1.1322646 3.1739838 1.7254742
1.1389934 3.1703246 1.7179251
1.1324238 3.1853249 1.7092259
1.1174968 3.1877966 1.710941
1.1164682 3.179765 1.7185292
1.1193473 3.1813214 1.7104024
1.1123677 3.1796694 1.7176862
1.114486 3.1945603 1.7097938
1.049504 3.010211 1.7975219
1.0466989 3.0057228 1.7924325
1.042082 3.0121195 1.7809563
1.0352818 3.00966 1.7842499
1.0209304 3.0250478 1.7809793
1.0178781 3.0099282 1.7986217
1.0165386 3.0182014 1.7866802
1.0027857 3.0137773 1.7947491
1.0009038 3.0267992 1.799626
1.0063039 3.0263674 1.7978599
1.0038096 3.0260434 1.7867643
0.99726808 3.0270998 1.7897435
0.98563534 3.0277269 1.7976886
0.98252439 3.0257432 1.781749
0.98270512 3.0336001 1.799778
0.9796133 3.0225978 1.7812738
0.97416204 3.034452 1.7896353
0.97676742 3.0367506 1.7921709
0.96743983 3.0413666 1.7863326
0.9629873 3.0355842 1.7986727
0.95676672 3.0315106 1.7893046
0.95944875 3.0451009 1.7996145
0.94510818 3.0512657 1.7891792
0.93871093 3.0385284 1.7953939
0.93637216 3.0501831 1.7881049
0.9320606 3.0429587 1.7884589
0.92924309 3.0544977 1.7993183
0.93478519 3.0528588 1.7911334
0.9228611 3.0461109 1.7862275
0.92509705 3.0591309 1.794208
0.91967124 3.0501523 1.79679
0.90487552 3.0480797 1.791643
0.90038806 3.0558927 1.7913473
0.90546358 3.0615361 1.797007
0.89675206 3.0490701 1.7930197
0.90074968 3.0565238 1.7805123
0.88509971 3.0653934 1.7982544
0.88030744 3.0640399 1.7930738
0.88732845 3.0549991 1.7798673
0.86944187 3.0724328 1.7984086
0.87953424 3.0686808 1.7867055
0.87220681 3.0743752 1.7916698
0.85973066 3.0598259 1.7831928
0.86695719 3.0745976 1.7991108
0.85984176 3.0649052 1.7813207
0.84873736 3.0634594 1.789748
0.84512401 3.0706141 1.7858144
0.8392511 3.0772293 1.7993029
0.82819587 3.0751193 1.7825321
0.82393253 3.0793788 1.7819823
0.83820903 3.0779881 1.7964739
0.82078075 3.073529 1.7954593
0.8283152 3.0808549 1.7987007
0.80737102 3.0796697 1.795525
0.80234337 3.0756333 1.7814741
0.79952395 3.0847583 1.7848004
0.8051303 3.0745373 1.7941109
0.8068015 3.0827127 1.7888714
0.80195975 3.0841033 1.7803631
0.8003456 3.0855031 1.7949613
0.77818006 3.0854533 1.7870219
0.79050469 3.0922506 1.7934824
0.78181314 3.0908594 1.7861338
0.77636153 3.0928028 1.7964709
0.76773274 3.0939989 1.7816485
0.76505154 3.0966573 1.794834
0.76569521 3.0892053 1.7966876
0.75564784 3.0877097 1.7856114
0.76035959 3.0856586 1.7948266
0.75656164 3.1062813 1.7843486
0.74736041 3.0890279 1.7927336
0.73021835 3.1083903 1.7868347
0.73953539 3.1033535 1.7984698
0.72150236 3.0971591 1.790979
0.73380506 3.1066315 1.7836213
0.73128396 3.0977197 1.7978648
0.72194707 3.09375 1.7836052
0.71446234 3.104033 1.7868049
0.71589994 3.1033287 1.7869145
0.70655149 3.1031296 1.7866136
0.70672363 3.0980334 1.7880325
0.6952793 3.1001008 1.7877927
0.69793493 3.1157923 1.7815013
0.6922242 3.1177592 1.7880064
0.67902148 3.1163387 1.7829812
0.67845964 3.1167085 1.7880471
0.67214 3.1120541 1.7881523
0.67155957 3.104229 1.7975556
0.67417747 3.1221569 1.7852759
0.65690362 3.1150532 1.7918243
0.65932775 3.1124396 1.7923096
0.6431694 3.1227012 1.7939017
0.64677006 3.1199393 1.7902306
0.64407802 3.1157887 1.7875779
0.64788997 3.1227591 1.782562
0.62667537 3.1134923 1.7969794
0.63052541 3.1222317 1.7858119
0.63447958 3.1147184 1.7858949
0.62783581 3.1141515 1.7829872
0.60891122 3.1206408 1.7920635
0.61653382 3.1338851 1.7976199
0.60464054 3.1353037 1.7925378
0.61433816 3.1246567 1.7837995
0.60036349 3.1356525 1.7900227
0.60373491 3.1347966 1.7823342
0.58208936 3.1370635 1.7845027
0.59486014 3.1275189 1.794541
0.57646221 3.1262684 1.7962019
0.5781461 3.1227152 1.7964383
0.57692128 3.1245797 1.782312
0.56477159 3.1384101 1.7805847
0.55817723 3.1246917 1.7994363
0.56649971 3.1450169 1.7868075
0.56608289 3.1357141 1.7843472
0.55188823 3.134131 1.7802094
0.55000383 3.1352515 1.7975233
0.55028701 3.1334929 1.7844834
0.54060745 3.1376882 1.7893901
0.53258783 3.1479197 1.7899464
0.5248034 3.1412799 1.7915763
0.52289182 3.1468456 1.7862517
0.51925176 3.1501725 1.7864301
0.51446241 3.146179 1.7861609
0.51704323 3.1461265 1.7958225
0.51716274 3.1362386 1.7831404
0.51314354 3.1488264 1.7908244
0.50643724 3.1460586 1.7960018
0.48669019 3.1379735 1.784632
0.4918488 3.1462319 1.7827576
0.47756281 3.1510704 1.7935138
0.48490575 3.1383622 1.7891115
0.48692316 3.1463807 1.7873185
0.46911806 3.1539769 1.7808203
0.47104287 3.1485221 1.7935641
0.46262836 3.1475563 1.7957205
0.46153095 3.1469414 1.7897714
0.44811666 3.1439915 1.7803673
0.4598788 3.1456668 1.7821969
0.4402703 3.1568737 1.7916099
0.43878666 3.1581686 1.7851925
0.44805828 3.1511812 1.7854042
0.4329268 3.1505876 1.7929777
0.43600145 3.1565652 1.7874969
0.43257704 3.1488457 1.795917
0.42189562 3.1570899 1.7827331
0.41336983 3.1486166 1.7883021
0.41889414 3.151109 1.7902951
0.41501355 3.149745 1.7933433
0.41296178 3.1531544 1.7869847
0.40032229 3.1594632 1.7813132
0.40126458 3.1594274 1.788053
0.38241789 3.1686447 1.7936037
0.39114395 3.1653221 1.7845428
0.37438849 3.1629615 1.787179
0.38605249 3.1543064 1.7974827
0.36453176 3.1615133 1.7987421
0.36857927 3.1586332 1.7819291
0.35461912 3.1562622 1.7831936
0.36370653 3.1562293 1.787315
0.34643456 3.167948 1.797199
0.34349051 3.1650009 1.7865069
0.34728566 3.1675994 1.7844981
0.3366307 3.1633172 1.7986388
0.33691424 3.1666737 1.7898971
0.33983341 3.1660888 1.7919846
0.33305568 3.1683784 1.7807696
0.32753661 3.1591117 1.7861713
0.32520404 3.1602819 1.7887046
0.3241353 3.1749368 1.7907141
0.30718741 3.1767178 1.7839576
0.30012289 3.1599536 1.7937751
0.30236569 3.1713843 1.7857186
0.30259913 3.1765599 1.7929134
0.29697275 3.1664202 1.7830044
0.28260404 3.1636009 1.7920563
0.2903223 3.178406 1.78295
0.28682509 3.1720946 1.7841352
0.26872903 3.1678541 1.7860548
0.27316576 3.1669486 1.7821999
0.25961152 3.1734998 1.7997025
0.25930017 3.1773915 1.7800241
0.24880581 3.1679318 1.791365
0.25025442 3.1831119 1.7874769
0.25889748 3.1770723 1.7930502
0.23763107 3.1810713 1.7954116
0.24541615 3.1771963 1.7921917
0.24409448 3.1742327 1.7822804
0.22395757 3.177582 1.7877544
0.22573981 3.1697774 1.7919551
0.22366658 3.1728287 1.7823454
0.21909569 3.1799788 1.7962719
0.21484584 3.181046 1.7803892
0.20193657 3.167973 1.7993433
0.2051388 3.1679549 1.7919207
0.19391394 3.171083 1.7881663
0.20505017 3.1864088 1.7802122
0.19296621 3.1848264 1.7889761
0.19097051 3.1875207 1.7807767
0.17444848 3.1764116 1.7844666
0.18212685 3.1876438 1.7909077
0.18019514 3.17872 1.7842053
0.17218959 3.1699617 1.7982823
0.16830108 3.1727102 1.7990047
0.16336635 3.1830769 1.7994337
0.15100871 3.1866355 1.7827215
0.15489632 3.1857471 1.7810724
0.15082961 3.1771922 1.7975839
0.13552645 3.1710594 1.7965392
0.13202372 3.1728222 1.7841408
0.13221067 3.186682 1.7827363
0.13883851 3.1830287 1.792176
0.11876372 3.1757889 1.7926316
0.11276559 3.1890798 1.7956158
0.10748962 3.1818557 1.7887533
0.10264248 3.1866937 1.785242
0.10108303 3.1798396 1.7806411
0.097874187 3.1733391 1.7872902
0.091176711 3.1759562 1.7876177
0.10343435 3.1794918 1.7895254
0.083293453 3.1876354 1.7851163
0.081747912 3.1868284 1.7968837
0.089641899 3.1903684 1.781247
0.077991337 3.192332 1.7987435
0.069324888 3.1734419 1.7888639
0.073795803 3.1741271 1.7836769
0.054755226 3.1776752 1.7914963
0.051113691 3.1824374 1.7926822
0.054121234 3.1849251 1.7963583
0.057456046 3.1840935 1.7834491
0.042698488 3.1875441 1.7985687
0.04353182 3.1738727 1.7927729
0.036132459 3.1925189 1.7904148
0.033096433 3.1839383 1.7899243
0.027556762 3.1911149 1.7904537
0.032137513 3.1871865 1.7915846
0.011531211 3.1886415 1.7961861
0.018744349 3.1908793 1.7854785
0.0071433671 3.1805489 1.7971933
-0.00078154163 3.1779776 1.7880174
-0.0016157414 3.1850731 1.7822394
-0.0073302104 3.1774266 1.7827436
0.0011595744 3.1868052 1.7818534
-0.012708752 3.1775725 1.7923483
-0.0070675677 3.1872249 1.7899919
-0.020896876 3.1858826 1.7836852
-0.033595264 3.1883585 1.798818
-0.021692034 3.1824727 1.7961789
-0.040496383 3.1894104 1.7832061
-0.047585871 3.192848 1.787665
-0.043851115 3.1798763 1.7992285
-0.045894172 3.1856146 1.7831608
-0.047433037 3.1842675 1.7964932
-0.049861956 3.1734769 1.7806205
-0.061795827 3.1727519 1.7944337
-0.056085974 3.1826222 1.7869447
-0.076682657 3.1842186 1.7819781
-0.082146451 3.182143 1.7911779
-0.070249103 3.1856871 1.7873739
-0.091324337 3.1865661 1.7870724
-0.087940544 3.1756039 1.79387
-0.092993028 3.1870229 1.786483
-0.094113059 3.1813269 1.7978325
-0.10190053 3.1776259 1.7984806
-0.10556054 3.1864147 1.7984995
-0.115407 3.1853371 1.7884905
-0.11274222 3.188086 1.7801862
-0.11504383 3.1897945 1.7899202
-0.12814546 3.1878235 1.7833188
-0.12505072 3.1892004 1.7977229
-0.12225726 3.1783836 1.7812978
-0.13266595 3.1869369 1.7964305
-0.13046122 3.1787927 1.7860124
-0.13690682 3.187283 1.7920448
-0.142704 3.1765356 1.7870233
-0.14848197 3.1803632 1.781088
-0.16426854 3.171277 1.7980715
-0.16835918 3.1843107 1.7969396
-0.16271548 3.1686637 1.794019
-0.16367285 3.1805322 1.7926635
-0.17022572 3.1796145 1.7806859
-0.17320339 3.1727085 1.7974625
-0.18104795 3.1724272 1.7863017
-0.17931016 3.1701198 1.7838446
-0.1915397 3.1864347 1.7908591
-0.18879023 3.1813905 1.7819269
-0.21197574 3.1849785 1.7841402
-0.19817729 3.1688943 1.799625
-0.20551032 3.1828718 1.7997069
-0.21576354 3.1803095 1.7919075
-0.2273718 3.1756117 1.7834469
-0.23095722 3.1723533 1.7883428
-0.23776561 3.1656671 1.793226
-0.23573427 3.1651347 1.7960769
-0.23615959 3.1767888 1.7955236
-0.24956988 3.1756077 1.7902135
-0.25191194 3.1756561 1.7887849
-0.25204015 3.1739175 1.7915715
-0.25668299 3.1692603 1.7886413
-0.26124346 3.1787636 1.7834611
-0.27360284 3.181072 1.7939012
-0.27442232 3.1642077 1.7814071
-0.27034536 3.1649475 1.7825572
-0.28138456 3.1721308 1.7835116
-0.28957239 3.1633 1.7964629
-0.27831289 3.1654701 1.788582
-0.29236296 3.1697087 1.7811047
-0.28784111 3.1782291 1.7922502
-0.30053204 3.1665161 1.7991058
-0.29615244 3.1746516 1.7958384
-0.31695253 3.1748364 1.7952591
-0.30731189 3.1586096 1.7982017
-0.31016466 3.170867 1.7822762
-0.3118667 3.1564922 1.7939322
-0.33261365 3.1583359 1.7971619
-0.32040876 3.1558447 1.7829725
-0.3360841 3.1637087 1.7934383
-0.33923608 3.1604989 1.7928474
-0.35124192 3.1690023 1.7809727
-0.35639137 3.1662886 1.7976688
-0.34480754 3.1671777 1.7949909
-0.35380226 3.1621094 1.7965337
-0.35985377 3.1585898 1.7907878
-0.36183003 3.1577692 1.7911268
-0.37214953 3.1606019 1.7937756
-0.37923852 3.1600387 1.7944053
-0.38051623 3.1681995 1.7833773
-0.39132738 3.1576064 1.789624
-0.38272861 3.159405 1.7848648
-0.38600382 3.1604509 1.7978886
-0.39258218 3.1574769 1.7923044
-0.40183762 3.1499038 1.7821609
-0.40954942 3.1606739 1.7890131
-0.40300635 3.1538615 1.7955661
-0.41612339 3.161123 1.7854791
-0.42659092 3.1456883 1.7953628
-0.41642785 3.1533675 1.793947
-0.417292 3.1546266 1.7824839
-0.43190852 3.1488748 1.7933716
-0.43128344 3.1442373 1.7858633
-0.62304485 4.4509339 1.2935318
-0.63678426 4.4389791 1.2966111
-0.64066589 4.443697 1.2910371
-0.637694 4.439342 1.2792337
-0.64816791 4.4462528 1.2952806
-0.64872754 4.4470787 1.2964877
-0.65940213 4.4424486 1.2859752
-0.67149121 4.4413347 1.2973291
-0.67504209 4.4299841 1.2835445
-0.68770403 4.4436374 1.285742
-0.68787283 4.4353185 1.281738
-0.69795811 4.4394431 1.2866712
-0.70496255 4.4258676 1.297223
-0.69753969 4.4414444 1.2843288
-0.72191882 4.4327264 1.2792634
-0.7102496 4.4296265 1.2959501
-0.71737188 4.4220285 1.2889417
-0.73500526 4.4285169 1.2817634
-0.7412833 4.4176283 1.284187
-0.74134439 4.4202504 1.2812247
-0.75920653 4.428875 1.2909131
-0.76107121 4.4335837 1.2857043
-0.75800127 4.4174566 1.2879068
-0.76437807 4.4149199 1.2866815
-0.78364748 4.4141698 1.2777425
-0.78798074 4.411253 1.2867163
-0.79562575 4.4273767 1.2891138
-0.7902776 4.4120288 1.2790296
-0.79210615 4.4165626 1.2790952
-0.81150967 4.4071941 1.2828301
-0.81387377 4.4061203 1.2962452
-0.82654786 4.4093375 1.2954338
-0.82442921 4.4217792 1.2795684
-0.82010645 4.4139962 1.2822478
-0.83700728 4.4130955 1.2852671
-0.84284556 4.4140105 1.2864684
-0.83970827 4.4134288 1.2849009
-0.85417181 4.4043422 1.2891015
-0.85871798 4.3995714 1.2789606
-0.86319679 4.4015408 1.2805842
-0.86393899 4.4072876 1.2822762
-0.8712644 4.4065008 1.2883357
-0.87939948 4.3939714 1.2879956
-0.88339818 4.3919015 1.2810403
-0.90471566 4.399066 1.2943602
-0.90301216 4.3865256 1.2897801
-0.90010554 4.403255 1.2858117
-0.91876465 4.3916512 1.2939581
-0.91322136 4.4016299 1.2785443
-0.91781723 4.3932567 1.2863189
-0.94078761 4.3902664 1.2810681
-0.94206423 4.3860745 1.2962664
-0.9372794 4.3798695 1.2801799
-0.95283282 4.3957853 1.2832764
-0.95533955 4.3765025 1.2947994
-0.96452463 4.3850398 1.2950529
-0.97828788 4.3825979 1.2933145
-0.97601765 4.3876104 1.2812595
-0.98559916 4.3842773 1.2804793
-0.99059236 4.3824577 1.2926303
-0.98780912 4.3837752 1.2831043
-1.0102748 4.3699222 1.2907079
-0.99754 4.3669577 1.2934364
-1.0208899 4.3745418 1.2934198
-1.0211412 4.3657188 1.2954674
-1.0298674 4.3738098 1.2874079
-1.0383383 4.3742332 1.278271
-1.0285455 4.3630219 1.2955194
-1.0508056 4.3683214 1.2908158
-1.0538439 4.3547182 1.2856826
-1.0647291 4.369987 1.2832652
-1.0651381 4.3688769 1.2884015
-1.0579416 4.3665862 1.2919885
-1.0680144 4.3670282 1.2845834
-1.0781016 4.3533001 1.2897881
-1.0861393 4.3569241 1.2845243
-1.0822344 4.3581543 1.2811337
-1.1074641 4.3552518 1.2879893
-1.0954434 4.3561621 1.2816106
-1.1081239 4.3401051 1.2831037
-1.1259357 4.339231 1.2813489
-1.1261624 4.3440142 1.2799759
-1.1212507 4.3420587 1.2778125
-1.1327499 4.3360925 1.2776
-1.1316519 4.3460994 1.2851765
-1.1453469 4.3341269 1.2779028
-1.1443033 4.3321152 1.2933936
-1.1666483 4.3309274 1.2875246
-1.1621355 4.3278117 1.2841169
-1.1639988 4.3380656 1.2862115
-1.1843668 4.3365545 1.289
-1.1864873 4.3208623 1.2781485
-1.1899786 4.3361244 1.2869263
-1.1956309 4.3259277 1.2913314
-1.2014933 4.3228679 1.2873451
-1.1997769 4.3121495 1.2929964
-1.2053317 4.3285084 1.2782546
-1.2153934 4.3085542 1.2839524
-1.2313217 4.3191419 1.2881702
-1.2306553 4.3138938 1.2842858
-1.227892 4.314302 1.2805429
-1.2423376 4.3186126 1.2827684
-1.2476324 4.3054523 1.2819251
-1.2641468 4.3126574 1.2925632
-1.2562537 4.3000159 1.2818276
-1.2723445 4.295104 1.2820679
-1.2627814 4.310648 1.2803699
-1.2879575 4.3021383 1.2804288
-1.2874335 4.3037066 1.2927954
-1.282689 4.2919455 1.2816418
-1.3018265 4.2889485 1.2926332
-1.3047043 4.2975044 1.2896801
-1.3053541 4.2867622 1.2953199
-1.3068446 4.2854996 1.2899265
-1.3176944 4.2781215 1.2936615
-1.3192772 4.2806416 1.2942629
-1.3406172 4.2787108 1.292195
-1.3436525 4.2775884 1.2834129
-1.3466262 4.2829719 1.2780027
-1.3572307 4.279078 1.282643
-1.3589861 4.2820234 1.2861063
-1.3697475 4.268065 1.2799546
-1.3634592 4.279428 1.2848974
-1.3715286 4.2752695 1.2904229
-1.3849887 4.2662272 1.2904238
-1.394711 4.2615657 1.2948067
-1.3838292 4.2615252 1.2791295
-1.3950126 4.2644081 1.2842085
-1.3949752 4.2702727 1.2965577
-1.4003453 4.2514858 1.2869084
-1.4210725 4.2568946 1.2821083
-1.4183334 4.2574892 1.2852615
-1.4217435 4.2503176 1.281698
-1.4402077 4.2610188 1.2959043
-1.4331437 4.2441998 1.2830054
-6.2628899 2.9093018 0.35087281
-6.2641969 2.8935065 0.3565402
-6.2727199 2.8901296 0.35850966
-6.2677774 2.8838749 0.35397097
-6.2704115 2.8779471 0.3510851
-6.2753491 2.8706656 0.35880741
-6.2787251 2.8494213 0.3520045
-6.2965446 2.83781 0.36019126
-6.2859783 2.8365588 0.35861379
-6.2878766 2.8366022 0.36356115
-6.301425 2.8147624 0.35517439
-6.2988534 2.8156495 0.35974944
-6.3106027 2.8120358 0.34970996
-6.3203697 2.7973742 0.36218411
-6.3146629 2.7840762 0.35750419
-6.31183 2.7698262 0.35432211
-6.3212624 2.7761729 0.35868058
-6.3174853 2.748661 0.36021823
-6.3255091 2.7556639 0.34930065
-6.3350983 2.744705 0.34722799
-6.1681509 2.6505678 0.4238959
-6.1610522 2.6567073 0.41849014
-6.1693659 2.6349976 0.41828862
-6.1877074 2.627408 0.43224889
-6.1735625 2.6294 0.42174003
-6.1840854 2.6180875 0.42581519
-6.1977787 2.6011932 0.42507684
-6.1871009 2.5919139 0.42567152
-6.1948738 2.5984364 0.4221195
-6.193552 2.5791836 0.41646418
-6.1942906 2.5791023 0.41908661
-6.2101231 2.5698061 0.41647527
-6.2113485 2.5558703 0.42078602
-6.2127638 2.5472548 0.42614418
-6.2202067 2.5364344 0.42213637
-6.2181458 2.5187287 0.43546334
-6.2319984 2.510956 0.42054817
-6.2265768 2.5174747 0.42501101
-6.2405481 2.4998224 0.42465881
-6.2380595 2.4870815 0.43372098
-6.2412143 2.4771793 0.43137437
-6.0680752 2.4065182 0.50018239
-6.0710988 2.4069197 0.49196342
-6.0697999 2.3894472 0.50381643
-6.0831308 2.3880613 0.49354118
-6.0804577 2.3722532 0.49425757
-6.084446 2.3660977 0.49590331
-6.0833373 2.3488569 0.49277467
-6.097754 2.3411252 0.50070548
-6.0925107 2.3393509 0.50461215
-6.0981936 2.3378782 0.50733829
-6.1062112 2.3193302 0.49662203
-6.0971823 2.321095 0.49479583
-6.1163602 2.3074837 0.50399059
-6.1036735 2.3038542 0.50029737
-6.1212502 2.2861989 0.48929855
-6.1180983 2.2878449 0.50065154
-6.1132889 2.2738769 0.50327545
-6.1315961 2.2687576 0.50668412
-6.1219602 2.252135 0.49683923
-6.128406 2.2530715 0.49404722
-6.1321135 2.2292202 0.50123703
-6.1265254 2.2376156 0.49872607
-6.1427517 2.2100391 0.49114275
-5.9740028 2.1554623 0.56024683
-5.9646158 2.1496181 0.56847018
-5.9662161 2.1300962 0.56689179
-5.9764514 2.1185422 0.55990207
-5.9840512 2.1118276 0.57635438
-5.9882312 2.0978835 0.56474972
-5.982244 2.100616 0.56265134
-5.9790368 2.0827518 0.56527591
-5.9886289 2.0735745 0.56487465
-6.0007195 2.0712576 0.56547987
-6.0003819 2.0649965 0.5629769
-6.0027022 2.0510974 0.5629757
-5.9967871 2.0385616 0.57180279
-6.0124393 2.0387425 0.57743025
-6.0150685 2.0342636 0.56470174
-6.0012345 2.0285337 0.56639153
-6.0189929 2.0117083 0.57918066
-6.0188384 2.0009947 0.56247628
-6.0160475 2.0035834 0.5649693
-6.0136456 1.9969629 0.57352448
-6.0306273 1.9735503 0.56420112
-6.0300999 1.9706762 0.56936556
-6.029562 1.9565638 0.57038522
-6.0401855 1.9496349 0.55998045
-6.0251694 1.9428998 0.57349563
-6.04287 1.9328108 0.56968373
-5.8609347 1.8713025 0.64922625
-5.8640542 1.8694465 0.63469255
-5.8638668 1.8531581 0.65116179
-5.8611746 1.8420364 0.64942896
-5.869916 1.8366864 0.63270575
-5.8679695 1.8346052 0.64153433
-5.8808465 1.8157916 0.64468038
-5.8726931 1.8090727 0.64933121
-5.8749323 1.800076 0.63568431
-5.8836451 1.7960731 0.64038956
-5.8961587 1.7987535 0.64849216
-5.8808913 1.7809067 0.64293897
-5.900146 1.7658281 0.64930129
-5.9029202 1.7760109 0.63274926
-5.8874154 1.7600102 0.63905823
-5.9086227 1.7485027 0.6315006
-5.9009895 1.746653 0.63334751
-5.9101992 1.7354804 0.63669723
-5.9147463 1.7245804 0.63927549
-5.9129286 1.7074683 0.64607942
-5.9063945 1.7003319 0.64379603
-5.911746 1.6909407 0.63190138
-5.9226389 1.6847608 0.63316739
-5.9271584 1.6782614 0.63285869
-5.9282179 1.6697098 0.6447953
-5.9229574 1.6623827 0.63347387
-5.9252424 1.6651089 0.64855534
-5.9256692 1.6410344 0.64072043
-5.9227347 1.6348099 0.65024507
-5.7571363 1.5835768 0.7226938
-5.7447276 1.5707155 0.70449901
-5.7545915 1.5748653 0.70518249
-5.7563386 1.5704732 0.70795876
-5.7568088 1.5439013 0.71251172
-5.757576 1.5385977 0.71679246
-5.7663956 1.5408715 0.72202873
-5.7665253 1.523165 0.71827698
-5.7715621 1.527325 0.71873963
-5.7644229 1.5167016 0.72126997
-5.7677474 1.5138726 0.71007442
-5.7703857 1.5056423 0.71406466
-5.7712069 1.4897271 0.71025485
-5.7713337 1.4742326 0.71010602
-5.7886729 1.4804245 0.71144158
-5.7814484 1.4679945 0.71553278
-5.7899313 1.4488789 0.70995998
-5.7931666 1.4517565 0.71474582
-5.7801423 1.4317087 0.71175992
-5.7866445 1.4409006 0.70622158
-5.7906046 1.4288568 0.70592839
-5.8057489 1.4162529 0.70548171
-5.7968917 1.4048939 0.71719974
-5.7918334 1.3954632 0.72150588
-5.8069124 1.3907374 0.72008955
-5.8006444 1.3752693 0.71433163
-5.8102736 1.3733397 0.71754938
-5.8054647 1.3701848 0.71173882
-5.8158584 1.3620528 0.71397734
-5.809227 1.3494066 0.71350741
-5.8081222 1.3347764 0.70909619
-5.8072991 1.3269668 0.72018617
-5.6448188 1.2888482 0.77979845
-5.6326447 1.2791045 0.78631747
-5.6361537 1.276213 0.77622396
-5.6410675 1.2615094 0.77877843
-5.6517286 1.2590848 0.78752196
-5.6391606 1.2433665 0.781232
-5.6523924 1.2391402 0.79493415
-5.6433744 1.2234201 0.78411669
-5.6548157 1.2306679 0.78679836
-5.6506567 1.2205905 0.78980219
-5.6553974 1.212741 0.78394163
-5.6522875 1.1988378 0.77622002
-5.6626477 1.1831865 0.79349226
-5.6630902 1.1843714 0.78394842
-5.6609678 1.1766342 0.77987009
-5.6700902 1.1631927 0.78796595
-5.6654916 1.1582366 0.7797305
-5.6671801 1.1440043 0.78367233
-5.6596746 1.1400257 0.78276163
-5.6694765 1.1418899 0.7796756
-5.6762638 1.1206867 0.77664453
-5.6689005 1.1242551 0.78761685
-5.6692476 1.1191139 0.79084712
-5.6723113 1.09517 0.7831735
-5.6649079 1.0949776 0.77567637
-5.6815715 1.0872804 0.78265375
-5.6701283 1.0857885 0.79259318
-5.6869097 1.0642037 0.77622062
-5.679738 1.071709 0.7837922
-5.6734662 1.0509858 0.78115278
-5.690269 1.0450381 0.78523713
-5.6900916 1.0480052 0.780819
-5.6789312 1.0321658 0.7791912
-5.6845293 1.0147917 0.78155291
-5.6977897 1.0063394 0.79165792
-5.8824201 1.0349061 0.71023011
-5.8762231 1.0239799 0.70702356
-5.880075 1.0177573 0.71017426
-5.8802876 1.0201805 0.70877415
-5.8729177 1.0103385 0.71459699
-5.8881755 1.0051454 0.72242022
-5.8793378 0.98157036 0.72116065
-5.8749061 0.99058545 0.71201372
-5.8920913 0.97542101 0.71344686
-5.8869033 0.96840352 0.71438378
-5.8915982 0.96203589 0.71966994
-5.8859363 0.94329542 0.72224653
-5.8834696 0.94212157 0.70681942
-6.0822783 0.97097468 0.65026271
-6.0780783 0.95950317 0.64386016
-6.0880432 0.95415777 0.64048922
-6.0901732 0.93902302 0.64176977
-6.0735507 0.92968071 0.64029384
-6.0860634 0.92450303 0.63188392
-6.0771313 0.90585184 0.64468873
-6.0872498 0.90383214 0.63935995
-6.0920706 0.88878947 0.64352673
-6.0943031 0.87751734 0.63475746
-6.0919504 0.87316644 0.63424808
-6.0943694 0.87433672 0.65076607
-6.268074 0.89258969 0.57866609
-6.2802787 0.884013 0.57170731
-6.2711902 0.87334388 0.56391066
-6.2835655 0.85143554 0.57944262
-6.2843385 0.859721 0.56483132
