# .PCD v0.7 - Point Cloud Data file format
VERSION 0.7
FIELDS x y z
SIZE 4 4 4
TYPE F F F
COUNT 1 1 1
WIDTH 1502
HEIGHT 1
VIEWPOINT 0 0 0 1 0 0 0
POINTS 1502
DATA ascii
-2.6430697 -3.0927763 1.3634081
-2.6314681 -3.0899074 1.3684808
-2.6309435 -3.1013589 1.3752378
-2.6226766 -3.0948405 1.3632791
-2.6231313 -3.1140263 1.3800427
-2.6218691 -3.1108418 1.3649242
-2.6201468 -3.1229026 1.3653154
-2.6098881 -3.1168807 1.3761877
-2.6096759 -3.119839 1.3690004
-2.5993257 -3.119081 1.3773141
-2.6042492 -3.1302328 1.3664812
-2.5975828 -3.1341105 1.3622222
-2.4675102 -2.9987965 1.4447044
-2.4692037 -3.0023882 1.4429034
-2.4628513 -2.9907777 1.4456033
-2.4597304 -3.0022535 1.4551681
-2.4517231 -3.0163605 1.4363465
-2.4633195 -3.0045671 1.4472152
-2.4440391 -3.0169256 1.4387878
-2.451941 -3.0233023 1.4547745
-2.4315248 -3.0189767 1.4432594
-2.4419365 -3.0323637 1.4515103
-2.4366024 -3.0183904 1.4357131
-2.4232755 -3.0303001 1.4397907
-2.4317448 -3.0400515 1.4389395
-2.4175098 -3.0308807 1.4500672
-2.4137049 -3.0379066 1.450537
-2.4087172 -3.0407379 1.4462432
-2.4128556 -3.048502 1.4530282
-2.4054172 -3.0483861 1.4368676
-2.4019871 -3.0520771 1.4484581
-2.3900676 -3.0504072 1.4500811
-2.3898926 -3.067636 1.4490908
-2.38551 -3.0557752 1.4395986
-2.3770449 -3.0766256 1.4437566
-2.3694267 -3.067488 1.4404811
-2.370676 -3.0787969 1.4535694
-2.3714507 -3.0693741 1.4472106
-2.3565147 -3.088351 1.4364655
-2.354789 -3.0841548 1.4492083
-2.3492193 -3.0807991 1.4416261
-2.3520546 -3.0897989 1.4390737
-2.3532622 -3.1029031 1.4426466
-2.3354554 -3.0959094 1.4414284
-2.3471363 -3.1047394 1.4427018
-2.3346548 -3.110245 1.4364491
-2.325444 -3.1012983 1.4422172
-2.3231406 -3.1174293 1.4407324
-2.3271914 -3.122932 1.4435886
-2.3219824 -3.111021 1.4539529
-2.3040264 -3.1178575 1.4509789
-2.313648 -3.1318502 1.4423051
-2.3058174 -3.131377 1.443821
-2.2944095 -3.1374273 1.4556184
-2.3042152 -3.1394939 1.4418675
-2.292743 -3.1334188 1.4458865
-2.287519 -3.1424775 1.4421221
-2.1674063 -2.9834337 1.5199844
-2.1780999 -3.0027897 1.5211074
-2.1659331 -3.0012951 1.5173926
-2.1633976 -3.0062072 1.5300869
-2.1638319 -3.0051084 1.5120273
-2.1529357 -3.0005507 1.5176741
-2.1405196 -3.0089614 1.5204976
-2.136302 -3.0115588 1.5244751
-2.1458309 -3.0270691 1.5177425
-2.1313367 -3.0217454 1.52516
-2.1206026 -3.0298193 1.524676
-2.1264963 -3.0327759 1.5278801
-2.1312628 -3.0277591 1.5156171
-2.1197398 -3.024404 1.5214744
-2.1155186 -3.0256851 1.511457
-2.1093528 -3.0402761 1.5290178
-2.0975361 -3.0466609 1.5211827
-2.1028919 -3.0530422 1.5137591
-2.1042659 -3.0531712 1.513828
-2.0923684 -3.0430284 1.5222178
-2.0930495 -3.0463784 1.5255246
-2.0742104 -3.0598533 1.5288601
-2.0721631 -3.0623298 1.5201918
-2.0823746 -3.0575225 1.5178518
-2.066725 -3.0727379 1.5171982
-2.0610886 -3.066035 1.5249153
-2.0578871 -3.0717669 1.5292032
-2.0625169 -3.0671105 1.5300591
-2.0545664 -3.0680883 1.5137299
-2.0465426 -3.0814326 1.5104811
-2.0501254 -3.079726 1.526814
-2.0303972 -3.0834525 1.5125979
-2.0273294 -3.0894082 1.5188251
-2.0329261 -3.0898557 1.5127732
-2.0208588 -3.098938 1.5144137
-2.0294409 -3.0866723 1.5256591
-2.0103021 -3.0954978 1.5140684
-2.0068715 -3.0932498 1.5300237
-2.0025811 -3.1073518 1.5278853
-2.0146158 -3.0977347 1.5152804
-2.0098953 -3.1160088 1.5272539
-1.9888382 -3.1188672 1.5183665
-2.0019932 -3.1229746 1.5263832
-1.9889171 -3.1169994 1.5168059
-1.981889 -3.1232812 1.5209942
-1.9732165 -3.122474 1.5202897
-1.9732947 -3.1268604 1.5135951
-1.9649599 -3.1321526 1.511978
-1.9606657 -3.1374946 1.5190824
-1.9585062 -3.1392157 1.5186213
-1.9489477 -3.1405644 1.5226974
-1.9474119 -3.1452084 1.5267202
-1.9547597 -3.1473634 1.5294344
-1.954087 -3.1408021 1.5209171
-1.8454913 -2.9936366 1.6033989
-1.8304206 -2.9999707 1.5949746
-1.8360509 -2.9907546 1.5849386
-1.828372 -2.9975796 1.5923791
-1.8223066 -3.0044899 1.59724
-1.8291333 -3.0136242 1.6031361
-1.8164175 -2.9975874 1.5904335
-1.8196219 -3.004406 1.5958309
-1.7988001 -3.0029671 1.6018115
-1.7952604 -3.0052547 1.597085
-1.8002347 -3.0208454 1.6043096
-1.7972178 -3.0255511 1.5877836
-1.7826217 -3.0200765 1.6030513
-1.7780581 -3.0311158 1.5940658
-1.7860504 -3.0202866 1.6007358
-1.7891785 -3.020484 1.6008315
-1.7664069 -3.0321691 1.5995183
-1.7763344 -3.0312662 1.5939348
-1.760861 -3.0337522 1.5923324
-1.7594036 -3.0369127 1.590979
-1.7626692 -3.0492654 1.5965655
-1.7587068 -3.0428226 1.5999711
-1.751267 -3.0460088 1.59137
-1.748556 -3.0488596 1.5942425
-1.7348272 -3.0439346 1.5904511
-1.7344248 -3.0463731 1.5889635
-1.7339233 -3.0502789 1.5982858
-1.7347317 -3.0683546 1.5910003
-1.7211202 -3.0552027 1.6037122
-1.7291077 -3.0648427 1.5957407
-1.7184453 -3.062001 1.5978878
-1.7021929 -3.0594532 1.5889431
-1.7025317 -3.073725 1.599272
-1.7114682 -3.0695491 1.5892035
-1.6975288 -3.0759106 1.5865076
-1.6873775 -3.0861397 1.6038147
-1.6987104 -3.0801406 1.5996517
-1.6807177 -3.0792265 1.5998425
-1.6900072 -3.0889809 1.5956091
-1.6665816 -3.0910063 1.6041532
-1.6711243 -3.0866559 1.5979507
-1.6735165 -3.0903432 1.5967017
-1.6648501 -3.0986631 1.6035807
-1.6658516 -3.1002162 1.5970292
-1.6569183 -3.0921299 1.586504
-1.6506778 -3.098196 1.5881313
-1.6471268 -3.0999017 1.5981333
-1.6477356 -3.1079249 1.5914192
-1.6281502 -3.109551 1.5973141
-1.6327953 -3.1120682 1.6035414
-1.628893 -3.1034479 1.5964704
-1.6311899 -3.1215432 1.5880573
-1.6147326 -3.1152985 1.5936639
-1.6113933 -3.1143851 1.600051
-1.6146022 -3.1288717 1.5968515
-1.6083332 -3.1214538 1.5899072
-1.6004338 -3.1348245 1.6035724
-1.6025292 -3.1331465 1.5915235
-1.5913355 -3.1362295 1.6001517
-1.5942438 -3.1283064 1.5885597
-1.5909218 -3.1408336 1.5878787
-1.5746677 -3.1400132 1.5913873
-1.5668235 -3.1470942 1.6034192
-1.5733695 -3.1351976 1.598637
-1.5735254 -3.1508751 1.6016349
-1.5568779 -3.1446519 1.5943111
-1.5671715 -3.1549006 1.5958709
-1.5637969 -3.151619 1.6013566
-1.5524679 -3.1615214 1.5860018
-1.5525079 -3.1587129 1.6008056
-1.4625175 -2.9902663 1.6598065
-1.4550571 -2.9965386 1.6673573
-1.4440854 -2.9993575 1.6700447
-1.4410789 -2.9931154 1.6668398
-1.4428518 -2.991426 1.6701628
-1.4416239 -2.9974887 1.6619081
-1.427717 -2.9982479 1.6655978
-1.4322475 -3.0000379 1.6747558
-1.4312894 -3.0149078 1.676192
-1.4256835 -3.0142298 1.6626111
-1.4252709 -3.0095954 1.6729453
-1.4203489 -3.0216856 1.6790552
-1.4078733 -3.0069921 1.664389
-1.4127076 -3.0134826 1.6780014
-1.4007438 -3.0259397 1.6753339
-1.4054545 -3.0213654 1.6686286
-1.398417 -3.0270834 1.6631832
-1.3876871 -3.021534 1.677961
-1.3877965 -3.0192313 1.659876
-1.386467 -3.0355303 1.6644706
-1.3787156 -3.0356271 1.6756951
-1.3606275 -3.0350151 1.6768188
-1.3564267 -3.0261433 1.67462
-1.3668895 -3.0263247 1.6679083
-1.3637371 -3.0387638 1.6707115
-1.3632497 -3.040138 1.660055
-1.3494649 -3.0387015 1.6656406
-1.3411227 -3.0507648 1.67873
-1.3380002 -3.0471699 1.6760702
-1.33296 -3.0464804 1.6790539
-1.3233227 -3.0422778 1.6638771
-1.3224581 -3.0442274 1.671243
-1.3204671 -3.0462193 1.669405
-1.3206725 -3.0629201 1.6693045
-1.3075869 -3.0607169 1.6786774
-1.3116956 -3.0622776 1.6685832
-1.3064582 -3.0543072 1.6618261
-1.2956326 -3.0622513 1.6649007
-1.2917151 -3.0713322 1.6734591
-1.2904547 -3.0596344 1.6645898
-1.2862083 -3.0625639 1.6618003
-1.277136 -3.0688958 1.6789322
-1.2806954 -3.0775065 1.6759372
-1.2860901 -3.0705945 1.6781006
-1.2715831 -3.074872 1.6643202
-1.2677004 -3.0675356 1.6708263
-1.2539097 -3.0792415 1.6671438
-1.2668734 -3.0844047 1.6773524
-1.25676 -3.0899353 1.6603094
-1.2580858 -3.0784931 1.6767874
-1.2482785 -3.0870948 1.6721531
-1.2412583 -3.0909166 1.6629981
-1.2371036 -3.0825934 1.6670376
-1.2359416 -3.0839624 1.6597881
-1.2326137 -3.0951247 1.6700544
-1.2230638 -3.0867071 1.6694444
-1.2270054 -3.088804 1.6789095
-1.2827352 -3.2608335 1.5904925
-1.2799047 -3.2744935 1.5928082
-1.2741146 -3.2737918 1.5883292
-1.2718441 -3.2675972 1.5970055
-1.2742056 -3.2786996 1.6036108
-1.2657194 -3.2699673 1.6002845
-1.2531914 -3.2843947 1.5973278
-1.2479101 -3.279819 1.5849419
-1.2523602 -3.2900202 1.6027004
-1.2374178 -3.2884922 1.6000828
-1.2330079 -3.2789176 1.5998116
-1.2425183 -3.2910876 1.5876839
-1.2297106 -3.2820454 1.5980554
-1.2213796 -3.2953129 1.5964119
-1.2890902 -3.4694839 1.5109563
-1.2852298 -3.4658847 1.5105052
-1.2646931 -3.474345 1.5173982
-1.2671107 -3.4821138 1.5106322
-1.2619116 -3.478925 1.5154237
-1.2589517 -3.4853885 1.5234954
-1.2586069 -3.4720392 1.5228878
-1.2585307 -3.4727998 1.5118495
-1.2505798 -3.4853549 1.5115865
-1.232255 -3.4941833 1.5197825
-1.2355711 -3.4906087 1.5294873
-1.2298464 -3.4880259 1.5245948
-1.22457 -3.4897611 1.5130394
-1.2123984 -3.498771 1.5155054
-1.2682983 -3.6626327 1.4484495
-1.2778517 -3.673291 1.4512011
-1.2593309 -3.6684687 1.4490719
-1.2614152 -3.668437 1.4479451
-1.2545353 -3.6853235 1.4360195
-1.247916 -3.668757 1.4370152
-1.2530981 -3.6803806 1.443328
-1.2485732 -3.6911557 1.4539596
-1.2289382 -3.6815336 1.444585
-1.2408563 -3.6846213 1.4479226
-1.2303058 -3.6871846 1.4443051
-1.2123147 -3.684432 1.4518235
-1.2699336 -3.8644857 1.3714566
-1.2710692 -3.8756471 1.3673954
-1.2533292 -3.8650665 1.3682201
-1.2675121 -3.8730071 1.3673767
-1.260697 -3.8712723 1.3766677
-1.2475666 -3.870158 1.3769345
-1.2438021 -3.8745563 1.368567
-1.2294098 -3.8760228 1.3788486
-1.2316775 -3.8720915 1.368296
-1.2175602 -3.875324 1.362218
-1.2718207 -4.0599599 1.2995008
-1.2758056 -4.054224 1.3019054
-1.2638494 -4.0561557 1.296672
-1.2510659 -4.0576806 1.305272
-1.2591233 -4.0778036 1.2973729
-1.2378873 -4.0702114 1.292347
-1.236382 -4.0642724 1.3046738
-1.2432418 -4.0693612 1.2972776
-1.2398177 -4.0821404 1.2955488
-1.2269436 -4.0862279 1.292316
-1.2201451 -4.0741043 1.3031594
-1.2215673 -4.0716429 1.30153
-1.2005824 -4.0829048 1.2997521
-1.2048286 -4.0870647 1.2982244
-1.2004724 -4.0849671 1.2983412
-1.1840128 -4.0873203 1.2878095
-1.192577 -4.0938578 1.3049681
-1.1688119 -4.0929465 1.298781
-1.1724408 -4.0943055 1.3015503
-1.1577961 -4.0884871 1.3019599
-1.1663821 -4.1015692 1.2962123
-1.1641223 -4.1017752 1.2946379
-1.1434897 -4.1066999 1.3035052
-1.1446326 -4.1015768 1.2899078
-1.147301 -4.0978065 1.3000957
-1.1298504 -4.1032872 1.2896101
-1.1229293 -4.103045 1.2942588
-1.1188474 -4.104754 1.3014824
-1.1209502 -4.1158094 1.2890027
-1.1002816 -4.1179404 1.3039889
-1.0992013 -4.1143799 1.2875328
-1.1038663 -4.114284 1.2925025
-1.0901036 -4.1192827 1.2941713
-1.0874715 -4.1111541 1.3025786
-1.0784346 -4.1114249 1.2963642
-1.0792077 -4.1199789 1.3062687
-1.0704643 -4.1273479 1.2980065
-1.0570699 -4.1163731 1.2896193
-1.05645 -4.1332417 1.2917522
-1.0483077 -4.1151838 1.2933217
-1.0451771 -4.1217909 1.3000113
-1.0385005 -4.1188097 1.2883478
-1.0268523 -4.1278152 1.2932291
-1.0335331 -4.1399398 1.2877748
-1.0318046 -4.1287808 1.3035769
-1.0162885 -4.1241503 1.2923443
-1.010866 -4.1365337 1.295254
-1.0137036 -4.141283 1.2906417
-1.0049264 -4.1311741 1.290656
-0.99401432 -4.1386867 1.290215
-0.98153085 -4.1488347 1.304646
-0.98235589 -4.1380739 1.303529
-0.97484237 -4.1414351 1.2948697
-0.96244568 -4.1372495 1.2955407
-0.95550138 -4.1371093 1.2888175
-0.95275301 -4.1472292 1.2881635
-0.9612354 -4.1577048 1.2965565
-0.94680625 -4.1567979 1.3016229
-0.93698758 -4.1528959 1.2982125
-0.92715263 -4.1438661 1.2886961
-0.93775696 -4.1481385 1.2904298
-0.93392837 -4.1590242 1.3043144
-0.91121489 -4.1481862 1.2962198
-0.91715896 -4.1507435 1.2936852
-0.90243024 -4.1521502 1.2926565
-0.89442289 -4.1566038 1.3028659
-0.88706774 -4.1553378 1.3039494
-0.8913179 -4.165442 1.2872812
-0.89050001 -4.1715283 1.2958485
-0.87309062 -4.173583 1.294771
-0.86519599 -4.1720471 1.2907381
-0.87556583 -4.1724896 1.2971287
-0.85204947 -4.1760268 1.2956582
-0.85662591 -4.171319 1.2929236
-0.8437354 -4.1776943 1.290067
-0.85187179 -4.1818762 1.3040332
-0.82979727 -4.1645188 1.300534
-0.82663763 -4.1772294 1.2881913
-0.82014441 -4.1749411 1.2910142
-0.82508236 -4.1810646 1.2930263
-0.81109613 -4.1851163 1.2978104
-0.80114126 -4.1853619 1.30338
-0.80479413 -4.1879177 1.3066319
-0.78991586 -4.1808777 1.2958034
-0.79777074 -4.1867766 1.2998029
-0.78848064 -4.1866436 1.3008155
-0.78522277 -4.1902685 1.3003725
-0.76546252 -4.1965685 1.288398
-0.75804347 -4.1822114 1.2998825
-0.76779997 -4.1986299 1.3064061
-0.75554281 -4.186902 1.2900326
-0.7585001 -4.1910601 1.2945596
-0.73588628 -4.1847134 1.2976689
-0.73001909 -4.189333 1.2889483
-0.73497897 -4.1876531 1.2954502
-0.73593795 -4.2025304 1.3031992
-0.7158829 -4.1999984 1.2884283
-0.71626943 -4.203557 1.2884549
-0.70862901 -4.2055483 1.3039275
-0.70950276 -4.2031498 1.3040624
-0.7038514 -4.1943488 1.2969979
-0.69457215 -4.1943617 1.28684
-0.68076462 -4.197619 1.3040848
-0.68384635 -4.2008681 1.2977583
-0.6756475 -4.1949377 1.2941517
-0.6609453 -4.1958289 1.2966994
-0.65849286 -4.202529 1.3028022
-0.65080994 -4.2154803 1.3063619
-0.64309919 -4.2066584 1.2889374
-0.63991451 -4.2045774 1.2949104
-0.63659376 -4.2027149 1.2906749
-0.6403361 -4.2174439 1.2874091
-0.6342352 -4.204237 1.3018606
-0.61088818 -4.2199855 1.2940289
-0.61386639 -4.2134099 1.2930852
-0.6004501 -4.2180085 1.2922001
-0.60448486 -4.2060318 1.3055564
-0.60241556 -4.2122507 1.2868944
-0.59678537 -4.216639 1.2979797
-0.58857852 -4.2237244 1.2920625
-0.57439756 -4.2133713 1.2889165
-0.56445086 -4.2126441 1.2919419
-0.55776894 -4.2117014 1.2890661
-0.55663437 -4.2132978 1.2913256
-0.56333035 -4.2237601 1.3010364
-0.55096895 -4.2266951 1.2870162
-0.53949159 -4.2195544 1.3058317
-0.53465688 -4.2162361 1.2992791
-0.52848303 -4.2331796 1.2891809
-0.53122282 -4.2278099 1.292832
-0.5198788 -4.2341537 1.2876625
-0.51167977 -4.2364469 1.304038
-0.50045431 -4.2179551 1.302166
-0.49210361 -4.2242265 1.2994988
-0.50149244 -4.2230935 1.2871625
-0.48116952 -4.2354989 1.2926766
-0.47486588 -4.2223287 1.3061076
-0.46974567 -4.2302265 1.3036259
-0.47117707 -4.2378535 1.3049607
-0.46270582 -4.2341251 1.2924174
-0.45058244 -4.2249579 1.2942737
-0.46362764 -4.2334991 1.2945725
-0.44029647 -4.236722 1.2940903
-0.43883649 -4.2375026 1.2880554
-0.44004276 -4.233582 1.3038644
-0.43358436 -4.2352495 1.2879701
-0.42161116 -4.2365246 1.3059403
-0.41620597 -4.2385921 1.2966988
-0.41328174 -4.2280049 1.3005078
-0.40902179 -4.2348604 1.2887146
-0.39730445 -4.2355084 1.2867495
-0.40372995 -4.2351174 1.2968963
-0.38985589 -4.2373133 1.3044648
-0.37646329 -4.2439666 1.2918885
-0.36910477 -4.2377453 1.3038608
-0.36593652 -4.2509856 1.2947856
-0.3586618 -4.2381735 1.3050467
-0.3534162 -4.2458777 1.2938434
-0.3574113 -4.2365804 1.2938223
-0.3575967 -4.2489462 1.2875321
-0.34957451 -4.2355185 1.3011724
-0.34351686 -4.2544413 1.2957733
-0.32731164 -4.2454162 1.2887406
-0.32353735 -4.2489243 1.2956077
-0.31233868 -4.2510014 1.2892412
-0.30916703 -4.2558379 1.2901713
-0.31506994 -4.2393284 1.3044419
-0.29071119 -4.2435026 1.2915287
-0.29755524 -4.2576027 1.2884251
-0.28441969 -4.2578182 1.2934593
-0.27757379 -4.2559438 1.2924165
-0.27708703 -4.2539434 1.292938
-0.26199877 -4.2416711 1.3029639
-0.27394271 -4.2515578 1.289952
-0.25901896 -4.2561803 1.2953255
-0.25046119 -4.243566 1.2963163
-0.24097292 -4.2427897 1.2942621
-0.23721339 -4.2435913 1.2884707
-0.22636661 -4.2571731 1.2890089
-0.23862305 -4.243557 1.2897519
-0.22584477 -4.249033 1.2927819
-0.22397773 -4.4453068 1.2237221
-0.21146108 -4.4470983 1.2218249
-0.21826939 -4.6321464 1.155934
-0.21757142 -4.8082361 1.0658001
-4.2142701 -3.0428257 0.95471418
-4.2069569 -3.0494943 0.95789343
-4.2129483 -3.0417254 0.95849365
-4.2153234 -3.0599635 0.95984215
-4.1962166 -3.0540333 0.97172666
-4.2058601 -3.0712626 0.95476395
-4.2024465 -3.079946 0.96501666
-4.190167 -3.0680754 0.96936929
-4.1782293 -3.0783291 0.9524309
-4.1819391 -3.091723 0.96204829
-4.1787424 -3.1019895 0.964688
-4.1718879 -3.1091933 0.96656203
-4.0126238 -2.9953647 1.0352377
-4.0221295 -2.9992518 1.0384303
-4.0102787 -3.0083075 1.0334382
-4.0065355 -3.0112898 1.0370957
-3.9997475 -3.0151498 1.0379425
-4.0026989 -3.0310304 1.0365272
-4.0012898 -3.0192809 1.0307189
-3.9968112 -3.0355575 1.0373719
-3.9827075 -3.0329611 1.039607
-3.9859562 -3.047843 1.0404813
-3.9673231 -3.0570238 1.0297387
-3.9731424 -3.0599031 1.0407313
-3.9757614 -3.0551329 1.0282851
-3.9633646 -3.0708282 1.0384672
-3.9673026 -3.063952 1.030394
-3.950386 -3.0842514 1.0320393
-3.9548771 -3.087374 1.0310271
-3.9451687 -3.0902576 1.0393252
-3.9487996 -3.1032856 1.0358011
-3.9301877 -3.1038177 1.0429702
-3.7846365 -2.9945748 1.0996637
-3.7760386 -2.9906237 1.1059052
-3.7764411 -2.9935706 1.1024743
-3.7692821 -3.0084076 1.1088994
-3.7719338 -3.0114772 1.1077459
-3.7626512 -3.0219324 1.1118324
-3.7717161 -3.0211887 1.1183298
-3.7617857 -3.0350542 1.1074705
-3.76355 -3.0368762 1.1091048
-3.748831 -3.0444191 1.1157218
-3.7469354 -3.036809 1.1016858
-3.7414749 -3.0447884 1.1169
-3.7297657 -3.0573645 1.1144606
-3.7414799 -3.0669837 1.1024717
-3.7267618 -3.0634639 1.1126949
-3.7331901 -3.0748782 1.1177385
-3.7155242 -3.0795813 1.1087956
-3.711354 -3.0785854 1.1112512
-3.7180357 -3.0835924 1.1171428
-3.7030759 -3.0981264 1.1007435
-3.7014916 -3.0950184 1.1172005
-3.6939363 -3.0907104 1.1109183
-3.6911595 -3.0989609 1.1172941
-3.5485382 -2.9831657 1.1724147
-3.540343 -2.9967718 1.1831416
-3.5419178 -3.001096 1.1876705
-3.5384419 -3.0120518 1.1727066
-3.5239022 -3.0031419 1.1839427
-3.5268998 -3.0252254 1.17537
-3.523999 -3.0166683 1.1774554
-3.5174904 -3.0308533 1.1878351
-3.5145183 -3.0218163 1.1877029
-3.5178213 -3.0343435 1.184494
-3.4947417 -3.030874 1.1822129
-3.5096703 -3.0433969 1.1912892
-3.4938653 -3.0416887 1.1809986
-3.4935243 -3.0607061 1.1847038
-3.4881408 -3.0693915 1.1822647
-3.4915142 -3.0652897 1.1826818
-3.4834535 -3.0625091 1.17659
-3.4733005 -3.0774486 1.1812413
-3.4727612 -3.0736516 1.1798515
-3.4723473 -3.0774002 1.1908509
-3.4551353 -3.0823185 1.1902298
-3.4601977 -3.0864217 1.1819903
-3.456177 -3.0989828 1.1803571
-3.4424403 -3.0954731 1.1845992
-3.4449916 -3.1108563 1.185042
-3.4499753 -3.1138966 1.1744671
-3.2967086 -2.9880462 1.264683
-3.2875285 -3.0012679 1.2516921
-3.2936904 -2.9982543 1.2473605
-3.2812357 -2.9991376 1.2641367
-3.2777753 -3.0071268 1.2608449
-3.2749295 -3.0245025 1.2582943
-3.2803168 -3.0221891 1.2480209
-3.2673311 -3.0304766 1.2460893
-3.2700968 -3.02566 1.2536006
-3.2524133 -3.0301788 1.2628918
-3.2652981 -3.0436153 1.257727
-3.2610967 -3.0520616 1.2639562
-3.2498798 -3.0508664 1.2578087
-3.2429881 -3.061419 1.2553816
-3.2393138 -3.0527208 1.2495633
-3.238925 -3.0653923 1.2509613
-3.2210805 -3.0676732 1.259259
-3.2335031 -3.0611966 1.2638493
-3.2278509 -3.0817206 1.2578304
-3.2146811 -3.0888023 1.2518613
-3.212214 -3.0930164 1.2570182
-3.2149053 -3.0972831 1.2582853
-3.2113609 -3.094593 1.2452981
-3.193958 -3.089278 1.2463028
-3.198976 -3.1045616 1.2605444
-3.1898057 -3.1037354 1.2466472
-3.1792316 -3.1093504 1.2549958
-3.1803534 -3.11168 1.2543416
-3.1768785 -3.1126556 1.257678
-3.0467677 -2.994169 1.3315772
-3.0354509 -3.0079377 1.332629
-3.0389714 -3.0087149 1.3339108
-3.0212188 -3.0102715 1.3223733
-3.0164475 -3.018755 1.3206353
-3.0106657 -3.0165925 1.3280922
-3.0106361 -3.0096021 1.3208474
-3.004498 -3.0163858 1.332454
-3.0100055 -3.0286462 1.3261912
-2.9961612 -3.0417926 1.3234071
-2.9989746 -3.0418444 1.3329607
-3.0010188 -3.03477 1.3330026
-2.9820054 -3.035413 1.3365182
-2.981704 -3.0425062 1.3227223
-2.9729345 -3.0490367 1.3246822
-2.9858973 -3.0539999 1.3330381
-2.9713972 -3.0631542 1.3326117
-2.9641361 -3.0703967 1.329623
-2.9652627 -3.0673788 1.3185897
-2.9526463 -3.0747547 1.3186195
-2.9628081 -3.0691881 1.3228015
-2.9434104 -3.0899155 1.3182557
-2.9439652 -3.095885 1.3372586
-2.9409986 -3.085815 1.3333544
-2.9318221 -3.0912428 1.3270994
-2.94068 -3.0939064 1.3200554
-2.9211762 -3.1063488 1.3280251
-2.9220932 -3.1158152 1.3329144
-2.9259932 -3.1106985 1.3249775
-2.9209206 -3.1172619 1.3338147
-2.9158127 -3.1182892 1.3323625
-2.906517 -3.124227 1.3343209
-2.7750781 -2.9986422 1.4075775
-2.7715044 -2.9906247 1.4018943
-2.7718296 -2.997756 1.3949034
-2.7584043 -2.9980764 1.4093627
-2.7520177 -3.0032301 1.3954871
-2.7576559 -3.0136435 1.396247
-2.7583995 -3.0123053 1.4062192
-2.7470746 -3.0102487 1.3937175
-2.7469072 -3.0274436 1.404272
-2.7481863 -3.0197086 1.3929659
-2.7275021 -3.0315893 1.394925
-2.7266912 -3.0240824 1.40879
-2.7315586 -3.0410926 1.3994063
-2.7234113 -3.0488746 1.3935788
-2.7207997 -3.0544724 1.4064683
-2.7120581 -3.0499163 1.3928093
-2.7025511 -3.0503173 1.4043477
-2.7030671 -3.063612 1.4017959
-2.696079 -3.0609632 1.4058961
-2.6985316 -3.0638232 1.4015728
-2.6922846 -3.0702333 1.4092044
-2.6840734 -3.0800731 1.4081721
-2.6819921 -3.0790255 1.3939532
-2.6692891 -3.0740812 1.3957701
-2.6824083 -3.0907815 1.3958007
-2.6626329 -3.0830016 1.4041932
-2.6565113 -3.0899816 1.3959843
-2.6588461 -3.1017492 1.3982745
-2.6637275 -3.0908062 1.4070015
-2.6445034 -3.1065984 1.3966502
-2.6495974 -3.1004314 1.4036646
-2.6470547 -3.1103463 1.404609
-2.645539 -3.1024783 1.410365
-2.638237 -3.1062107 1.4048228
-2.629113 -3.1273713 1.4063323
-2.6199532 -3.1330705 1.3993675
-2.622396 -3.1169672 1.4091624
-2.6130424 -3.1275232 1.4109234
-2.5021212 -2.9843731 1.4804906
-2.48194 -2.9890845 1.4648516
-2.492105 -3.0032303 1.479095
-2.4752507 -2.9991786 1.4671329
-2.4774473 -2.9979622 1.4667424
-2.4738829 -3.0137997 1.4663166
-2.4758561 -3.0048742 1.4684215
-2.4563146 -3.0111549 1.4685121
-2.4637334 -3.0242498 1.4683849
-2.4613523 -3.0323672 1.4813745
-2.4572055 -3.0332174 1.4782639
-2.4566224 -3.0380731 1.473936
-2.4516735 -3.0372856 1.4789507
-2.4324765 -3.0438404 1.4714994
-2.4452367 -3.0367935 1.4687412
-2.4383829 -3.0503886 1.4736162
-2.4319499 -3.0501678 1.4708817
-2.4234073 -3.0546217 1.4653254
-2.4147694 -3.0507152 1.4701273
-2.4062538 -3.0486534 1.4702588
-2.4047439 -3.0666752 1.4729817
-2.4063401 -3.0683491 1.4742841
-2.3922594 -3.0693145 1.4798034
-2.3931592 -3.0753274 1.4821913
-2.4015057 -3.0783501 1.4750437
-2.3926055 -3.0787733 1.4777126
-2.3788259 -3.0770226 1.4840078
-2.3877761 -3.0909932 1.4692489
-2.3822777 -3.0805945 1.4817901
-2.371973 -3.0859537 1.4797809
-2.361532 -3.0940809 1.4831318
-2.3683636 -3.0880868 1.4681842
-2.353888 -3.0922997 1.4756414
-2.3538885 -3.1017046 1.4804493
-2.3514967 -3.1037526 1.4655923
-2.3362477 -3.1012022 1.4736638
-2.3383253 -3.1091783 1.4668318
-2.3341031 -3.1104152 1.4693689
-2.3246353 -3.1104693 1.4656384
-2.3226216 -3.1245389 1.4798765
-2.3226125 -3.1324923 1.469309
-2.3192482 -3.1316066 1.468051
-2.3108268 -3.1405795 1.4658897
-2.3149438 -3.1338916 1.477627
-2.3142483 -3.1491547 1.4706137
-2.1983421 -2.9833927 1.542578
-2.1846328 -2.9940314 1.5567155
-2.1777511 -3.0048051 1.5528953
-2.188328 -3.0104728 1.5522938
-2.1826313 -2.9984932 1.5408896
-2.1626921 -3.0108755 1.544793
-2.1733162 -3.0042691 1.5528368
-2.1651943 -3.0136213 1.5551564
-2.159229 -3.0114748 1.5474063
-2.1615226 -3.0130219 1.5476295
-2.150825 -3.0131197 1.5467205
-2.1412947 -3.0236964 1.5382435
-2.1376228 -3.031584 1.5420575
-2.1377671 -3.0342457 1.5432626
-2.1385086 -3.0354118 1.5395002
-2.1306498 -3.040844 1.5464025
-2.1188836 -3.04111 1.5429524
-2.1190696 -3.037468 1.5531853
-2.1169317 -3.052079 1.5485941
-2.1025398 -3.0532057 1.5454792
-2.1079206 -3.0478613 1.545284
-2.0942061 -3.0572178 1.537524
-2.0889647 -3.0671372 1.5448819
-2.099905 -3.0614398 1.5525781
-2.0896363 -3.0607271 1.5421022
-2.0831256 -3.0764036 1.5491819
-2.0897088 -3.0645652 1.5389776
-2.0797381 -3.0771687 1.5553916
-2.0795302 -3.0718944 1.5401646
-2.0639095 -3.0764921 1.5467751
-2.0713999 -3.0907388 1.541688
-2.0590811 -3.0755436 1.5501968
-2.0545185 -3.0793831 1.5517324
-2.0425937 -3.0984437 1.5419056
-2.042969 -3.0915203 1.5557257
-2.0338159 -3.102375 1.5567977
-2.0375793 -3.1041057 1.5526303
-2.0315428 -3.1001625 1.5387758
-2.0290885 -3.1003125 1.5531058
-2.0218573 -3.1091466 1.5457425
-2.0280116 -3.1097803 1.5470306
-2.019249 -3.1224082 1.546406
-2.0019736 -3.1147907 1.5448281
-2.0031588 -3.1195695 1.5470695
-1.9941669 -3.1290486 1.5391086
-1.9913508 -3.1337039 1.5431612
-1.9874587 -3.1264558 1.5483449
-1.9877303 -3.1375084 1.5403277
-1.9818524 -3.1304476 1.5550106
-1.9816406 -3.1405008 1.5437028
-1.9687883 -3.1410575 1.5545992
-1.9746439 -3.1372044 1.5556993
-1.9611204 -3.1404331 1.5472425
-1.9691709 -3.1492076 1.5568262
-1.8565336 -2.9953668 1.61288
-1.8505166 -3.0009296 1.6139498
-1.8604434 -3.0069733 1.6250689
-1.8451828 -2.9976654 1.6279305
-1.8379358 -3.0068603 1.6206416
-1.8360023 -3.0002279 1.6260822
-1.8253729 -3.0051317 1.6137428
-1.8238436 -3.0002837 1.6280271
-1.8212106 -3.0063083 1.6218469
-1.8270308 -3.0247836 1.6296504
-1.8232635 -3.0134678 1.6160585
-1.8165749 -3.0203221 1.6195124
-1.8088129 -3.0212936 1.6195253
-1.8099281 -3.0311992 1.611443
-1.8081782 -3.0180554 1.6167569
-1.7937138 -3.02718 1.6112882
-1.7938052 -3.02988 1.6234949
-1.7862325 -3.0352597 1.6231229
-1.784372 -3.0422187 1.6192938
-1.7886882 -3.0392137 1.6195511
-1.7851974 -3.0366609 1.6136799
-1.775295 -3.0516427 1.6235042
-1.7619352 -3.0430887 1.6149007
-1.7685591 -3.0598803 1.6189297
-1.7632618 -3.0591557 1.6186345
-1.7526472 -3.0482037 1.6117409
-1.7474978 -3.0615838 1.6246673
-1.7501384 -3.0516355 1.6147283
-1.7331475 -3.0640743 1.6203387
-1.7399822 -3.0650806 1.6114565
-1.7265563 -3.0668509 1.6276234
-1.7189983 -3.0629768 1.6112993
-1.7216125 -3.0700047 1.6260134
-1.7128267 -3.0679216 1.6264147
-1.7200086 -3.0848095 1.6300132
-1.7074823 -3.0753551 1.6270303
-1.7018464 -3.0850265 1.6131278
-1.7032807 -3.0816174 1.6116284
-1.6946507 -3.0854995 1.6201389
-1.7004068 -3.0805023 1.6300857
-1.6950419 -3.0863681 1.620699
-1.6935067 -3.0889683 1.617617
-1.6882924 -3.0984788 1.6299319
-1.6683606 -3.1035025 1.6267487
-1.6680243 -3.1000109 1.6290901
-1.6640862 -3.108299 1.6232927
-1.6631277 -3.1152604 1.6302245
-1.6560684 -3.1079688 1.6229601
-1.6505053 -3.116363 1.614202
-1.6564285 -3.1148329 1.6128237
-1.6524016 -3.1122603 1.6279562
-1.6377583 -3.1124785 1.6228588
-1.6461935 -3.1118116 1.6106154
-1.6423107 -3.1155457 1.6157066
-1.621608 -3.1232791 1.6266416
-1.6185607 -3.1314137 1.611635
-1.6213076 -3.122932 1.6120069
-1.6171196 -3.1317368 1.6220047
-1.6201926 -3.139327 1.6259363
-1.6120207 -3.1371927 1.6137198
-1.6052239 -3.1353869 1.6263919
-1.6032915 -3.1432965 1.6211554
-1.5864533 -3.1440029 1.6188892
-1.5818554 -3.1451917 1.6151867
-1.5921632 -3.1500459 1.6260421
-1.5715328 -3.156224 1.6110485
-1.5859061 -3.149524 1.6268157
-1.5799042 -3.1630132 1.6160513
-1.5639015 -3.1639569 1.6199635
-1.4811753 -2.9943876 1.7014066
-1.4736841 -2.9890182 1.6937743
-1.473518 -2.9861071 1.7004813
-1.4585856 -2.9907515 1.6887243
-1.4659165 -2.9951952 1.6980147
-1.456947 -2.9943466 1.6846812
-1.4571191 -2.9972706 1.6873934
-1.4522821 -2.9989743 1.6990236
-1.4516751 -2.9990854 1.699376
-1.4418296 -3.0076063 1.7009904
-1.4480691 -3.0206053 1.6876485
-1.4259983 -3.010299 1.7017537
-1.4315571 -3.0240149 1.7008421
-1.4304061 -3.0269902 1.6973519
-1.4210093 -3.0214903 1.6914784
-1.4223192 -3.0312183 1.6885077
-1.4169599 -3.0253186 1.6846613
-1.4088856 -3.0187848 1.7011536
-1.4091784 -3.0358496 1.6995717
-1.409116 -3.0272777 1.6914996
-1.3874364 -3.0291564 1.6924535
-1.399096 -3.033179 1.6857327
-1.3966476 -3.0269773 1.687309
-1.3751082 -3.0438442 1.6879175
-1.3770562 -3.0355372 1.6960268
-1.3648752 -3.0327654 1.6964036
-1.3756621 -3.0488627 1.6846696
-1.3702927 -3.0411167 1.7014531
-1.3684281 -3.0378971 1.7031494
-1.348143 -3.0588517 1.6953894
-1.3559271 -3.042366 1.6877164
-1.3427548 -3.0617819 1.6979808
-1.3363006 -3.062994 1.6964008
-1.3482674 -3.0469141 1.6999018
-1.3396232 -3.0570323 1.693652
-1.3228669 -3.0592227 1.6921101
-1.3257314 -3.0564551 1.6964011
-1.320327 -3.0725765 1.6903625
-1.3181368 -3.0710945 1.6894615
-1.3142476 -3.0735908 1.6895183
-1.3181158 -3.0681374 1.6879672
-1.3096545 -3.0737805 1.6889007
-1.3109263 -3.0772412 1.6905164
-1.2937754 -3.0769427 1.6901004
-1.2931209 -3.0722768 1.7014486
-1.2987137 -3.0751343 1.6924829
-1.2858459 -3.0851381 1.6881553
-1.2886846 -3.0740223 1.6895707
-1.2775594 -3.0850034 1.6943268
-1.2673327 -3.076385 1.6984391
-1.2770467 -3.0959275 1.6898513
-1.2683092 -3.0913036 1.6974607
-1.2586359 -3.0922489 1.7034441
-1.2473443 -3.1003435 1.6915544
-1.2564662 -3.0920863 1.6861531
-1.2542375 -3.0937271 1.6997108
-1.240972 -3.1068077 1.6850753
-1.2320318 -3.1070373 1.70336
-1.2416737 -3.1004543 1.692462
-1.2265571 -3.10796 1.6919744
-1.2273258 -3.1094973 1.693731
-1.284986 -3.2797806 1.6287558
-1.2864864 -3.2916453 1.6177453
-1.2820009 -3.2765431 1.6204084
-1.2694026 -3.2948904 1.6130909
-1.262203 -3.2953386 1.6258887
-1.2614433 -3.2868536 1.6273561
-1.2553165 -3.2937629 1.6303377
-1.2509027 -3.2946513 1.6216402
-1.2573844 -3.2847624 1.6271689
-1.2443511 -3.2999842 1.612886
-1.2495589 -3.2889044 1.6232026
-1.2466037 -3.3039134 1.6234634
-1.2346566 -3.2990279 1.6206287
-1.2200438 -3.3061378 1.6212429
-1.2327462 -3.3106439 1.6231984
-1.2773131 -3.4735444 1.5422862
-1.2755018 -3.480454 1.5493771
-1.2707062 -3.4875526 1.5373501
-1.2746056 -3.4857388 1.5569756
-1.2729739 -3.4954996 1.5431368
-1.2656226 -3.4950788 1.5421288
-1.2479522 -3.4963157 1.5478563
-1.2500186 -3.490221 1.5402073
-1.2349172 -3.4941311 1.5471801
-1.2391992 -3.495364 1.5513717
-1.2415231 -3.5011215 1.5489371
-1.2316213 -3.5099366 1.5413953
-1.214626 -3.4988272 1.5485504
-1.2911413 -3.6721916 1.4661722
-1.2662972 -3.6731858 1.4689509
-1.2752895 -3.6917071 1.4739252
-1.2652873 -3.677439 1.479431
-1.2695551 -3.6901205 1.4727931
-1.2614695 -3.6925862 1.4839995
-1.2464086 -3.6842222 1.4757208
-1.2471535 -3.683073 1.4834254
-1.2303307 -3.6969149 1.4840491
-1.2410473 -3.698657 1.4775094
-1.2246064 -3.7003264 1.4750261
-1.2174054 -3.7022974 1.4733479
-1.2859571 -3.8751147 1.4018046
-1.2707515 -3.8864563 1.3994501
-1.2700377 -3.8872185 1.4061917
-1.2559592 -3.8850503 1.3922378
-1.2506719 -3.8929789 1.4084111
-1.2536608 -3.8868127 1.4074897
-1.2489426 -3.8889863 1.394475
-1.2435983 -3.8870416 1.4014598
-1.2247913 -3.8938236 1.4085096
-1.2284651 -3.8985744 1.3953155
-1.2138147 -3.8985157 1.4077297
-1.2733825 -4.0662565 1.3374609
-1.2592413 -4.0812016 1.3213522
-1.2583562 -4.0874939 1.3291909
-1.2514223 -4.0739279 1.3308723
-1.2483127 -4.0887818 1.3204837
-1.2461221 -4.0843511 1.3296777
-1.2369437 -4.0800118 1.3225651
-1.240778 -4.0823045 1.3304116
-1.2375602 -4.0937114 1.3352406
-1.2275339 -4.095911 1.3218542
-1.2250911 -4.0873113 1.320029
-1.219779 -4.0902662 1.3250473
-1.2105731 -4.0980349 1.3255533
-1.1935263 -4.1045704 1.3213979
-1.1947956 -4.0936995 1.3241531
-1.1864512 -4.1063442 1.3330953
-1.1889105 -4.0955191 1.3281254
-1.17848 -4.0942388 1.3226036
-1.1802009 -4.0954537 1.3274074
-1.1570903 -4.1123581 1.3317358
-1.1673639 -4.1125379 1.3263807
-1.1594604 -4.1131258 1.3197792
-1.1465364 -4.1102309 1.3271096
-1.133104 -4.116014 1.329597
-1.1438248 -4.1087942 1.3246394
-1.1317884 -4.1189594 1.3287138
-1.1308072 -4.1173167 1.325282
-1.1147939 -4.1109776 1.324791
-1.1043001 -4.1120963 1.3247373
-1.1090004 -4.1158433 1.3294237
-1.1093701 -4.1156058 1.3355668
-1.0950925 -4.1332078 1.3227501
-1.0874146 -4.1236324 1.3344491
-1.0924041 -4.1263723 1.321977
-1.074904 -4.1255836 1.3183292
-1.0823593 -4.1385112 1.3261122
-1.0657381 -4.1362123 1.3371263
-1.0525466 -4.1436577 1.3360596
-1.0598441 -4.146368 1.3354464
-1.0471932 -4.1395407 1.3326498
-1.0498538 -4.1388464 1.3316472
-1.0463693 -4.1496401 1.3345902
-1.0356994 -4.1385241 1.3286487
-1.0333285 -4.1381679 1.321499
-1.0234277 -4.1460834 1.3366617
-1.0171727 -4.1472287 1.3204125
-1.0031327 -4.1575294 1.3279697
-0.99807662 -4.1404171 1.3295813
-0.99408525 -4.156383 1.3299737
-0.99070513 -4.1454806 1.3186771
-0.99011958 -4.1630235 1.32955
-0.97053468 -4.162869 1.3310962
-0.96800494 -4.1578336 1.3252174
-0.97141469 -4.1562181 1.321146
-0.96197224 -4.1504946 1.3306018
-0.95736521 -4.1643109 1.320347
-0.94900548 -4.1698842 1.3212183
-0.95308673 -4.1562004 1.3206203
-0.9355545 -4.1643262 1.3254669
-0.93762797 -4.1748743 1.3226182
-0.9309963 -4.1706419 1.3236209
-0.91348982 -4.1726317 1.3261642
-0.91443545 -4.1778998 1.3351212
-0.90125799 -4.1723886 1.3270636
-0.91215008 -4.1632476 1.3260911
-0.89358467 -4.1753135 1.3326559
-0.8852722 -4.1848364 1.3349928
-0.89608681 -4.184258 1.3323509
-0.8874976 -4.171968 1.3229125
-0.87406003 -4.187573 1.3242466
-0.86346936 -4.1823702 1.3311262
-0.87187433 -4.1854863 1.3373209
-0.85773432 -4.175375 1.319544
-0.85463572 -4.1779156 1.3285668
-0.83959299 -4.1771793 1.3280113
-0.84552109 -4.1837101 1.3366617
-0.82488269 -4.1877632 1.3370537
-0.82190579 -4.188467 1.3192794
-0.82156914 -4.1864195 1.3350432
-0.81066936 -4.196774 1.3364414
-0.8184337 -4.1823792 1.3242739
-0.79931694 -4.2022324 1.3302137
-0.79400378 -4.1937909 1.3274794
-0.786466 -4.188097 1.3234113
-0.78990382 -4.1932082 1.3212783
-0.77389568 -4.1900978 1.333805
-0.76923549 -4.1922007 1.3234611
-0.76418191 -4.1971793 1.3335876
-0.75690103 -4.2076764 1.3269278
-0.75385487 -4.19313 1.331071
-0.74940902 -4.2122059 1.3307587
-0.73712909 -4.1980243 1.3317343
-0.73890799 -4.2043915 1.3222849
-0.74341971 -4.2090831 1.3196545
-0.73199797 -4.2030768 1.3330293
-0.72270781 -4.2069287 1.3306231
-0.72088957 -4.2119875 1.327215
-0.70941383 -4.2178617 1.3199201
-0.7078101 -4.2023258 1.3232123
-0.69286489 -4.2096152 1.3221266
-0.69377506 -4.2183328 1.3230326
-0.69499618 -4.220645 1.3191793
-0.67524034 -4.2106123 1.3300103
-0.68493253 -4.2109694 1.3371925
-0.67725384 -4.2257843 1.3314154
-0.65619904 -4.2171898 1.3228133
-0.65754896 -4.2126594 1.3301704
-0.64230585 -4.2225366 1.3326633
-0.6543563 -4.2166948 1.3316941
-0.64311332 -4.2217946 1.324429
-0.63295472 -4.2136922 1.3294319
-0.62188882 -4.2326999 1.3330996
-0.61467505 -4.2178426 1.3277687
-0.616629 -4.2185693 1.3230412
-0.61139959 -4.2175102 1.3244513
-0.61194599 -4.2212911 1.3354002
-0.60109335 -4.2323174 1.3318157
-0.5828824 -4.2339983 1.3192817
-0.5821774 -4.2336278 1.3335086
-0.58244038 -4.2279139 1.323547
-0.56996733 -4.2379422 1.3225908
-0.57249027 -4.2228069 1.3235214
-0.57134432 -4.2263613 1.3201958
-0.55552822 -4.2377744 1.3370218
-0.54443842 -4.2298636 1.3357766
-0.55193746 -4.2284069 1.3316123
-0.54848653 -4.2420053 1.3372748
-0.52861905 -4.2433028 1.322102
-0.52128452 -4.2298055 1.3281366
-0.51972204 -4.2424831 1.3207136
-0.50812012 -4.2486005 1.3240827
-0.5174734 -4.243155 1.3233991
-0.50589514 -4.2424788 1.3199648
-0.49764141 -4.2319031 1.3259131
-0.49256068 -4.236155 1.320559
-0.48872417 -4.2338243 1.3374411
-0.48905098 -4.2339621 1.3214952
-0.48371431 -4.2401533 1.3250145
-0.4735496 -4.2449317 1.3227851
-0.45734933 -4.2540703 1.328624
-0.44857103 -4.2375312 1.3290831
-0.45642281 -4.2562699 1.3357168
-0.44495732 -4.2493563 1.3237478
-0.43692517 -4.2401156 1.3230674
-0.42294392 -4.2517219 1.3188398
-0.4343158 -4.2454209 1.337639
-0.42880479 -4.2453766 1.3369881
-0.41923887 -4.2459259 1.3308256
-0.40615281 -4.2422423 1.320556
-0.39529532 -4.2482915 1.3218107
-0.39859807 -4.2514954 1.3202595
-0.38144106 -4.2484856 1.3206159
-0.37764952 -4.2599459 1.3285242
-0.38582623 -4.24931 1.3263028
-0.37468255 -4.2506299 1.3330964
-0.36776575 -4.2492599 1.3268043
-0.36204901 -4.2483177 1.3211616
-0.35698244 -4.2637491 1.3355659
-0.35807765 -4.2520347 1.3342421
-0.34944174 -4.2554045 1.3274494
-0.33955044 -4.2480187 1.3180244
-0.33120969 -4.2494192 1.3321724
-0.32251182 -4.2529716 1.3354152
-0.32590505 -4.2506452 1.3298407
-0.31151903 -4.2631202 1.3234845
-0.3103388 -4.2546239 1.3190286
-0.29545006 -4.2663584 1.3360369
-0.28620338 -4.2589731 1.3181273
-0.28255177 -4.2586312 1.3324369
-0.28022337 -4.2556024 1.323874
-0.2846871 -4.2686315 1.3231851
-0.27857536 -4.2592697 1.3215762
-0.25831509 -4.2671614 1.3368869
-0.25481135 -4.2643976 1.3349876
-0.25688162 -4.2732 1.3210686
-0.24530756 -4.2667751 1.3360924
-0.23818891 -4.2714143 1.3198208
-0.23406151 -4.2727609 1.3313645
-0.22784328 -4.2564106 1.3236722
-0.22731486 -4.2636871 1.3194224
-0.22524652 -4.447268 1.249413
-0.21370947 -4.4448218 1.2622977
-0.23315933 -4.6339841 1.1745439
-0.23677893 -4.8256249 1.109934
-0.21291889 -4.8193812 1.1100296
-4.2101326 -3.0683527 1.0021191
-4.2136316 -3.0607886 0.9957583
-4.2144079 -3.0750213 1.0011348
-4.1965337 -3.0720572 0.9917596
-4.1990991 -3.0852351 1.0061485
-4.1940842 -3.0884871 0.99393559
-4.2025542 -3.0901399 1.0043396
-4.0355434 -2.995836 1.0700971
-4.0310349 -2.9886818 1.0735667
-4.0306077 -3.0022814 1.0773492
-4.028224 -3.0089979 1.0808662
-4.0122309 -3.0235007 1.0778488
-4.0225906 -3.0230751 1.0664946
-4.0075665 -3.029079 1.0639942
-4.0019093 -3.0219603 1.0741996
-4.0018554 -3.0341465 1.0670305
-3.9940066 -3.0391312 1.0640804
-3.9957461 -3.0513999 1.070119
-3.9834938 -3.0633492 1.0689621
-3.9877639 -3.0590687 1.0798498
-3.9882436 -3.0566094 1.0696596
-3.9851987 -3.0623698 1.0705992
-3.9651632 -3.0827107 1.0775909
-3.9764743 -3.0722561 1.0641996
-3.970278 -3.0803804 1.0635419
-3.9538689 -3.0926952 1.0763068
-3.9646206 -3.1014135 1.0696902
-3.9583149 -3.0961308 1.0764017
-3.7993286 -2.9873345 1.1485283
-3.8082871 -3.002408 1.1387472
-3.7863505 -3.0022447 1.1370047
-3.7945967 -3.0033278 1.1350749
-3.7818961 -3.0086744 1.1383711
-3.7821963 -3.0296388 1.1376833
-3.7758801 -3.0287216 1.134426
-3.7702146 -3.035717 1.144403
-3.7717767 -3.0377944 1.1512047
-3.759948 -3.0379038 1.1488261
-3.7614005 -3.0500066 1.1452457
-3.7624922 -3.0552595 1.151912
-3.7533579 -3.0627749 1.1440557
-3.7459586 -3.0627432 1.1404248
-3.7404819 -3.0742245 1.1367499
-3.7317019 -3.0702271 1.1374071
-3.743602 -3.0841424 1.1442723
-3.7387524 -3.0766282 1.1494269
-3.7239184 -3.0949197 1.1377829
-3.7222755 -3.0856328 1.1513026
-3.7230039 -3.1020567 1.1379863
-3.7073052 -3.103838 1.1446782
-3.7049332 -3.1007574 1.1491097
-3.5675607 -2.9943802 1.2105956
-3.5568292 -3.0067921 1.2140698
-3.5497658 -2.9947186 1.2067785
-3.5420382 -3.0188475 1.2108028
-3.5474384 -3.0224364 1.2075664
-3.547677 -3.0155079 1.2112578
-3.5395527 -3.0312607 1.2094488
-3.5379021 -3.0320733 1.216423
-3.5295606 -3.0415258 1.2068169
-3.5145202 -3.0329523 1.225486
-3.5150416 -3.0342088 1.2155436
-3.5058436 -3.0489261 1.2181727
-3.5131645 -3.0607793 1.2178527
-3.5077698 -3.0491111 1.2183753
-3.4983439 -3.0670564 1.2202748
-3.4921477 -3.0694606 1.2140623
-3.5022533 -3.0679674 1.217051
-3.4941609 -3.0690572 1.2241751
-3.4790876 -3.0860465 1.2067887
-3.4736135 -3.0922432 1.222912
-3.4694636 -3.083216 1.2227089
-3.4752493 -3.089252 1.2127129
-3.4583991 -3.1068773 1.2157817
-3.4618618 -3.1033831 1.2154309
-3.4647954 -3.1147451 1.222041
-3.3072543 -2.9991102 1.2829208
-3.3146622 -3.0027726 1.2784148
-3.2990749 -3.0026455 1.2777071
-3.2963572 -3.0117545 1.2848923
-3.2910192 -3.0197058 1.2907572
-3.2895517 -3.0078304 1.2905196
-3.2882805 -3.0260706 1.2891099
-3.2769992 -3.0317972 1.2949332
-3.2826426 -3.0253303 1.2891026
-3.2686305 -3.0261474 1.2967559
-3.2680016 -3.0323486 1.2797946
-3.27826 -3.0501466 1.2838111
-3.2730181 -3.0565529 1.2925894
-3.2684774 -3.0444431 1.2968874
-3.2567451 -3.051204 1.2778567
-3.2591414 -3.0607119 1.2953185
-3.2417693 -3.0731697 1.279151
-3.2458003 -3.0785742 1.2818619
-3.2440019 -3.0738559 1.2956389
-3.2280276 -3.079366 1.2931923
-3.2243936 -3.0884941 1.2891318
-3.2177148 -3.0921338 1.2918545
-3.2270129 -3.0947912 1.2927464
-3.2275264 -3.0971737 1.2903177
-3.2037358 -3.0920966 1.2856915
-3.1989696 -3.1136947 1.296115
-3.1967351 -3.1022055 1.278632
-3.1906621 -3.1190388 1.2802902
-3.2018719 -3.1183715 1.2912062
-3.0659072 -2.9954376 1.3529192
-3.0459566 -3.0035903 1.3582581
-3.0500605 -3.0093813 1.3644788
-3.0514357 -3.0087936 1.3525575
-3.031913 -3.0130489 1.362763
-3.0348134 -3.0178494 1.3625489
-3.0423338 -3.0222261 1.3652341
-3.0194247 -3.0287166 1.3638997
-3.0339928 -3.0334888 1.3502169
-3.0268965 -3.0338316 1.3616805
-3.0088785 -3.0359681 1.3499547
-3.020915 -3.0423448 1.3543568
-3.0076067 -3.0370224 1.3572429
-3.0080719 -3.0572779 1.3649857
-3.0004523 -3.0622199 1.352736
-3.0026214 -3.0542765 1.359943
-2.9849987 -3.0580742 1.3670248
-2.9846849 -3.0631893 1.3518614
-2.9857001 -3.0671051 1.3561652
-2.980392 -3.0681629 1.3643597
-2.9636145 -3.0754471 1.3546455
-2.9785569 -3.0790179 1.3627762
-2.9690914 -3.0935366 1.3604449
-2.9567342 -3.0927823 1.3620677
-2.9566283 -3.088676 1.3629526
-2.9487662 -3.0910127 1.3559787
-2.9536915 -3.1000063 1.349399
-2.951529 -3.1129715 1.3618898
-2.9445245 -3.1112428 1.3546449
-2.9332101 -3.1085031 1.350516
-2.9336956 -3.1132886 1.3632706
-2.9238896 -3.1173251 1.3566164
-2.798522 -2.9997871 1.4313726
-2.7830958 -2.9904578 1.4392596
-2.7860413 -3.0053489 1.4353966
-2.7880964 -2.9967098 1.4333344
-2.7771201 -2.997334 1.4264103
-2.772718 -3.0201392 1.4306465
-2.7758195 -3.0202892 1.4407309
-2.7661607 -3.0134799 1.4376684
-2.7606254 -3.0315168 1.4339278
-2.7623301 -3.0241144 1.4302517
-2.7506835 -3.0231416 1.4317851
-2.7560487 -3.0309298 1.4265589
-2.7335215 -3.0458565 1.430347
-2.7348521 -3.0470364 1.4266734
-2.7382395 -3.0414436 1.4262694
-2.7285457 -3.0556579 1.4269478
-2.7346101 -3.057188 1.4313581
-2.7305849 -3.0532794 1.4264536
-2.7096169 -3.0680606 1.4273821
-2.7123842 -3.0687771 1.4395773
-2.6988223 -3.062083 1.4366035
-2.7037215 -3.0649958 1.4296936
-2.6938419 -3.0696282 1.4317033
-2.7001688 -3.0798433 1.4363735
-2.6901641 -3.0777032 1.4304709
-2.680558 -3.0901322 1.4341826
-2.690268 -3.0928938 1.4401866
-2.6755629 -3.0959039 1.4339159
-2.6657569 -3.1022246 1.4366744
-2.6750171 -3.0955966 1.422521
-2.6720769 -3.0996964 1.4388602
-2.6521053 -3.1129901 1.4360791
-2.6590383 -3.1207042 1.4324524
-2.6439567 -3.1190505 1.4223912
-2.6441994 -3.1117027 1.4382445
-2.6503396 -3.1190646 1.4254373
-2.6327629 -3.1204576 1.4336309
-2.6291771 -3.1314719 1.4225709
-2.5118458 -2.9940224 1.5007141
-2.5119619 -2.9929914 1.4974558
-2.5062263 -2.9933629 1.4938363
-2.5041466 -2.9981101 1.5006551
-2.484843 -3.014143 1.5034858
-2.4891613 -3.0194521 1.5116901
-2.483536 -3.009367 1.5109563
-2.4820526 -3.0097904 1.5065683
-2.4733715 -3.0170107 1.5044891
-2.4764919 -3.0250235 1.4950911
-2.4706674 -3.0200999 1.5038428
-2.4584684 -3.0394812 1.4971412
-2.4695227 -3.0373209 1.4935783
-2.4641917 -3.0372798 1.5087724
-2.4520373 -3.0421388 1.5114317
-2.4370472 -3.0355248 1.5122744
-2.4338481 -3.0474992 1.5066886
-2.4313781 -3.0422082 1.5041599
-2.4332912 -3.0524595 1.4978859
-2.4372787 -3.0500588 1.5070679
-2.4306598 -3.066067 1.5046364
-2.4152839 -3.0741136 1.5062804
-2.4266052 -3.077457 1.4935359
-2.4214845 -3.0797167 1.5042776
-2.401165 -3.0740743 1.4935993
-2.3981814 -3.0776987 1.4929681
-2.3943508 -3.0823855 1.50379
-2.396101 -3.0888689 1.503324
-2.4003751 -3.0815365 1.4960222
-2.3909187 -3.0824678 1.4945303
-2.3922756 -3.1010606 1.5004337
-2.3760595 -3.1085632 1.501688
-2.3781943 -3.1116774 1.5029901
-2.3730693 -3.1139655 1.5054178
-2.357198 -3.100234 1.4968674
-2.3520002 -3.1078234 1.5080659
-2.347429 -3.115891 1.497945
-2.3520315 -3.1100223 1.5047019
-2.3570952 -3.1127465 1.5021464
-2.3494561 -3.1303375 1.5020089
-2.3433044 -3.1336129 1.5066217
-2.3312445 -3.1250045 1.5070691
-2.3379259 -3.1428683 1.5077335
-2.3233008 -3.1399488 1.5094347
-2.2152374 -2.9954164 1.5799598
-2.2069354 -2.9999704 1.5744349
-2.2074306 -3.0043089 1.5841492
-2.1980424 -2.9976103 1.5830327
-2.2018931 -3.0003405 1.5824866
-2.1882949 -2.9998012 1.5676383
-2.1948299 -3.0174844 1.5727967
-2.1767478 -3.0074866 1.5698396
-2.1782141 -3.0085537 1.572289
-2.1790116 -3.0193834 1.5809219
-2.1581037 -3.0175483 1.5672572
-2.1584401 -3.0315983 1.5721356
-2.1642969 -3.0303354 1.5757664
-2.1604352 -3.0238802 1.569181
-2.1576858 -3.025476 1.5829448
-2.1554782 -3.0376782 1.5803211
-2.1481149 -3.0406241 1.5830817
-2.1355889 -3.0497012 1.5789018
-2.1260157 -3.044462 1.5767103
-2.1339889 -3.0442417 1.5667391
-2.1333253 -3.0473397 1.5816468
-2.126322 -3.0550039 1.5655425
-2.1144361 -3.0527594 1.5737331
-2.1189153 -3.0708919 1.5714052
-2.1099758 -3.0705175 1.5705016
-2.1072686 -3.0721829 1.5804101
-2.1071808 -3.0707359 1.5703812
-2.1043284 -3.0810184 1.5742775
-2.0856516 -3.0859873 1.5664096
-2.0891621 -3.0831931 1.5817524
-2.0826402 -3.0840032 1.5769819
-2.0812061 -3.0820823 1.5675256
-2.0758724 -3.0925517 1.5832863
-2.0623438 -3.0917807 1.5838813
-2.0711393 -3.0863547 1.567811
-2.0608344 -3.10251 1.5730302
-2.0606167 -3.1028702 1.5826451
-2.0504241 -3.1046748 1.5649199
-2.0563312 -3.1121037 1.5651627
-2.050102 -3.1073482 1.57113
-2.048526 -3.1203797 1.5792117
-2.0317166 -3.1162901 1.5721331
-2.0243595 -3.1111844 1.5774975
-2.0212376 -3.1168714 1.5665394
-2.0175169 -3.1156793 1.5839078
-2.0098624 -3.1285117 1.5680152
-2.0169847 -3.1254597 1.5746506
-2.0144885 -3.1365526 1.5823637
-2.0097132 -3.1378939 1.5655242
-2.0046914 -3.1373515 1.5763104
-1.9936984 -3.1395829 1.5769291
-1.9946196 -3.149358 1.5844951
-1.9826156 -3.1361337 1.5800189
-1.9852433 -3.1441488 1.5727013
-1.8794401 -2.994786 1.641189
-1.8758705 -3.0000222 1.6479046
-1.8681897 -2.9967542 1.6404995
-1.8738699 -2.9953675 1.6448228
-1.8518333 -2.9935868 1.65062
-1.8666327 -3.0111699 1.6397686
-1.8506422 -3.0021491 1.6494889
-1.8540294 -3.0184429 1.6522309
-1.849847 -3.0071297 1.6509877
-1.8501371 -3.0228453 1.644514
-1.8377411 -3.0165474 1.6521587
-1.8286273 -3.0308681 1.6372011
-1.8327943 -3.0216997 1.648139
-1.8243629 -3.0224068 1.6430855
-1.8116045 -3.0252762 1.6424286
-1.8130454 -3.0271478 1.6467987
-1.8053341 -3.037235 1.6427939
-1.807899 -3.0349193 1.6450937
-1.8077184 -3.0326347 1.6412991
-1.7887774 -3.0348573 1.6443757
-1.7963065 -3.0489047 1.6363307
-1.7961874 -3.0380623 1.6365398
-1.7910225 -3.0556152 1.6484863
-1.7749162 -3.0489681 1.6422884
-1.7838598 -3.0537975 1.6557782
-1.7734571 -3.0643063 1.6499476
-1.7586805 -3.0513461 1.636575
-1.7679054 -3.0651965 1.6480572
-1.7548269 -3.0631156 1.6443574
-1.7455397 -3.0663462 1.6409625
-1.7531724 -3.0613625 1.6460415
-1.7488467 -3.0805194 1.6444782
-1.7443084 -3.0787747 1.6478716
-1.7478203 -3.0851905 1.6404157
-1.7375265 -3.0848203 1.650628
-1.7337397 -3.0783207 1.652823
-1.71578 -3.0813222 1.6504637
-1.7111896 -3.0778291 1.6367339
-1.7151135 -3.0855417 1.6475586
-1.7027339 -3.0882547 1.6376201
-1.713746 -3.1028912 1.6551272
-1.6996754 -3.0974967 1.655933
-1.707165 -3.0918617 1.6409332
-1.6912578 -3.0940399 1.6419611
-1.6828033 -3.110229 1.6457969
-1.6841331 -3.1069393 1.6385638
-1.6832646 -3.1100016 1.6507549
-1.6847521 -3.1127882 1.6488587
-1.6799661 -3.103817 1.6416633
-1.6643522 -3.1067877 1.6541625
-1.6586734 -3.1250951 1.6544265
-1.6554843 -3.1136606 1.6424804
-1.6514862 -3.1140473 1.6385586
-1.6424847 -3.1228616 1.6548419
-1.652452 -3.1275597 1.6373132
-1.6385801 -3.137929 1.6454453
-1.6319382 -3.1317749 1.6528803
-1.6331019 -3.1314561 1.6398878
-1.6361588 -3.1307032 1.6382194
-1.6264077 -3.1386907 1.6559271
-1.6241543 -3.1453578 1.6376679
-1.6216338 -3.1331968 1.653178
-1.6110562 -3.1414022 1.65063
-1.6043972 -3.144974 1.64159
-1.6014518 -3.1428838 1.6501682
-1.5960319 -3.1512961 1.6506873
-1.6024767 -3.157444 1.6396646
-1.5814834 -3.1491361 1.6512586
-1.5095226 -2.9815361 1.7176708
-1.5034169 -2.995188 1.7266077
-1.4996005 -2.9909768 1.7111571
-1.4940405 -2.9886389 1.7101409
-1.4929674 -3.0001202 1.7231866
-1.4744394 -3.0093424 1.7149217
-1.4849485 -3.0000224 1.7110019
-1.4668765 -3.0096889 1.7209185
-1.4682825 -3.0102096 1.7269301
-1.4607083 -3.0141494 1.7234859
-1.4615371 -3.0145013 1.7231393
-1.4477245 -3.0129333 1.711248
-1.444972 -3.0117378 1.725669
-1.4376673 -3.0091739 1.7245234
-1.4513758 -3.0297318 1.713986
-1.4320359 -3.0159593 1.71631
-1.4409581 -3.0168962 1.7100317
-1.4337974 -3.0239646 1.7161589
-1.4167171 -3.0366452 1.7238314
-1.4136224 -3.0259607 1.7096241
-1.4139692 -3.0403173 1.7171192
-1.4146597 -3.0250759 1.7082307
-1.4072388 -3.0312998 1.7225801
-1.4053941 -3.0344396 1.72153
-1.4046922 -3.0355113 1.7219526
-1.3945249 -3.0414696 1.7181726
-1.382031 -3.0405788 1.7154744
-1.3958126 -3.0367594 1.7277207
-1.3834643 -3.0400941 1.7092934
-1.3834409 -3.0445719 1.7235516
-1.377622 -3.0536363 1.7254486
-1.3643054 -3.0476346 1.724576
-1.3598745 -3.0584576 1.7194629
-1.3610915 -3.0516846 1.7131872
-1.3633561 -3.0684609 1.7278113
-1.3451953 -3.0593243 1.7184427
-1.3508118 -3.0619502 1.7119242
-1.339124 -3.0626173 1.7111788
-1.3351872 -3.0751984 1.7090461
-1.329675 -3.072021 1.7243775
-1.3299019 -3.0672925 1.71258
-1.3282293 -3.0735176 1.7087139
-1.3274267 -3.0795848 1.7159485
