# .PCD v0.7 - Point Cloud Data file format
VERSION 0.7
FIELDS x y z
SIZE 4 4 4
TYPE F F F
COUNT 1 1 1
WIDTH 1509
HEIGHT 1
VIEWPOINT 0 0 0 1 0 0 0
POINTS 1509
DATA ascii
-1.6312451 -3.7041554 1.9120865
-1.6334884 -3.7055943 1.9044551
-1.6884717 -3.8707244 1.8616285
-1.6979429 -3.8859236 1.8492988
-1.6794188 -3.880336 1.8677638
-1.6893314 -3.8936596 1.8544708
-1.6748219 -3.8884289 1.8578228
-1.6622891 -3.8981693 1.8531455
-1.6554867 -3.8840983 1.8516337
-1.6672624 -3.8936236 1.8577937
-1.6532307 -3.8882923 1.8612394
-1.6567343 -3.8903751 1.8655311
-1.6478662 -3.8950653 1.8637395
-1.6294905 -3.9146507 1.8491271
-1.6234411 -3.901139 1.862473
-1.6189235 -3.9029703 1.8648585
-1.7017754 -4.0939779 1.8024989
-1.6869437 -4.099741 1.8050783
-1.6767858 -4.1041417 1.8040687
-1.6681365 -4.1057611 1.8158666
-1.6733239 -4.0987954 1.8153208
-1.6750622 -4.1007833 1.8150098
-1.6525056 -4.0993557 1.8123183
-1.6517373 -4.1050086 1.8123438
-1.6455784 -4.1100712 1.8081756
-1.64607 -4.1160789 1.8044628
-1.6441731 -4.1163249 1.8102739
-1.6323014 -4.1074567 1.8126966
-1.6178473 -4.1141515 1.8130857
-1.6952318 -4.2974887 1.761883
-1.6897321 -4.2922726 1.752328
-1.6847749 -4.2945256 1.7631283
-1.6801255 -4.2999558 1.7576909
-1.6581641 -4.3103552 1.7489275
-1.6561742 -4.3203359 1.7574203
-1.6583492 -4.3165517 1.762216
-1.6442337 -4.3166175 1.7490689
-1.6443039 -4.3105617 1.7470847
-1.6419481 -4.315805 1.7606922
-1.6392001 -4.3133569 1.7528082
-1.6153204 -4.3314195 1.7525096
-1.6888064 -4.5112672 1.6999879
-1.6834228 -4.511848 1.6967195
-1.6634732 -4.5164881 1.7053959
-1.6722838 -4.5251608 1.7064276
-1.6525984 -4.5220351 1.6935705
-1.6481138 -4.5108232 1.7029663
-1.6567733 -4.5257149 1.7007284
-1.6474136 -4.5242867 1.6955492
-1.6444433 -4.5261497 1.6951115
-1.6293536 -4.5301757 1.6988963
-1.6145595 -4.5259194 1.7058386
-1.684983 -4.724329 1.6422315
-1.6733878 -4.7274361 1.6486694
-1.6731128 -4.7256608 1.6487794
-1.6518029 -4.7305107 1.6543515
-1.6633468 -4.7171903 1.6534625
-1.6454916 -4.7188463 1.6400007
-1.6498711 -4.7374635 1.6502768
-1.6394266 -4.7394333 1.6409907
-1.6294165 -4.7326407 1.6499709
-1.6156185 -4.7373838 1.6454904
-1.6773614 -4.9164925 1.594292
-1.6676358 -4.9280443 1.594674
-1.6714691 -4.9259138 1.5991781
-1.6551889 -4.92907 1.6011697
-1.6533334 -4.9303699 1.5988102
-1.6523638 -4.9404173 1.5971138
-1.6448526 -4.9414506 1.5991105
-1.6270623 -4.9386482 1.6014379
-1.6185548 -4.9324489 1.5928494
-3.5286782 -2.9879742 1.7901149
-3.5228553 -3.0007005 1.7816788
-3.5265372 -3.0096414 1.7841396
-3.5222504 -3.0018983 1.7818756
-3.5160992 -3.0116856 1.7943063
-3.5101848 -3.0129077 1.7784026
-3.4984999 -3.0323234 1.7946516
-3.4961224 -3.0214031 1.7891554
-3.4879184 -3.0268896 1.7963846
-3.4864304 -3.0470114 1.783928
-3.4840498 -3.0411062 1.7790761
-3.4876158 -3.0535691 1.7864367
-3.4796109 -3.053911 1.7897897
-3.4691386 -3.0541704 1.785813
-3.4609237 -3.05249 1.7969701
-3.4602711 -3.0691128 1.7918208
-3.4555154 -3.0782759 1.7921653
-3.4545038 -3.069293 1.7883335
-3.4589818 -3.0763447 1.7839133
-3.456224 -3.0861537 1.7842629
-3.4459157 -3.0978343 1.7954035
-3.4404528 -3.0973401 1.7789612
-3.4276226 -3.0931067 1.7870508
-3.4314325 -3.1026735 1.779749
-3.4192126 -3.1083045 1.7789897
-3.4158287 -3.1175692 1.7864633
-3.4175875 -3.1263711 1.789624
-3.2763381 -2.9878616 1.8375304
-3.2617533 -2.9885368 1.8323041
-3.2715824 -3.0107677 1.8421009
-3.2610555 -3.0070105 1.8450427
-3.2593815 -3.0021172 1.8332988
-3.2541437 -3.0087273 1.8306022
-3.2408097 -3.0234876 1.8431464
-3.2347713 -3.0303748 1.8348613
-3.2294858 -3.0382318 1.8421071
-3.2367203 -3.0322082 1.8453405
-3.220788 -3.0319593 1.8412672
-3.2278616 -3.0413167 1.8410969
-3.2201555 -3.0447009 1.8432682
-3.222646 -3.0617619 1.8337631
-3.2021887 -3.0613594 1.833712
-3.2134688 -3.0599356 1.8316056
-3.2074394 -3.069401 1.8392876
-3.2088594 -3.0770574 1.8446254
-3.1985583 -3.0836637 1.8466429
-3.1810052 -3.0817468 1.8392153
-3.1802125 -3.0881457 1.8365617
-3.1834867 -3.0858731 1.8290699
-3.1869249 -3.1001551 1.8427073
-3.1681859 -3.1011951 1.8437908
-3.1589456 -3.106051 1.8297781
-3.1697502 -3.1064668 1.8416845
-3.1626551 -3.1051393 1.8486148
-3.147872 -3.109524 1.8323723
-3.1477447 -3.1279063 1.8340006
-3.1455936 -3.1330402 1.8420172
-3.0138011 -2.9852335 1.899019
-3.0019097 -3.001286 1.8918338
-2.9975042 -3.0051005 1.8948199
-2.9994557 -3.0145056 1.8812131
-2.9803176 -2.9990067 1.8871915
-2.9751863 -3.0186546 1.8971891
-2.9781427 -3.0155561 1.8929433
-2.9741631 -3.0220289 1.8887355
-2.9664202 -3.0327351 1.8905625
-2.9770432 -3.0256574 1.8916662
-2.9596438 -3.0282235 1.8885223
-2.9561555 -3.0430868 1.8935332
-2.959847 -3.037739 1.8989311
-2.9405465 -3.0385427 1.8991194
-2.9548469 -3.0444148 1.8989962
-2.9431632 -3.0493672 1.8834088
-2.9414761 -3.0614944 1.8950977
-2.9240291 -3.0538652 1.8844858
-2.930784 -3.0627227 1.8873336
-2.9157064 -3.0664384 1.8814193
-2.9195192 -3.0769956 1.8970931
-2.9064703 -3.0883117 1.8820518
-2.9084048 -3.0875716 1.8965008
-2.9049356 -3.0917897 1.8942822
-2.9012725 -3.0945721 1.8903222
-2.897727 -3.0899408 1.8855339
-2.8897631 -3.107898 1.8927372
-2.8901048 -3.1126895 1.891682
-2.8810525 -3.1085231 1.8858758
-2.8891468 -3.1135719 1.8804544
-2.8831499 -3.1067321 1.8885702
-2.8814735 -3.1111479 1.8894584
-2.8748329 -3.1218078 1.895169
-2.8737376 -3.1333144 1.8807383
-2.8548551 -3.1254792 1.8875953
-2.7296934 -2.9954345 1.934067
-2.719748 -3.0045679 1.9357209
-2.722594 -2.9983814 1.9366354
-2.7064898 -3.0074871 1.9457625
-2.7161865 -3.0090368 1.9338808
-2.7112994 -3.0089452 1.9328729
-2.6982913 -3.0115383 1.9314772
-2.7043896 -3.0118573 1.9434432
-2.6847718 -3.0154536 1.9479183
-2.6795797 -3.0245452 1.9442382
-2.6875253 -3.0230925 1.9316154
-2.6799128 -3.0358839 1.9336747
-2.6706412 -3.0357156 1.9457301
-2.6604497 -3.0436432 1.9324839
-2.6611261 -3.0454731 1.941486
-2.6536789 -3.0466261 1.9343718
-2.6472344 -3.0589867 1.9484507
-2.6621804 -3.0616667 1.9459909
-2.6451552 -3.0689554 1.9437094
-2.6436498 -3.0552835 1.9361045
-2.6458192 -3.0737944 1.9337151
-2.6406064 -3.0689344 1.9422909
-2.6333292 -3.0790505 1.9347857
-2.6339912 -3.0832279 1.9430976
-2.6278942 -3.0923393 1.9333187
-2.6127901 -3.0782664 1.9461195
-2.6047952 -3.0820172 1.9502867
-2.6027162 -3.0849876 1.9354949
-2.603092 -3.0952113 1.9371293
-2.6057441 -3.1082132 1.9361445
-2.5959959 -3.1076736 1.940352
-2.5886321 -3.1062152 1.9331162
-2.5926874 -3.1217787 1.9394553
-2.5842428 -3.1223087 1.9453022
-2.5874813 -3.1210513 1.9457166
-2.5804937 -3.1290045 1.9438769
-2.5606999 -3.1332822 1.9419532
-2.5567343 -3.139806 1.9407198
-2.5675554 -3.1310356 1.9329177
-2.5567369 -3.1292522 1.9357623
-2.4248497 -2.992023 1.9937081
-2.4310083 -3.0016427 1.9858301
-2.4243979 -2.9996684 1.9860189
-2.4114437 -2.9936051 1.9893023
-2.4126377 -2.9951408 1.9974614
-2.4134128 -3.0140548 2.0012796
-2.3960228 -3.0175459 1.984426
-2.4005518 -3.0214469 1.9846487
-2.4063094 -3.0205498 1.9972358
-2.3998644 -3.0132203 1.9951941
-2.3905702 -3.020443 1.9839253
-2.3942444 -3.0180106 1.986442
-2.385792 -3.0331588 1.9943324
-2.377146 -3.0395484 1.9916798
-2.3652122 -3.0313325 1.9908788
-2.3651145 -3.0480964 1.9945458
-2.3611939 -3.0516803 1.9980977
-2.3541222 -3.044008 2.0011184
-2.3468235 -3.0463121 1.9884003
-2.3469329 -3.0463955 1.98637
-2.3490794 -3.061413 2.000469
-2.3424902 -3.0643382 2.0003469
-2.3333795 -3.0630488 1.9884171
-2.336374 -3.0773561 1.9934323
-2.3220165 -3.0639768 1.9899919
-2.3284554 -3.0747514 1.9931102
-2.3112228 -3.0858619 1.9959611
-2.3104336 -3.074162 1.9897953
-2.3066194 -3.0794289 1.98463
-2.3155186 -3.0890756 1.9826802
-2.3064439 -3.0851438 1.9890057
-2.3032653 -3.0989022 1.9956928
-2.3002043 -3.0878341 1.9869502
-2.2890687 -3.104049 1.9871751
-2.2929137 -3.1101997 1.9840484
-2.2801943 -3.1070871 1.9934098
-2.2843523 -3.1110442 1.9949174
-2.2656548 -3.1185188 1.9913758
-2.2731187 -3.1064909 1.9858121
-2.2657435 -3.1276779 1.9938406
-2.2603137 -3.1241105 1.9890336
-2.248554 -3.1216893 1.993695
-2.2501025 -3.1205368 1.9926451
-2.2403896 -3.1325827 1.9985949
-2.250447 -3.1328115 2.0016024
-2.2436271 -3.1446638 1.9909252
-2.2274413 -3.1450214 1.9994872
-2.2297435 -3.1510336 1.9837648
-2.2155828 -3.1488657 1.9832546
-2.2269816 -3.1436832 1.9847355
-2.2103474 -3.1574359 1.9929558
-2.2185159 -3.1637983 1.9867631
-2.2020187 -3.1560833 1.9848828
-2.2065673 -3.1630337 1.9941103
-2.2051616 -3.1644242 1.9862566
-2.2007439 -3.1633818 1.989692
-2.1869993 -3.1705449 1.9959048
-2.1846886 -3.184406 1.9992348
-2.1780958 -3.1685066 1.9878558
-2.172009 -3.1884105 1.9847759
-2.1644371 -3.1760893 1.9910541
-2.1686404 -3.1963496 1.9940743
-2.1590321 -3.1845305 1.9879079
-2.1513002 -3.2016814 1.9978833
-2.1543362 -3.2018528 1.9895542
-2.1452219 -3.2020369 1.9853474
-2.1526682 -3.1929114 1.9970509
-2.1338973 -3.2059138 1.9979607
-2.1317923 -3.2167668 1.9978311
-2.121062 -3.2059808 2.0008523
-2.1334074 -3.2120745 1.9992439
-2.1194706 -3.2268274 2.0004175
-2.1225092 -3.2164326 1.9964465
-2.1117103 -3.2227702 1.9983547
-2.1109319 -3.2166128 1.9831152
-2.0984781 -3.2258141 1.9907092
-2.0902274 -3.2269387 1.99044
-2.0902689 -3.2337737 2.0001733
-2.0893965 -3.2429891 1.9820522
-2.0886495 -3.2459638 1.9977098
-2.0848773 -3.2457781 1.9902599
-2.0827093 -3.2561533 1.9910369
-2.0793638 -3.2540696 1.9851823
-2.0599854 -3.2456932 1.9959574
-2.0586946 -3.2610488 1.9958509
-2.052639 -3.2684653 1.9894979
-2.0589857 -3.2521496 1.9849688
-2.0455976 -3.2603984 1.9965467
-2.0424721 -3.2723014 1.981845
-2.0374637 -3.2679887 1.9870979
-2.0367935 -3.2644386 1.9954594
-2.0235693 -3.2832599 1.9963626
-2.0295644 -3.2832789 1.9822598
-2.0214097 -3.2884665 1.9994375
-2.0224762 -3.2769148 1.9841572
-2.0036452 -3.2838628 1.9843519
-2.0111632 -3.2817171 1.983747
-2.0032065 -3.2907462 1.9977721
-2.0036678 -3.3012173 1.9827662
-1.998827 -3.2912514 1.9949389
-1.9887295 -3.305191 1.993521
-1.9902663 -3.3104858 1.9961348
-1.9708964 -3.3063586 2.0015762
-1.9856251 -3.3186646 1.9846699
-1.9631726 -3.316628 1.9821494
-1.9759961 -3.3203557 1.9955078
-1.9686213 -3.3162003 1.9938333
-1.9618474 -3.3286915 1.9859438
-1.9610447 -3.3262508 1.9903913
-1.9552441 -3.3235803 1.9876062
-1.9372669 -3.335427 1.9936767
-1.9407039 -3.3334296 1.9972411
-1.9415232 -3.3366845 1.9877149
-1.9368974 -3.3392947 1.9886587
-1.9291739 -3.3440824 1.9944082
-1.9239674 -3.346328 1.999193
-1.9053985 -3.3458369 1.9908892
-1.9085004 -3.3432138 1.9928441
-1.8994881 -3.3444335 1.999983
-1.9060246 -3.3445022 1.9925293
-1.8953425 -3.3512471 1.995959
-1.898586 -3.366086 1.9841104
-1.8782616 -3.366405 1.991724
-1.8874595 -3.3667631 1.9994383
-1.8757101 -3.3640664 1.985069
-1.8782074 -3.3608351 1.9911518
-1.8759164 -3.3637109 2.000417
-1.8619254 -3.3743687 1.99499
-1.8659759 -3.3806973 1.9910213
-1.8628837 -3.3782496 1.9896555
-1.8472418 -3.389811 1.9842099
-1.8481665 -3.3893106 1.9865838
-1.8409362 -3.3931839 1.9912905
-1.8260885 -3.3909571 1.9982843
-1.8235232 -3.4016869 1.9906139
-1.8353233 -3.3996234 1.9888068
-1.8210372 -3.3999817 1.9867494
-1.8174824 -3.3910658 1.9966533
-1.8193508 -3.4109209 1.9828409
-1.8051846 -3.4124079 1.9940819
-1.7923805 -3.4029803 1.9963607
-1.8050185 -3.419209 1.9817325
-1.795279 -3.4129419 1.985817
-1.7808294 -3.4165659 1.9947073
-1.7793825 -3.4223666 1.9954408
-1.7856025 -3.4247131 2.0008039
-1.773626 -3.4175227 1.9883679
-1.7637036 -3.43153 1.9874005
-1.7638737 -3.4321625 1.9891243
-1.7578528 -3.4233882 1.9919006
-1.7605875 -3.4265735 1.9866371
-1.7410399 -3.4271638 1.9876713
-1.736117 -3.442785 1.9974918
-1.7471063 -3.4487307 1.9862013
-1.7292018 -3.4380066 1.9916161
-1.7305604 -3.4382837 1.9971839
-1.7265527 -3.4513686 1.992435
-1.7149775 -3.4593191 1.9961647
-1.7243662 -3.4522312 1.9817414
-1.7120279 -3.463917 1.998565
-1.6969099 -3.4631357 1.9946691
-1.707052 -3.4676087 1.9926424
-1.6961566 -3.4519639 1.9974469
-1.6954373 -3.4721169 1.9987516
-1.6860054 -3.4591775 1.9932195
-1.6911552 -3.4724119 1.9898427
-1.6707338 -3.4664574 1.9958066
-1.6750582 -3.4737496 1.9962388
-1.6756496 -3.4752562 1.9861712
-1.6706611 -3.4692533 1.9868233
-1.6488457 -3.4729645 1.9906551
-1.6509229 -3.4916534 1.9924059
-1.6550237 -3.4842858 1.9921864
-1.6343166 -3.481041 1.9941924
-1.6323016 -3.4932098 1.9915094
-1.6358155 -3.4953771 1.9979568
-1.6227031 -3.5019753 1.9927167
-1.6236235 -3.4977531 1.9825355
-1.7055018 -3.6744301 1.9422733
-1.6958061 -3.6756449 1.9412705
-1.6854552 -3.679909 1.9388872
-1.691269 -3.6911185 1.9401393
-1.6753289 -3.6912999 1.9310762
-1.6796048 -3.6956489 1.9475682
-1.6618716 -3.6828606 1.9341952
-1.6668179 -3.6984673 1.9409515
-1.6653138 -3.6858454 1.9433997
-1.6490464 -3.6990314 1.9323531
-1.642957 -3.697593 1.9423549
-1.6462077 -3.6915975 1.933525
-1.630458 -3.7003932 1.9428065
-1.6370882 -3.7001481 1.9432472
-1.6224632 -3.7091115 1.9458677
-1.6168983 -3.7075026 1.9464934
-1.6922917 -3.8905394 1.8913354
-1.6833539 -3.8865654 1.8938296
-1.6876563 -3.8862486 1.891278
-1.6695073 -3.8948293 1.8978658
-1.6624014 -3.9024882 1.8882099
-1.6652906 -3.8985691 1.8868604
-1.6570065 -3.9040744 1.8990188
-1.6594375 -3.9013875 1.8937186
-1.6414247 -3.9092565 1.8817443
-1.640788 -3.9167442 1.8936605
-1.6395224 -3.9073589 1.8820382
-1.6424928 -3.9144733 1.8967652
-1.6229657 -3.9113312 1.8941767
-1.6259869 -3.9154844 1.8853679
-1.6963924 -4.096683 1.8403335
-1.6822258 -4.1076217 1.8324821
-1.6894054 -4.0957294 1.8414626
-1.6644235 -4.1117258 1.8354597
-1.6647383 -4.115169 1.8439097
-1.6570241 -4.1034398 1.8471864
-1.6573906 -4.1159115 1.8421552
-1.649376 -4.1168237 1.8323088
-1.6466311 -4.123682 1.8478957
-1.6464716 -4.1190381 1.8416132
-1.6351178 -4.1163039 1.8351117
-1.6378762 -4.1251354 1.8400434
-1.6284827 -4.1268826 1.8392307
-1.680825 -4.3094029 1.7938584
-1.6881962 -4.3180623 1.7783089
-1.667114 -4.3247528 1.7968283
-1.6627519 -4.3175578 1.7852074
-1.6634177 -4.3281002 1.7949977
-1.6539267 -4.3216524 1.7802451
-1.6488456 -4.3208032 1.7924438
-1.6500437 -4.3343616 1.7896758
-1.6377401 -4.3364429 1.7803675
-1.6405016 -4.334898 1.7915953
-1.6240726 -4.3407469 1.7825944
-1.6220938 -4.3399925 1.7872996
-1.6833547 -4.5253611 1.7367526
-1.6781466 -4.5313177 1.746668
-1.6645561 -4.5239749 1.7283814
-1.6611722 -4.5331793 1.7388742
-1.6525375 -4.523344 1.7325397
-1.6517007 -4.5407515 1.7349619
-1.6536288 -4.5319028 1.7376093
-1.6448619 -4.531867 1.7440994
-1.624864 -4.5414567 1.72703
-1.6338638 -4.5351248 1.7329962
-1.6833125 -4.730525 1.6861237
-1.6869745 -4.7250209 1.6865722
-1.6807178 -4.7322459 1.6767131
-1.6727446 -4.7224097 1.6799905
-1.6542752 -4.7302656 1.6954353
-1.6421371 -4.7436142 1.6957957
-1.6475735 -4.7452235 1.6873184
-1.6303593 -4.7444019 1.6811825
-1.6266518 -4.7499218 1.6877536
-1.6200104 -4.7507834 1.6829441
-1.6900082 -4.9252782 1.6361983
-1.6730922 -4.9271293 1.6282363
-1.6757246 -4.9293299 1.6354007
-1.6682128 -4.9301662 1.6347432
-1.6574203 -4.939146 1.6285632
-1.6511798 -4.9426031 1.6313581
-1.6445757 -4.9381161 1.6348584
-1.6264457 -4.9430366 1.6414853
-1.6344483 -4.9508753 1.6448885
-3.5444574 -2.9973171 1.8152742
-3.543499 -2.9933856 1.8163431
-3.5339642 -3.0047412 1.82973
-3.5209644 -3.0046809 1.827031
-3.5248368 -3.0200138 1.8132484
-3.5097706 -3.018687 1.8239969
-3.5218563 -3.0321758 1.8218595
-3.5188308 -3.0347619 1.8203053
-3.5110738 -3.0259728 1.8220479
-3.5018828 -3.0326738 1.8285639
-3.5038285 -3.05165 1.8151129
-3.4961905 -3.0538597 1.8305476
-3.4874766 -3.0507329 1.819575
-3.485369 -3.0588117 1.813605
-3.4859536 -3.0549753 1.8172388
-3.480314 -3.0602918 1.8271298
-3.4639189 -3.0819199 1.8284572
-3.4696548 -3.0847554 1.8121172
-3.4569378 -3.0840735 1.8294792
-3.4624715 -3.0784473 1.8250473
-3.4614825 -3.0990202 1.8265399
-3.4539378 -3.0962155 1.8307182
-3.4509516 -3.1089637 1.8229123
-3.4389312 -3.1038783 1.811911
-3.4328742 -3.103658 1.8296232
-3.4431765 -3.1220856 1.8268902
-3.2802887 -2.9979649 1.8768983
-3.2795415 -2.9941287 1.8794259
-3.2751279 -3.0018835 1.8674885
-3.2733459 -2.9994872 1.8660246
-3.2759895 -3.000423 1.8688288
-3.257134 -3.0181427 1.8792731
-3.2540941 -3.017211 1.8617978
-3.2588534 -3.0286009 1.8742311
-3.2546077 -3.0182822 1.8717014
-3.2526436 -3.0226214 1.8755548
-3.2534058 -3.0317268 1.8778861
-3.2336581 -3.0442717 1.8686522
-3.2313762 -3.0365956 1.8762562
-3.2210252 -3.0513368 1.8708436
-3.232132 -3.052927 1.8690761
-3.2204282 -3.0598738 1.8741643
-3.2182739 -3.0679989 1.8647532
-3.2135885 -3.0651078 1.8685157
-3.2164636 -3.0622025 1.8671542
-3.2018621 -3.0815699 1.8660053
-3.2034009 -3.0859437 1.8802963
-3.2026021 -3.0948195 1.8665824
-3.1910312 -3.08567 1.8650781
-3.1918499 -3.0904322 1.8733604
-3.1780748 -3.09057 1.8645743
-3.1860611 -3.1032794 1.8733572
-3.1689529 -3.0981162 1.8785249
-3.1612496 -3.1125555 1.8710874
-3.1697779 -3.1141641 1.8710533
-3.1596613 -3.1254716 1.8761435
-3.1506875 -3.1226246 1.8813456
-3.0099022 -2.9867661 1.9116559
-3.0205297 -2.9999897 1.9260855
-3.0126557 -2.9983575 1.9202205
-2.9964933 -3.0072825 1.9186794
-2.9891112 -3.0085316 1.9288844
-2.9929402 -3.0170169 1.9287021
-2.9915957 -3.0221496 1.918524
-2.9776828 -3.0201671 1.9111748
-2.9837985 -3.0324309 1.9169493
-2.984818 -3.0400898 1.929996
-2.9806294 -3.0288532 1.9267944
-2.9756289 -3.0324345 1.9145905
-2.956193 -3.0523381 1.9282339
-2.9626162 -3.0402818 1.9171618
-2.9505749 -3.0450516 1.929044
-2.9483228 -3.0578647 1.9166384
-2.9462471 -3.0535533 1.9232917
-2.9343436 -3.0595551 1.9161133
-2.9297838 -3.0759037 1.920851
-2.9394436 -3.0775094 1.9221036
-2.9360509 -3.07917 1.9187611
-2.9358542 -3.0800788 1.9159994
-2.9278557 -3.0858071 1.9174901
-2.926208 -3.0822191 1.9151872
-2.9156268 -3.0908561 1.9122587
-2.9131575 -3.1015134 1.9206554
-2.9030883 -3.094373 1.9174956
-2.9063601 -3.0996127 1.9124604
-2.8968046 -3.1045823 1.9151969
-2.8825059 -3.1235068 1.920442
-2.8869486 -3.1233399 1.9281348
-2.8747284 -3.1272829 1.9190209
-2.8852642 -3.1275396 1.928275
-2.8743036 -3.1304669 1.9252074
-2.7347598 -2.9842393 1.9670908
-2.729219 -3.0025871 1.9728911
-2.7352762 -2.9952011 1.9699039
-2.724488 -2.9954278 1.9657428
-2.7187295 -3.0104461 1.9606721
-2.7102292 -3.015518 1.9607307
-2.7164783 -3.0093906 1.965004
-2.7150297 -3.0154071 1.969376
-2.7026894 -3.0163283 1.9775267
-2.7010899 -3.0306644 1.9667795
-2.7025526 -3.0207176 1.9633857
-2.6916306 -3.0294166 1.9654788
-2.6949031 -3.0283647 1.9787867
-2.6811576 -3.0407219 1.9756906
-2.6715677 -3.051523 1.9613932
-2.6670434 -3.0380318 1.9658352
-2.6624553 -3.0550032 1.9802097
-2.6735888 -3.0547445 1.972367
-2.6603451 -3.0663693 1.9673965
-2.6589456 -3.0606234 1.9718776
-2.6482878 -3.0605748 1.9700869
-2.6410186 -3.073844 1.9633729
-2.6516514 -3.0746305 1.9614806
-2.6489708 -3.0859215 1.9709949
-2.6293814 -3.0718784 1.9734659
-2.624084 -3.0775714 1.9731798
-2.6343393 -3.0829425 1.9796684
-2.6302154 -3.0837178 1.9701557
-2.6139288 -3.095526 1.9727523
-2.6226077 -3.0902157 1.9648225
-2.6068003 -3.0985346 1.9606634
-2.6127784 -3.1038764 1.9669514
-2.6054657 -3.1041477 1.9761627
-2.60004 -3.106041 1.9777869
-2.5850947 -3.1126518 1.9771523
-2.5876737 -3.118278 1.9745166
-2.5905335 -3.1184773 1.9701959
-2.5868998 -3.1188755 1.9687796
-2.5727737 -3.1273148 1.9792291
-2.576046 -3.1287663 1.9786566
-2.5672429 -3.1387484 1.9734269
-2.5625939 -3.1390522 1.9665111
-2.5516522 -3.1563914 1.9629735
-2.5514941 -3.1526582 1.9611863
-2.5497067 -3.1583385 1.9764254
-2.5485487 -3.1509614 1.9696697
-2.5500216 -3.1708128 1.9663398
-2.5358105 -3.1714044 1.966231
-2.5230105 -3.1622481 1.9612957
-2.5197561 -3.1807482 1.9785159
-2.5170691 -3.1748343 1.9693545
-2.5196071 -3.1886649 1.9634839
-2.5090556 -3.1759524 1.9638627
-2.502037 -3.1874859 1.9715568
-2.4968009 -3.1816406 1.9771467
-2.4963205 -3.1990514 1.9736837
-2.5025911 -3.202354 1.973933
-2.4921865 -3.195869 1.9771485
-2.4818859 -3.2010126 1.9730715
-2.4765158 -3.2073355 1.9740396
-2.4739208 -3.21541 1.9644608
-2.4804821 -3.2104657 1.9645841
-2.4729092 -3.2194188 1.9609464
-2.4649527 -3.2258067 1.9692956
-2.4692972 -3.2314165 1.9670042
-2.4480472 -3.2210093 1.9708097
-2.4502552 -3.2213404 1.9748145
-2.4522092 -3.2357402 1.9687997
-2.4509428 -3.2443168 1.9611304
-2.4337487 -3.2320063 1.9706211
-2.4355817 -3.2415879 1.9755138
-2.4269888 -3.2422235 1.968821
-2.4182677 -3.259783 1.9766393
-2.4131796 -3.2538884 1.9615273
-2.4197378 -3.256845 1.9642571
-2.4085824 -3.263063 1.9608392
-2.4136169 -3.2560055 1.9605289
-2.3946419 -3.2754233 1.9692515
-2.4016769 -3.2781005 1.9728234
-2.3963768 -3.2681146 1.9721259
-2.3815811 -3.2844973 1.9652601
-2.3818879 -3.2768271 1.9611661
-2.3688829 -3.284981 1.9629132
-2.3680551 -3.2925966 1.9739496
-2.3623345 -3.2913246 1.9654174
-2.3538795 -3.3034568 1.974049
-2.3688378 -3.3051872 1.9731133
-2.3641019 -3.2925115 1.9761288
-2.3506386 -3.3114438 1.9798295
-2.3535988 -3.309654 1.9768724
-2.3372521 -3.3176513 1.9608825
-2.3277664 -3.3105428 1.9759061
-2.3223703 -3.3150213 1.9661127
-2.3352225 -3.3232687 1.9720343
-2.3170338 -3.3303964 1.9625517
-2.3273726 -3.3336754 1.9642547
-2.3090754 -3.3365231 1.9675386
-2.3117092 -3.3392501 1.966803
-2.3113232 -3.3331335 1.9704332
-2.3072317 -3.3346016 1.9791451
-2.2860928 -3.344352 1.963145
-2.2809393 -3.3492501 1.9775323
-2.2807579 -3.3533902 1.9707136
-2.2703655 -3.3550251 1.9789135
-2.2740469 -3.3631182 1.963245
-2.2672064 -3.3662021 1.9675506
-2.2586584 -3.3556449 1.9722548
-2.2668223 -3.3723826 1.9774719
-2.2557173 -3.3733993 1.9720391
-2.2609777 -3.3749945 1.9683648
-2.2375216 -3.380125 1.9781607
-2.2500615 -3.3847811 1.9662722
-2.2282095 -3.3739388 1.9734509
-2.2331719 -3.3773916 1.9621954
-2.2299299 -3.3892181 1.9660407
-2.2223523 -3.398901 1.9699899
-2.2104645 -3.4047368 1.967677
-2.2138681 -3.4034419 1.971801
-2.2120504 -3.3957522 1.9780761
-2.1956613 -3.398037 1.9659173
-2.2029419 -3.4015846 1.9717827
-2.2004225 -3.402395 1.9761401
-2.1897874 -3.4060812 1.9744812
-2.1919692 -3.4194617 1.9725044
-2.1854019 -3.4143364 1.9618292
-2.1749854 -3.4263737 1.9645928
-2.1806154 -3.4312687 1.9646355
-2.1685541 -3.4243164 1.9690814
-2.1523645 -3.4403 1.9643189
-2.1498954 -3.4446526 1.9803666
-2.1595809 -3.4410479 1.975955
-2.1433971 -3.4396904 1.9738146
-2.1428514 -3.4524684 1.9710631
-2.1439605 -3.4522035 1.9779996
-2.1270423 -3.450151 1.973123
-2.120795 -3.4624653 1.9792639
-2.1317799 -3.4651978 1.9635584
-2.1227181 -3.4606609 1.9778469
-2.109206 -3.464731 1.9791865
-2.1004524 -3.4711325 1.9792019
-2.0956471 -3.4720247 1.9658433
-2.0952492 -3.4615417 1.9768572
-2.0969877 -3.4753265 1.9781009
-2.0814734 -3.4750378 1.9626108
-2.0790186 -3.4826524 1.9721681
-2.0814364 -3.4888458 1.9723986
-2.077709 -3.490854 1.9728779
-2.0696831 -3.4886346 1.9608682
-2.0673647 -3.4977412 1.9677562
-2.0637028 -3.5029368 1.9712033
-2.0600214 -3.4881735 1.9767123
-2.0496943 -3.4978628 1.9756515
-2.0483496 -3.4941454 1.9637463
-2.0457571 -3.4997725 1.9750634
-2.0386508 -3.507808 1.9616928
-2.0219829 -3.5031281 1.9650489
-2.0250809 -3.5195918 1.9693102
-2.0276954 -3.5129046 1.9786973
-2.0223157 -3.5287783 1.9618775
-2.0100441 -3.5258734 1.9627547
-2.0143216 -3.524174 1.9612813
-1.9930859 -3.537039 1.9729977
-1.992907 -3.5334547 1.9713037
-1.9846296 -3.532177 1.966848
-1.9850311 -3.5286961 1.9772155
-1.9787993 -3.5334549 1.9751148
-1.9692076 -3.5462227 1.9793953
-1.9753509 -3.5465202 1.9732008
-1.972103 -3.5463572 1.9739636
-1.9656712 -3.5588455 1.9604558
-1.9583582 -3.5605383 1.9714646
-1.9525148 -3.5459263 1.9724188
-1.9549513 -3.5560706 1.979761
-1.9390779 -3.562876 1.9711776
-1.9276564 -3.5550253 1.9688648
-1.9258635 -3.5658896 1.9645761
-1.9261676 -3.5721126 1.9702957
-1.9221874 -3.569433 1.9784865
-1.9243981 -3.5684636 1.9696026
-1.9058421 -3.5860243 1.9709853
-1.9007901 -3.581238 1.9734234
-1.9047257 -3.5755777 1.9732147
-1.8877033 -3.5773275 1.9655963
-1.883335 -3.588181 1.9738998
-1.8875463 -3.5925941 1.9727743
-1.8740667 -3.6001992 1.9634978
-1.8848722 -3.5930972 1.9707048
-1.8699545 -3.6070073 1.9632909
-1.8668423 -3.608124 1.9795389
-1.8526102 -3.5956848 1.9609116
-1.856992 -3.6031971 1.9697493
-1.8589319 -3.5996523 1.9669187
-1.8410769 -3.6040964 1.9650029
-1.8308367 -3.6091866 1.9748909
-1.8322892 -3.623507 1.9630164
-1.8348639 -3.62937 1.9661801
-1.8267114 -3.6310642 1.9790825
-1.8113483 -3.6228702 1.9607041
-1.8233955 -3.6365972 1.9638313
-1.8191912 -3.621129 1.9620132
-1.8136106 -3.6350832 1.975291
-1.7991887 -3.6360211 1.9747148
-1.787594 -3.6441519 1.9722886
-1.7979115 -3.647094 1.9673592
-1.7783375 -3.6365435 1.9706897
-1.7706345 -3.6536262 1.9707301
-1.7797643 -3.6476185 1.9716423
-1.7759883 -3.6513133 1.9633071
-1.7705873 -3.6521249 1.9637969
-1.7620555 -3.6538048 1.9622993
-1.7553384 -3.6549802 1.9693854
-1.7553401 -3.6668139 1.9780636
-1.7359147 -3.6521363 1.9611344
-1.7389119 -3.672863 1.9637796
-1.726835 -3.6591063 1.9794844
-1.7314245 -3.6627405 1.9606085
-1.71597 -3.6806018 1.9702352
-1.7196 -3.6797884 1.9786546
-1.7115617 -3.6786778 1.9687433
-1.7030303 -3.6741436 1.9796256
-1.6959932 -3.6880033 1.9717987
-1.7018666 -3.6869795 1.9745972
-1.6990585 -3.6916482 1.9745255
-1.6931763 -3.6844358 1.9761717
-1.6846455 -3.6902716 1.9740125
-1.6804068 -3.6858249 1.9706497
-1.6750406 -3.6910555 1.9718487
-1.6600444 -3.7050514 1.9762777
-1.6566255 -3.6961472 1.964226
-1.6631147 -3.7038536 1.9791105
-1.6587182 -3.7096679 1.9625298
-1.6421456 -3.7065041 1.9693604
-1.6427712 -3.7056839 1.9739023
-1.6434654 -3.7041366 1.9680299
-1.6225101 -3.7192171 1.9786874
-1.6237108 -3.7152205 1.9761503
-1.7058718 -3.8885822 1.9212297
-1.6889819 -3.8946648 1.9241617
-1.6876597 -3.9024994 1.9183347
-1.6783859 -3.9019978 1.9271311
-1.6742243 -3.9022772 1.9124357
-1.66664 -3.9111652 1.9232192
-1.6722219 -3.9058628 1.9171308
-1.6532587 -3.9064419 1.9148905
-1.6601646 -3.9112563 1.9198631
-1.6564097 -3.9224651 1.9111186
-1.6351888 -3.9234312 1.928851
-1.6393812 -3.9129553 1.9228808
-1.6406384 -3.9266086 1.9114481
-1.6277193 -3.9364426 1.9228817
-1.6260006 -3.9275732 1.9163927
-1.6928396 -4.1157269 1.8738611
-1.6747763 -4.1158838 1.8684776
-1.682798 -4.1225452 1.8648491
-1.6730568 -4.121583 1.8787326
-1.6583397 -4.1223397 1.863726
-1.6523639 -4.1273532 1.8700646
-1.6486524 -4.1220388 1.8691826
-1.6509079 -4.1234655 1.876943
-1.6445928 -4.1374598 1.8771573
-1.6468409 -4.1352258 1.8685215
-1.6355747 -4.1314583 1.8731507
-1.6173329 -4.1353741 1.8799911
-1.695325 -4.3134193 1.8130261
-1.685837 -4.3272176 1.8188792
-1.6824622 -4.3320541 1.8263195
-1.6740906 -4.3166742 1.8310822
-1.6593772 -4.3233457 1.823487
-1.6655425 -4.338038 1.8167849
-1.6639442 -4.3321848 1.8183999
-1.6421283 -4.3343515 1.8245529
-1.6489451 -4.3310275 1.8167689
-1.6311294 -4.3352404 1.8273566
-1.6264701 -4.3323731 1.8225365
-1.6192685 -4.3460555 1.8262885
-1.6940325 -4.5239229 1.7780612
-1.6732777 -4.5380363 1.7770708
-1.6677568 -4.5234833 1.7717539
-1.6698278 -4.5411448 1.7740808
-1.6585978 -4.5432611 1.764589
-1.6457494 -4.5496173 1.7752497
-1.6467448 -4.5488496 1.7715453
-1.6355211 -4.5363293 1.7659303
-1.6337062 -4.5452151 1.7654761
-1.6367084 -4.552968 1.7736254
-1.6159554 -4.5537357 1.7677042
-1.6789485 -4.7426171 1.7205281
-1.6776478 -4.7298608 1.7197636
-1.6616608 -4.7455101 1.7236828
-1.6633435 -4.7362676 1.7278222
-1.6545149 -4.7405181 1.7279326
-1.6550223 -4.7521091 1.7311292
-1.6392308 -4.7588243 1.7291563
-1.6290511 -4.7500758 1.7205983
-1.6193223 -4.7506838 1.7265792
-1.6214411 -4.7568965 1.7140757
-1.6719491 -4.9508677 1.6680009
-1.6773987 -4.9468131 1.6665429
-1.6636094 -4.9533935 1.6717823
-1.6658977 -4.9482818 1.6686014
-1.6440434 -4.9609699 1.6634979
-1.6420754 -4.9607968 1.6691226
-1.6369076 -4.951467 1.6703416
-1.6337095 -4.9585958 1.6826094
-1.6190662 -4.9626365 1.6765602
-3.5459592 -2.9978733 1.8503593
-3.542069 -3.0046639 1.8491193
-3.5347109 -3.0032647 1.8642607
-3.5398405 -3.0056751 1.847703
-3.5280616 -3.0129352 1.8488625
-3.5273993 -3.0263834 1.8625846
-3.5328679 -3.0312843 1.8574215
-3.5169342 -3.0238428 1.8526775
-3.5167077 -3.0389266 1.8585991
-3.5146496 -3.0377731 1.8473678
-3.5075667 -3.047534 1.8539194
-3.4988625 -3.0575972 1.8586497
-3.4913912 -3.0445013 1.8497425
-3.4887719 -3.0607412 1.8633825
-3.4827032 -3.0694158 1.8547139
-3.4954684 -3.0616477 1.8575425
-3.4745045 -3.0635753 1.8604102
-3.4786971 -3.0738027 1.855653
-3.4676268 -3.0880446 1.8607399
-3.470628 -3.0844758 1.8519025
-3.464854 -3.0980783 1.85822
-3.4525213 -3.1072381 1.8593844
-3.4554517 -3.0931945 1.8585489
-3.4472823 -3.1008065 1.8463715
-3.4454665 -3.1066318 1.8504119
-3.4523125 -3.1095107 1.8471065
-3.2925842 -2.9852338 1.8948402
-3.2939029 -2.9997382 1.909134
-3.2799721 -3.0074816 1.8940542
-3.2809479 -3.0025423 1.9074054
-3.2707548 -3.0161514 1.9120098
-3.2742379 -3.0217578 1.9123048
-3.2765501 -3.0146306 1.9114871
-3.2596912 -3.0236773 1.9078952
-3.2550037 -3.0352578 1.9033101
-3.2662692 -3.0380406 1.9006718
-3.2608337 -3.0291975 1.8966428
-3.2557447 -3.0458603 1.9027225
-3.2363558 -3.0527864 1.9056658
-3.2320402 -3.044889 1.8981497
-3.2343669 -3.0510051 1.9016197
-3.2320831 -3.0648179 1.9040728
-3.2294979 -3.0651624 1.8982366
-3.2277241 -3.0728743 1.9079314
-3.2095358 -3.0801308 1.9106176
-3.2159264 -3.0828917 1.8950865
-3.2049489 -3.0844624 1.9129589
-3.1979942 -3.0851958 1.8987222
-3.2049537 -3.0907979 1.9021075
-3.1889634 -3.0963485 1.8979324
-3.2004828 -3.1084967 1.912177
-3.1885264 -3.1026378 1.8971391
-3.1941104 -3.1184769 1.9062808
-3.1855245 -3.1168315 1.9122288
-3.1672375 -3.1212938 1.8954324
-3.1662581 -3.1164486 1.9003811
-3.022655 -2.9885428 1.9563458
-3.0195124 -2.9941957 1.9479847
-3.0306008 -2.9911292 1.9585094
-3.0182977 -2.9963999 1.9479656
-3.010164 -3.0175238 1.9497495
-3.0077798 -3.0110309 1.9618623
-3.0004275 -3.0144684 1.9425998
-3.0039277 -3.0136721 1.9494402
-3.0014739 -3.0189474 1.9562702
-2.9958107 -3.0276079 1.9523908
-2.985193 -3.0351849 1.9444649
-2.9866915 -3.0438058 1.9551266
-2.9765451 -3.0477076 1.9530897
-2.975868 -3.0435047 1.950011
-2.965729 -3.0553722 1.9500313
-2.9738004 -3.0490656 1.9607615
-2.969753 -3.059623 1.9522655
-2.9649625 -3.0579021 1.948771
-2.9533257 -3.0579555 1.9442006
-2.9548533 -3.0765791 1.9551631
-2.9402542 -3.0688248 1.9427361
-2.9335756 -3.0868137 1.9458699
-2.9362292 -3.0789075 1.9492776
-2.9409142 -3.0945811 1.961058
-2.9286721 -3.0843787 1.9451345
-2.916404 -3.0865159 1.9596756
-2.9133999 -3.1088803 1.947811
-2.9188862 -3.1107342 1.9618132
-2.9078612 -3.1052372 1.9599019
-2.901401 -3.1055593 1.9435008
-2.9039726 -3.1155798 1.9589821
-2.8989656 -3.123225 1.9605961
-2.8908191 -3.1178327 1.9542322
-2.8792591 -3.1214399 1.9563044
-2.8759131 -3.1371253 1.9526831
-2.757164 -3.0018916 1.9991086
-2.735389 -2.9907796 1.9991748
-2.7454731 -3.0094917 2.0014729
-2.7415497 -3.0015223 1.9933474
-2.7395322 -3.0114419 2.0089734
-2.7339106 -3.0082879 1.9986459
-2.7128024 -3.024487 2.0047348
-2.7100747 -3.016906 2.0002711
-2.7137055 -3.0221369 1.9962494
-2.7152588 -3.0283992 2.0005853
-2.7004282 -3.0316167 2.0012145
-2.7072535 -3.0372479 1.996803
-2.6940072 -3.0371575 1.9975213
-2.6984575 -3.0373435 2.0100446
-2.6910281 -3.039717 1.9964783
-2.6879675 -3.040679 2.0098901
-2.6752291 -3.0447485 1.9909205
-2.6763964 -3.0503113 2.0033443
-2.6620224 -3.0637312 1.9943435
-2.6716645 -3.0629361 2.0028808
-2.6569657 -3.0715473 1.9919953
-2.6616328 -3.0712259 1.9992671
-2.6507058 -3.0819056 1.9904118
-2.6590555 -3.0812886 2.0051472
-2.6548765 -3.0774999 2.0012798
-2.6442587 -3.094914 2.0002151
-2.6402242 -3.083858 1.9988399
-2.6351538 -3.0982432 1.9956546
-2.6376545 -3.1025331 2.0027962
-2.6291509 -3.1007495 1.9944738
-2.6121049 -3.1085565 2.0012751
-2.6059391 -3.1053252 1.9921266
-2.6124966 -3.1154666 1.9960212
-2.6079044 -3.1182625 2.0042498
-2.6085715 -3.1211898 1.9999779
-2.593101 -3.1178148 2.0019968
-2.59869 -3.1347253 1.9987702
-2.5856493 -3.1308913 2.0048513
-2.5757887 -3.133889 1.990329
-2.5787816 -3.1327188 2.001271
-2.5700917 -3.1388435 2.0080805
-2.5745955 -3.1431489 2.0017896
-2.5682428 -3.1583629 2.0090199
-2.5579906 -3.1533411 1.9971105
-2.5595045 -3.153348 2.005924
-2.5452852 -3.1622508 2.0017567
-2.5490425 -3.1611142 2.0043166
-2.5360208 -3.1713138 1.9943424
-2.5369134 -3.1760345 2.0049965
-2.5323234 -3.1681347 2.0004404
-2.5367861 -3.1759369 1.993373
-2.5344348 -3.1726398 2.0056076
-2.518369 -3.187392 2.0062294
-2.5150681 -3.1962986 1.9954679
-2.5236719 -3.1911311 2.0082884
-2.5034571 -3.1961615 1.9957889
-2.5074048 -3.1893709 2.0080023
-2.5087874 -3.1939857 1.9935868
-2.5001395 -3.2039249 1.9980146
-2.5008326 -3.2137108 1.9939001
-2.4860768 -3.2124016 2.0055351
-2.4783835 -3.2131875 2.0040126
-2.478451 -3.2223594 1.9912773
-2.4778919 -3.2326872 1.9931685
-2.4680893 -3.2360799 2.0037537
-2.4654613 -3.2237246 1.9928292
-2.455328 -3.2397883 1.9922097
-2.4529765 -3.2417109 1.9904835
-2.4450357 -3.2394667 2.0023198
-2.4526625 -3.2424016 2.0078659
-2.4443989 -3.2550714 1.9982105
-2.4444957 -3.244544 1.9912522
-2.42611 -3.2585847 1.9985986
-2.4204547 -3.2565715 1.9990877
-2.4329038 -3.2692661 1.9996481
-2.4147627 -3.2638478 1.9960216
-2.4075413 -3.2728159 1.999783
-2.4009349 -3.2639575 2.0050669
-2.3960497 -3.271688 1.9960339
-2.3993237 -3.2715795 2.0074985
-2.3970468 -3.2877464 2.0097191
-2.3844206 -3.288554 2.005887
-2.3787482 -3.2955244 1.9914279
-2.3857248 -3.2813931 2.002389
-2.3722074 -3.3042688 2.004056
-2.378125 -3.2935665 1.9945359
-2.3676646 -3.3002105 1.9994354
-2.3734379 -3.3048201 1.996575
-2.3539228 -3.3091218 2.0093591
-2.3634362 -3.3012791 2.0056207
-2.3414803 -3.3157461 2.0090778
-2.3372991 -3.3221781 1.9950832
-2.3369453 -3.3275332 1.9974675
-2.3310461 -3.3244653 1.9973264
-2.3341815 -3.3324852 1.9976459
-2.3356452 -3.3310325 1.9919981
-2.3266242 -3.3437338 2.0030301
-2.3126993 -3.3468275 1.9927697
-2.3216305 -3.3350296 2.0015185
-2.2977726 -3.3373733 2.0014143
-2.2976489 -3.3423941 2.0101409
-2.2940636 -3.3478711 1.9957272
-2.2844684 -3.3576365 1.9992431
-2.2924843 -3.3661492 2.0091054
-2.280637 -3.3624485 1.9942197
-2.2884657 -3.3648672 2.0040522
-2.2819376 -3.3629253 2.0044422
-2.2643733 -3.3717234 2.0049913
-2.2570646 -3.3741219 2.0005836
-2.261003 -3.3773365 1.9970719
-2.2650411 -3.3851056 1.9917722
-2.2603478 -3.3739724 2.0042217
-2.2500644 -3.3779314 2.0101256
-2.2362602 -3.3945982 1.9907298
-2.2325895 -3.384114 1.9982413
-2.2238002 -3.3861594 2.0065341
-2.225174 -3.4063818 1.9999623
-2.2261534 -3.3937497 2.0077794
-2.2265794 -3.3985231 1.9963781
-2.2114084 -3.4119534 2.0049357
-2.1997452 -3.4141448 2.0088913
-2.2133772 -3.4163706 2.0071406
-2.1945555 -3.4130445 2.004585
-2.1898255 -3.4206505 2.0085096
-2.1844869 -3.4293265 2.0060589
-2.1916327 -3.4339581 2.0046971
-2.1704814 -3.4247129 2.0062401
-2.1758976 -3.4412005 2.0035357
-2.1734924 -3.4428725 1.9991722
-2.1624844 -3.4341357 2.0044856
-2.1629143 -3.4385023 1.9907085
-2.1593845 -3.4412723 1.9977996
-2.1576009 -3.4499955 1.9913043
-2.1383691 -3.4587686 2.0002835
-2.1352084 -3.4469872 2.0036607
-2.1344941 -3.4471395 2.0054739
-2.1351376 -3.450933 1.9995927
-2.1342337 -3.4649396 2.0002778
-2.11603 -3.4613421 2.0023384
-2.1221857 -3.4715416 1.996176
-2.1030238 -3.4669807 2.0086808
-2.097635 -3.4837034 2.0014429
-2.1051509 -3.4834607 2.008502
-2.0991583 -3.4888082 2.0098016
-2.084182 -3.4758213 2.0058897
-2.0858245 -3.4869504 2.0048251
-2.08565 -3.4835577 2.0029604
-2.0713522 -3.4841003 2.010076
-2.0763655 -3.4912822 2.0037687
-2.059314 -3.4894669 1.9902349
-2.0684209 -3.493341 2.0042284
-2.0650189 -3.4966817 2.0044584
-2.0488508 -3.512398 2.0078838
-2.0456195 -3.5069852 2.0089078
-2.0410848 -3.5114639 2.0058577
-2.040458 -3.5224569 1.9946108
-2.0408914 -3.5181513 2.0096817
-2.0231857 -3.5244281 2.007129
-2.0183606 -3.520602 2.0003059
-2.0198388 -3.5246129 1.9982034
-2.0148468 -3.5226228 1.9951247
-2.0158575 -3.5221269 1.9915966
-1.9966342 -3.5303631 1.9952366
-1.9939815 -3.5402725 2.0071671
-1.9903008 -3.5305552 1.9974897
-1.9896662 -3.5451233 1.9996829
-1.9802748 -3.5450413 2.0090389
-1.9758086 -3.5521739 1.9949681
-1.9738913 -3.5594056 2.0075665
-1.978793 -3.5530436 1.9989904
-1.9657936 -3.5666215 1.9952339
-1.955869 -3.5661464 1.9947958
-1.9494686 -3.571388 2.0089371
-1.9594243 -3.5589206 1.9959779
-1.9374456 -3.5677204 1.9955376
-1.9451407 -3.5608375 2.0033243
-1.9306387 -3.5695188 1.9939806
-1.926777 -3.5786932 2.0002856
-1.9169823 -3.5709138 2.0021331
-1.9145855 -3.5730033 1.9931097
-1.920761 -3.5870645 1.9932685
-1.9106891 -3.5961761 1.9966556
-1.9010518 -3.5838661 1.9975475
-1.8972692 -3.5864942 1.993646
-1.8864423 -3.5921302 2.0036771
-1.8960518 -3.5904515 2.0033166
-1.877871 -3.5992646 1.9969934
-1.8890301 -3.6092141 2.0042071
-1.8738806 -3.6143703 2.0019045
-1.8768799 -3.6021349 2.0002098
-1.868899 -3.6010842 2.0071442
-1.8607557 -3.6149745 2.0076509
-1.8492215 -3.624244 2.0031438
-1.8567919 -3.6147513 1.998678
-1.8482599 -3.6194558 1.9912385
-1.8296933 -3.6187973 2.0081332
-1.8314836 -3.6249895 1.998863
-1.8195935 -3.6273761 2.0022845
-1.8204864 -3.6396518 2.0031843
-1.8236781 -3.6399691 1.9989465
-1.808561 -3.637352 1.9983795
-1.8065058 -3.6316409 2.0065353
-1.8039407 -3.6394494 2.0080276
-1.8058789 -3.6398852 2.0016117
-1.7922795 -3.6368496 1.9930831
-1.786116 -3.6403117 2.007798
-1.7830544 -3.6506319 1.9988981
-1.7692593 -3.6541336 1.9901825
-1.7720393 -3.6636031 1.9917548
-1.773916 -3.6613429 1.9955659
-1.7600271 -3.6690478 2.0045435
-1.7667016 -3.6597831 2.0017745
-1.745217 -3.6730428 1.9937322
-1.7422366 -3.6733332 2.0077822
-1.7456688 -3.6651206 2.0073884
-1.737626 -3.6758442 2.0060463
-1.7348651 -3.6686096 1.9968907
-1.7210006 -3.6726868 2.0067327
-1.7158482 -3.684654 2.0095978
-1.7091203 -3.6836119 1.997208
-1.7185779 -3.6937978 1.9995914
-1.6990544 -3.6957791 1.9937102
-1.7022966 -3.6813998 1.9970334
-1.6935779 -3.6891677 2.0025225
-1.6908058 -3.6854987 1.9986737
-1.6884242 -3.6989212 2.0065434
-1.6873813 -3.6947205 2.0040827
-1.6754907 -3.7017965 1.9999727
-1.6737549 -3.7088647 2.0063159
-1.6691508 -3.7143528 1.9961151
-1.6569333 -3.7144501 1.9981344
-1.6623291 -3.7201781 2.0005715
-1.6536027 -3.7143066 1.9997796
-1.6415501 -3.7248774 1.9936044
-1.6440049 -3.7178407 1.9934758
-1.6303055 -3.7135904 2.0022948
-1.6287332 -3.7134686 1.9976772
-1.6296184 -3.7266304 2.0083394
-1.6921054 -3.9012291 1.9461955
-1.6905023 -3.8985181 1.9489909
-1.6790967 -3.9087734 1.9540235
-1.6856686 -3.9096117 1.9556544
-1.6698002 -3.906914 1.9454767
-1.6747203 -3.9173572 1.9470402
-1.6658123 -3.9154525 1.9579452
-1.6570296 -3.9250484 1.9553983
-1.6594249 -3.9182751 1.9552637
-1.6464343 -3.9175937 1.9442505
-1.6427783 -3.9271138 1.9589092
-1.6331764 -3.9404922 1.9586555
-1.6207758 -3.9279296 1.9505155
-1.6233397 -3.927407 1.9438987
-1.6982706 -4.115963 1.8942465
-1.6891242 -4.115541 1.9045835
-1.678411 -4.1316891 1.8991637
-1.6767894 -4.1245346 1.9064789
-1.6777115 -4.1252599 1.9028902
-1.6587647 -4.1384816 1.9022983
-1.6508281 -4.1335378 1.8944941
-1.6482295 -4.124486 1.8956114
-1.6458813 -4.1285305 1.9115837
-1.6316699 -4.1406384 1.910363
-1.6440722 -4.1391797 1.902339
-1.6380367 -4.1343317 1.8971093
-1.6216612 -4.1445308 1.8980961
-1.6814338 -4.3196607 1.8605067
-1.682904 -4.3407898 1.852627
-1.6679596 -4.3287416 1.8538657
-1.6736038 -4.3345299 1.8623803
-1.6670488 -4.3434958 1.8622708
-1.6593734 -4.3358936 1.860433
-1.6557225 -4.3398623 1.8487946
-1.653289 -4.34202 1.8609148
-1.6388761 -4.3439312 1.8601749
-1.6296899 -4.3552589 1.8515195
-1.6195136 -4.3614235 1.8507985
-1.618837 -4.3551097 1.8513145
-1.6737297 -4.5418549 1.7981498
-1.6794335 -4.5384474 1.8096323
-1.6766195 -4.5345459 1.8144891
-1.6539117 -4.5490327 1.8092804
-1.6530385 -4.5459361 1.8024262
-1.6438004 -4.5464764 1.81573
-1.6424388 -4.5586777 1.809429
-1.6418139 -4.5477695 1.8140982
-1.6298412 -4.5527654 1.8148925
-1.6185864 -4.563168 1.8042818
-1.6919581 -4.749733 1.7630609
-1.6850036 -4.7455602 1.7556925
-1.6665634 -4.7449203 1.7545751
-1.663263 -4.7479219 1.7613114
-1.6651682 -4.7564044 1.7534763
-1.6539241 -4.7620044 1.7674235
-1.6493732 -4.7526031 1.7514837
-1.6311198 -4.7689395 1.768757
-1.6281941 -4.7596698 1.7633306
-1.6244709 -4.7655139 1.749789
-1.6739415 -4.9497247 1.7067505
-1.6737003 -4.9499311 1.7183316
-1.6608243 -4.9583316 1.7129036
-1.6490624 -4.950069 1.7068155
-1.650561 -4.9703517 1.7145777
-1.6398914 -4.9660344 1.7190626
-1.6352714 -4.9638133 1.7152629
-1.626588 -4.9699888 1.7174313
-1.6206282 -4.9798923 1.711165
-3.5614626 -2.9953508 1.8839438
-3.5539494 -3.0035138 1.8821237
-3.5520682 -3.0106575 1.8853797
-3.5493901 -3.0011733 1.8929285
-3.5384455 -3.0220819 1.8924714
-3.5413237 -3.0122819 1.8833387
-3.5320308 -3.0295587 1.8933744
-3.52701 -3.0268641 1.8982882
-3.5216718 -3.0327148 1.8957627
-3.528147 -3.0460434 1.8821967
-3.5213571 -3.0407722 1.8916454
-3.5131493 -3.0521808 1.8979151
-3.5067544 -3.045908 1.882019
-3.4970968 -3.0611639 1.8805794
-3.4998834 -3.0696886 1.8831975
-3.5031204 -3.0653121 1.8805761
-3.4954832 -3.0758708 1.8856324
-3.4978034 -3.0856428 1.8983318
-3.475203 -3.0743177 1.890123
-3.4751215 -3.0937161 1.8935224
-3.4685988 -3.09058 1.8871236
-3.472621 -3.1034977 1.8942411
-3.4703665 -3.0942895 1.8925501
-3.4640014 -3.0996995 1.8805163
-3.459069 -3.1121788 1.8848646
-3.4515119 -3.112184 1.8984901
-3.302392 -2.9983299 1.9331186
-3.2925689 -3.0014164 1.9361974
-3.2900398 -3.0062125 1.9354841
-3.2957132 -3.015244 1.940249
-3.2979805 -3.0020769 1.9330208
-3.2866404 -3.017262 1.9377397
-3.2881763 -3.0145299 1.9365253
-3.2713969 -3.0297771 1.9347538
-3.2666447 -3.0244424 1.9453495
-3.2775378 -3.0359082 1.9407802
-3.2547991 -3.0467956 1.9443808
-3.2640922 -3.0520487 1.929522
-3.2502999 -3.0389676 1.9344882
-3.2572148 -3.0557616 1.9350382
-3.2393582 -3.0590308 1.9333649
-3.2487235 -3.0551744 1.9411099
-3.2333636 -3.0570748 1.9361846
-3.2392116 -3.0664227 1.9406042
-3.226825 -3.0752523 1.9349442
-3.2238364 -3.079215 1.9423982
-3.2254107 -3.0846853 1.9435388
-3.2233779 -3.0837014 1.9439945
-3.216198 -3.0931845 1.9420933
-3.2040453 -3.0938478 1.9279542
-3.2113364 -3.1009264 1.935096
-3.2002945 -3.1016486 1.9306384
-3.2015014 -3.111295 1.9288187
-3.1876273 -3.1110804 1.9421831
-3.1893275 -3.1227765 1.9312444
-3.1766815 -3.1157873 1.940863
-3.0379896 -2.9982405 1.976192
-3.0369272 -2.9992251 1.9903464
-3.035403 -2.9973524 1.9795198
-3.0357742 -3.0076559 1.9925262
-3.0302784 -3.0095856 1.9829438
-3.0176351 -3.0048151 1.9771233
-3.0094433 -3.0255988 1.9861341
-3.0030653 -3.0168624 1.9798312
-3.0033171 -3.0341864 1.9862981
-2.9945018 -3.0232306 1.9842137
-2.9960618 -3.0365407 1.9876881
-2.9889538 -3.0329766 1.9744316
-2.9876854 -3.0520823 1.987296
-2.9772377 -3.0557592 1.9740992
-2.9737778 -3.0581462 1.983209
-2.9798944 -3.0521016 1.9813199
-2.9718258 -3.0620828 1.9828718
-2.9747405 -3.0699096 1.9773786
-2.9639523 -3.0622175 1.9787744
-2.9666915 -3.0699456 1.9753329
-2.9515092 -3.0834749 1.982782
-2.9528468 -3.0741429 1.9779904
-2.9474351 -3.0877955 1.978282
-2.9491532 -3.095259 1.9790798
-2.9440625 -3.0835271 1.981668
-2.9298561 -3.1021821 1.9744719
-2.9375329 -3.0970447 1.9814599
-2.9236524 -3.0991039 1.9847803
-2.9152594 -3.1146626 1.9799459
-2.9054646 -3.1172543 1.9915309
-2.9191058 -3.1089628 1.9737278
-2.905292 -3.1263139 1.9893919
-2.8962643 -3.1225643 1.9755327
-2.9069393 -3.1248493 1.9783331
-2.8968108 -3.1263659 1.9769826
-2.8840885 -3.1380043 1.981088
-2.8785565 -3.1416533 1.9744359
-2.8860312 -3.1357613 1.9898235
-2.8701794 -3.1458213 1.9737452
-2.8791566 -3.1504378 1.9791622
-2.8765433 -3.1530519 1.9769514
-2.8717272 -3.1662147 1.981464
-2.8512416 -3.1747177 1.9737948
-2.8446097 -3.1782694 1.9879029
-2.8551717 -3.1760719 1.9845508
-2.8470786 -3.1855371 1.9736106
-2.8348746 -3.1738608 1.9830654
-2.8293171 -3.1940553 1.9824501
-2.8283665 -3.1828003 1.9758064
-2.8234887 -3.1849298 1.9885719
-2.8131883 -3.188859 1.9827425
-2.825093 -3.1923909 1.9877639
-2.81248 -3.1998615 1.9882891
-2.8075304 -3.2051301 1.9892635
-2.8084671 -3.2053959 1.9764301
-2.7927506 -3.2220099 1.9781201
-2.7879689 -3.2108665 1.9754685
-2.7937267 -3.2186174 1.9765984
-2.7800946 -3.2298756 1.9929532
-2.7731006 -3.2407188 1.9911422
-2.7733357 -3.2457306 1.9893591
-2.7793946 -3.2471213 1.9879953
-2.760427 -3.2403786 1.9831057
-2.7609286 -3.2531717 1.9768862
-2.7604504 -3.2513924 1.9743329
-2.7528002 -3.2583926 1.9790918
-2.7434547 -3.2651126 1.9789138
-2.7367551 -3.2620976 1.9748982
-2.7489207 -3.269963 1.9835317
-2.7447257 -3.2753525 1.9852225
-2.7223368 -3.2655005 1.985796
-2.7217252 -3.2862365 1.9888669
-2.7224724 -3.2925389 1.9825623
-2.7081037 -3.2838826 1.98734
-2.7199492 -3.2992933 1.9777663
-2.7143428 -3.2916043 1.9850551
-2.7039723 -3.2991254 1.9894803
-2.6937742 -3.3045087 1.9807703
-2.6875865 -3.3066239 1.9880387
-2.6927602 -3.3091161 1.9737548
-2.6762376 -3.3137965 1.9931536
-2.6791365 -3.3224483 1.975641
-2.6789591 -3.3164351 1.975644
-2.665081 -3.3206465 1.9881147
-2.6664202 -3.3213022 1.9889801
-2.6573277 -3.3409553 1.9813333
-2.6609411 -3.3348467 1.9899575
-2.6601243 -3.3431549 1.9769843
-2.6480122 -3.349895 1.9856755
-2.6486266 -3.3464339 1.9756472
-2.6435196 -3.3510804 1.984705
-2.6390088 -3.3632612 1.9888711
-2.6320055 -3.3599055 1.9828038
-2.6249938 -3.3673177 1.9762721
-2.6255064 -3.3607202 1.9928254
-2.6051486 -3.3696866 1.9734595
-2.6124322 -3.3669283 1.9839295
-2.6110868 -3.3680198 1.9898125
-2.6027093 -3.3816712 1.9926697
-2.6056356 -3.380614 1.9826962
-2.5985851 -3.3791325 1.9917774
-2.5824716 -3.3978274 1.9923725
-2.5821872 -3.3942115 1.9800117
-2.5679648 -3.3882821 1.9839203
-2.5802691 -3.407568 1.9781015
-2.576015 -3.4112039 1.9869848
-2.5711219 -3.4068367 1.9822885
-2.5557537 -3.4058425 1.9801561
-2.5544975 -3.4211941 1.9880209
-2.5503793 -3.4242003 1.980585
-2.5362294 -3.4248896 1.9782662
-2.5329933 -3.4342039 1.9808815
-2.5291574 -3.4279771 1.9907347
-2.537677 -3.4322767 1.9901333
-2.5222833 -3.4336345 1.9738548
-2.5127032 -3.4354968 1.9775428
-2.514235 -3.4372299 1.9891936
-2.5004582 -3.4483633 1.9854276
-2.5088091 -3.4430144 1.9898925
-2.50929 -3.4583259 1.9749267
-2.4972022 -3.4642713 1.9828408
-2.4874279 -3.4517694 1.9850029
-2.4950337 -3.4602251 1.9769473
-2.4727814 -3.4619989 1.9881409
-2.4711256 -3.4731827 1.9815191
-2.4657435 -3.4795949 1.9765704
-2.4566686 -3.4723523 1.9734175
-2.4559381 -3.4761512 1.982653
-2.4589686 -3.493124 1.9807527
-2.4575295 -3.4954062 1.9870493
-2.4510515 -3.4904332 1.9909024
-2.4366546 -3.500524 1.9907526
-2.4400907 -3.5030632 1.9856352
-2.4315774 -3.508198 1.9822253
-2.4318662 -3.4965293 1.9911065
-2.4187717 -3.5043359 1.9770433
-2.4106212 -3.5079296 1.9736838
-2.4056189 -3.5156596 1.9899797
-2.4113765 -3.5112922 1.9927503
-2.3990297 -3.5303621 1.9766794
-2.4003813 -3.5278354 1.9890155
-2.3978753 -3.5357978 1.9746877
-2.3955145 -3.5320871 1.9812406
-2.3782663 -3.5447593 1.9860724
-2.3844235 -3.5426202 1.9859793
-2.3816948 -3.5522919 1.9814793
-2.3730245 -3.5387232 1.9767784
-2.3677092 -3.5450668 1.9877332
-2.3660934 -3.5620875 1.9864347
-2.3617022 -3.5516853 1.9894383
-2.3533773 -3.5675635 1.9783338
-2.3527119 -3.5658693 1.9826255
-2.3463697 -3.5667524 1.9739792
-2.3334699 -3.57533 1.9760054
-2.3357337 -3.5750122 1.9835082
-2.3180861 -3.5769176 1.98467
-2.324934 -3.5751097 1.9827244
-2.3164783 -3.572948 1.9777519
-2.3170631 -3.5941362 1.9790688
-2.2989421 -3.5959039 1.9740907
-2.2978129 -3.594322 1.9765304
-2.2877836 -3.5970542 1.9839536
-2.2934582 -3.5984287 1.9737757
-2.2877746 -3.6118925 1.9782954
-2.2800603 -3.6126134 1.9864011
-2.2648387 -3.6006849 1.9758624
-2.2684507 -3.6206069 1.9903857
-2.2540042 -3.6170802 1.9903181
-2.2645257 -3.6191502 1.9923025
-2.253726 -3.6281152 1.9757524
-2.2478998 -3.6209714 1.9840102
-2.2396293 -3.6288238 1.9927549
-2.2439315 -3.6273804 1.9833372
-2.2384071 -3.6252875 1.9836608
-2.2283585 -3.6405189 1.9864616
-2.2302001 -3.6455717 1.9843819
-2.2225761 -3.6392841 1.9855641
-2.2204242 -3.6436019 1.9734498
-2.1983356 -3.6434975 1.9824355
-2.1942585 -3.6576543 1.9856188
-2.1867273 -3.6510499 1.9791013
-2.1909337 -3.6612444 1.98788
-2.1863911 -3.6608152 1.9812437
-2.171262 -3.65994 1.9798347
-2.1758051 -3.674099 1.9863214
-2.1775429 -3.6751864 1.9908756
-2.1613562 -3.6737411 1.9848303
-2.1639831 -3.67524 1.9775732
-2.1587203 -3.6797502 1.9735191
-2.1444674 -3.6852877 1.9784001
-2.147027 -3.6884024 1.9929701
-2.1360998 -3.6808367 1.9804226
-2.1363897 -3.6938455 1.9913746
-2.123312 -3.6968467 1.9862649
-2.131639 -3.6895168 1.9900523
