# .PCD v0.7 - Point Cloud Data file format
VERSION 0.7
FIELDS x y z
SIZE 4 4 4
TYPE F F F
COUNT 1 1 1
WIDTH 1493
HEIGHT 1
VIEWPOINT 0 0 0 1 0 0 0
POINTS 1493
DATA ascii
-1.2724366 -3.049464 1.6128526
-1.2691743 -3.0445559 1.6265768
-1.2598726 -3.0498033 1.6236279
-1.2645696 -3.0638545 1.6177341
-1.2642274 -3.0496209 1.6215264
-1.2509965 -3.0542052 1.6280074
-1.242116 -3.0541878 1.6147523
-1.2524711 -3.0595028 1.6238638
-1.2522274 -3.0617504 1.6215725
-1.2392135 -3.0724061 1.6194069
-1.2263703 -3.0592537 1.6112885
-1.2396322 -3.0671086 1.6298723
-1.2191676 -3.0699339 1.6249974
-1.2216495 -3.0817308 1.6278538
-1.2100228 -3.0774627 1.6267201
-1.2146013 -3.0842428 1.6227727
-1.2126964 -3.0864246 1.6206073
-1.2040443 -3.0832458 1.6148851
-1.2062784 -3.0841103 1.628668
-1.1908014 -3.0762501 1.6135418
-1.1974876 -3.0798385 1.6133085
-1.1922898 -3.0809832 1.6269548
-1.188506 -3.0859597 1.6195043
-1.1695946 -3.097717 1.6219795
-1.1678247 -3.1021492 1.6104395
-1.1671861 -3.0954635 1.6138297
-1.1704926 -3.0911791 1.6167426
-1.1559622 -3.1025515 1.6245328
-1.1471517 -3.1004684 1.613151
-1.1445562 -3.1072218 1.6113156
-1.1570843 -3.1049769 1.6275722
-1.1498437 -3.1018522 1.6243585
-1.1489544 -3.0992639 1.6178367
-1.1355133 -3.1020868 1.6212196
-1.1395949 -3.1074648 1.6218268
-1.1352143 -3.1165314 1.6107696
-1.1274413 -3.1132338 1.625641
-1.1167531 -3.1197379 1.6107782
-1.1182725 -3.1217654 1.6196303
-1.1111717 -3.1255336 1.6233552
-1.1059041 -3.1261687 1.6109447
-1.1043776 -3.123904 1.6232728
-1.0860627 -3.1250932 1.6197969
-1.0942674 -3.1171865 1.6150997
-1.079087 -3.1177092 1.6266201
-1.0832974 -3.1182008 1.6106634
-1.0785626 -3.1352715 1.6195878
-1.0789546 -3.1260085 1.6235853
-1.0742071 -3.1226211 1.6271267
-1.0606053 -3.1364913 1.6284649
-1.0632766 -3.1294549 1.6107271
-1.0583564 -3.1252549 1.6168069
-1.0611061 -3.127105 1.6232445
-1.0473294 -3.1415272 1.6191294
-1.0382481 -3.1451383 1.6160264
-1.0376441 -3.1373312 1.61396
-1.0329949 -3.1491632 1.6163455
-1.0394192 -3.1457629 1.6295104
-1.021844 -3.1419928 1.6275729
-1.0207254 -3.1490011 1.6132691
-1.0182666 -3.1430628 1.6274997
-1.0135436 -3.1565886 1.6274221
-1.0027387 -3.1572502 1.6269801
-1.0054944 -3.1485233 1.6135955
-0.9923631 -3.1551056 1.6180731
-1.0023329 -3.1454763 1.611825
-0.994367 -3.1555922 1.615206
-0.98401374 -3.1565289 1.6234424
-0.98049361 -3.164289 1.6168976
-0.97890913 -3.1553309 1.6247871
-0.97162652 -3.1683166 1.6200514
-0.97011137 -3.1609838 1.6232204
-0.96867186 -3.1672528 1.6271521
-0.96767253 -3.160686 1.6212286
-0.90645993 -2.9888544 1.7073339
-0.89461029 -2.9878743 1.707275
-0.88900703 -3.0033431 1.6984998
-0.88002098 -2.9928753 1.6901811
-0.88279682 -3.0033059 1.6954896
-0.87211573 -2.9965727 1.6911372
-0.87354338 -3.0069795 1.6951739
-0.87970495 -3.0002952 1.687912
-0.86269581 -2.996598 1.6957436
-0.86175334 -2.9963295 1.6914983
-0.86673266 -3.0128746 1.7038907
-0.86280411 -3.0017555 1.6985325
-0.85893279 -3.0092201 1.6989689
-0.843835 -3.0118878 1.6911306
-0.83705419 -3.0015218 1.6941133
-0.84496319 -3.0046675 1.7050749
-0.83722299 -3.0134346 1.7068698
-0.82544452 -3.0125597 1.6965829
-0.82092631 -3.0188727 1.6912215
-0.8285749 -3.0084429 1.7073507
-0.82046711 -3.0071933 1.6881515
-0.8199653 -3.0262179 1.701282
-0.80482006 -3.0255756 1.6881524
-0.80923682 -3.0140414 1.693554
-0.80149031 -3.0199344 1.6905144
-0.79075956 -3.0179455 1.7055163
-0.78906566 -3.0124278 1.6929321
-0.78557521 -3.0193441 1.7023984
-0.79237014 -3.0259564 1.7067208
-0.78452492 -3.0244334 1.7026367
-0.78054887 -3.0190201 1.7009597
-0.7757706 -3.0373242 1.7014098
-0.7578603 -3.024704 1.7036481
-0.7530781 -3.0207226 1.6985602
-0.76289272 -3.0332189 1.6887136
-0.75574547 -3.0392101 1.7019837
-0.75359482 -3.0277343 1.7018939
-0.74402684 -3.0369966 1.6960042
-0.74499106 -3.0372841 1.7046121
-0.74163145 -3.0339584 1.6958477
-0.72235459 -3.0308897 1.6935951
-0.72475326 -3.0472777 1.6941308
-0.72670037 -3.0299916 1.6883737
-0.72640783 -3.0321612 1.6876785
-0.71120161 -3.0483849 1.6955618
-0.70584071 -3.0417023 1.6985229
-0.70720822 -3.037111 1.6940229
-0.70866412 -3.0471957 1.7013174
-0.69600844 -3.04249 1.6893755
-0.69474339 -3.0386715 1.7018046
-0.68224132 -3.0398242 1.6983415
-0.69199061 -3.0476253 1.6995238
-0.68120283 -3.0416245 1.6990194
-0.67617083 -3.0595837 1.6973668
-0.67183274 -3.0465906 1.700506
-0.65960997 -3.0524919 1.6913375
-0.66442466 -3.0440176 1.6877637
-0.65373808 -3.0612571 1.6951027
-0.6557557 -3.0501008 1.6881391
-0.64971393 -3.0619402 1.7059797
-0.65124172 -3.0655396 1.7036474
-0.63623136 -3.0631523 1.6944877
-0.64003748 -3.0542419 1.6922966
-0.62434667 -3.0645659 1.6931082
-0.6303072 -3.0548196 1.6878686
-0.63312733 -3.0571196 1.6976776
-0.62511474 -3.0685043 1.6969049
-0.62067473 -3.0534744 1.6998307
-0.60889453 -3.0647349 1.6948447
-0.60407668 -3.0742278 1.6989455
-0.60141701 -3.0695243 1.7003666
-0.60108846 -3.0740869 1.7050894
-0.58991838 -3.0667338 1.6996305
-0.6009382 -3.0679693 1.7047496
-0.59114534 -3.0594459 1.7005112
-0.58659089 -3.0780244 1.6948631
-0.57222623 -3.0728734 1.6987141
-0.57863313 -3.0675666 1.6984735
-0.56211323 -3.0747652 1.6878444
-0.57057804 -3.0814328 1.6885885
-0.55494106 -3.0697286 1.6948965
-0.55788165 -3.0819848 1.6974959
-0.55609846 -3.0673614 1.6882966
-0.53977311 -3.0680494 1.698704
-0.53832752 -3.0832369 1.6984711
-0.54111922 -3.0781641 1.7004896
-0.529558 -3.0830214 1.6884835
-0.53414464 -3.0785818 1.7026021
-0.51897091 -3.0819197 1.6903344
-0.51442528 -3.0780206 1.6922053
-0.50913441 -3.0827842 1.7065805
-0.51753461 -3.0747888 1.6894935
-0.50333434 -3.0893121 1.6878182
-0.49833238 -3.0918128 1.706237
-0.502922 -3.077172 1.6902441
-0.48774359 -3.0896277 1.7000942
-0.49054554 -3.0948281 1.7058511
-0.48535269 -3.0889225 1.6968055
-0.4860402 -3.0921514 1.7051741
-0.47899452 -3.0951436 1.6981877
-0.47007704 -3.0971553 1.7071779
-0.46678331 -3.0918787 1.704897
-0.46057564 -3.0967138 1.6888208
-0.45604247 -3.0808604 1.6909658
-0.45308957 -3.0939109 1.6884675
-0.44612858 -3.0960982 1.6942234
-0.44931653 -3.0854039 1.6954824
-0.44674677 -3.0938339 1.7033447
-0.43322173 -3.0872698 1.68867
-0.43132716 -3.0979791 1.6916887
-0.43641812 -3.1040909 1.6933751
-0.43251812 -3.0912304 1.701012
-0.43089807 -3.0964839 1.7044811
-0.42535335 -3.1015275 1.7044653
-0.41766286 -3.0879419 1.6920543
-0.4124698 -3.0917201 1.6981053
-0.4015201 -3.1030118 1.6954941
-0.40931064 -3.0960605 1.70509
-0.38923797 -3.0999117 1.7018815
-0.38383919 -3.1061964 1.6885887
-0.395421 -3.1019015 1.6898034
-0.38531557 -3.0980365 1.7044916
-0.3875725 -3.0968826 1.6945331
-0.3663595 -3.0945156 1.7001323
-0.36516172 -3.1087906 1.699912
-0.35637414 -3.102206 1.6965022
-0.3615348 -3.1090059 1.7023834
-0.34930602 -3.1079314 1.6957928
-0.34748048 -3.11112 1.7059216
-0.34886283 -3.1132467 1.6903304
-0.34353712 -3.1112924 1.6995926
-0.33699626 -3.1035709 1.6932722
-0.33576643 -3.1024454 1.6886523
-0.32449433 -3.1044464 1.7069398
-0.32762244 -3.1095901 1.6914866
-0.33097029 -3.1102877 1.7031461
-0.31772718 -3.1004877 1.6885279
-0.3186022 -3.1028016 1.6955003
-0.30606729 -3.1076331 1.6997938
-0.30340284 -3.1181912 1.7024649
-0.29632911 -3.1077685 1.7075881
-0.2999925 -3.1151502 1.7009245
-0.2899757 -3.1056485 1.6958722
-0.28457814 -3.1092212 1.6892985
-0.28089252 -3.1202698 1.6980544
-0.2726596 -3.1190143 1.7065805
-0.27276653 -3.1088643 1.7053679
-0.26749113 -3.123939 1.7022969
-0.27524289 -3.1108286 1.6948432
-0.25870049 -3.1194048 1.6972746
-0.2594865 -3.1052582 1.6905658
-0.25514883 -3.119127 1.6969063
-0.25747421 -3.1073315 1.6931735
-0.24485138 -3.1144917 1.7062865
-0.23880179 -3.1223197 1.688764
-0.2439957 -3.1262691 1.6929035
-0.24066308 -3.1146803 1.7075936
-0.21854258 -3.1221714 1.7076033
-0.21949272 -3.1217701 1.7011118
-0.22789603 -3.1091831 1.7064265
-0.2138675 -3.1217387 1.7062639
-0.20654728 -3.1143143 1.6926025
-0.2128862 -3.1135733 1.6911007
-0.20295753 -3.124568 1.7027967
-0.1999153 -3.1138721 1.7070163
-0.19439532 -3.1127295 1.6876322
-0.18473536 -3.1126144 1.7001767
-0.18038505 -3.1147389 1.7055635
-0.17602454 -3.1221747 1.691679
-0.17815524 -3.1223752 1.6907029
-0.18555239 -3.2971053 1.6202872
-0.18227303 -3.3046956 1.6148043
-0.17265467 -3.3029871 1.6303653
-0.17434776 -3.4999518 1.5380293
-0.17427737 -3.4940116 1.5338794
-0.1792824 -3.6711807 1.4739577
-0.17411841 -3.6788001 1.4716288
-0.1651905 -3.850724 1.3902485
-0.17036077 -4.0426755 1.301699
-0.18063439 -4.0368299 1.3104085
-0.17188366 -4.0521641 1.3088385
-0.15634912 -4.0488405 1.319941
-0.14629726 -4.0405207 1.3130082
-0.14068407 -4.0487061 1.3135997
-0.15020725 -4.0417004 1.3203881
-0.14388005 -4.055285 1.3145232
-0.14027524 -4.0488434 1.3212949
-0.11899898 -4.0498309 1.3206826
-0.12190349 -4.0528612 1.3126757
-0.11615814 -4.0518184 1.3107719
-0.10170303 -4.0476789 1.3137839
-0.10881763 -4.053659 1.3203615
-0.10482955 -4.0552421 1.3154933
-0.087774031 -4.0568662 1.3026662
-0.090126857 -4.053669 1.3170626
-0.085691154 -4.0497999 1.3180851
-0.067120045 -4.0479822 1.3057518
-0.061777074 -4.0505438 1.3126254
-0.05704625 -4.041666 1.3166555
-0.060322214 -4.0527 1.3019071
-0.045501813 -4.054935 1.3114691
-0.04766934 -4.049942 1.3152139
-0.043259151 -4.0466185 1.317531
-0.043717004 -4.0518961 1.3183708
-0.037001938 -4.0451846 1.3025472
-0.015890321 -4.0396953 1.3107239
-0.01375619 -4.0412931 1.320842
-0.0039553149 -4.0432057 1.308514
-0.0072807632 -4.0460458 1.3051711
-0.0065760827 -4.0578208 1.3108943
-0.00061983668 -4.0404334 1.3144739
0.014898391 -4.0508728 1.3031304
0.01416145 -4.0425606 1.3151867
0.015741618 -4.0403652 1.3020332
0.018161625 -4.0571136 1.3156512
0.024757953 -4.0584097 1.3148108
0.039530914 -4.043231 1.3124171
0.044421986 -4.0439105 1.3081472
0.056984983 -4.0535746 1.3210654
0.046205014 -4.0481935 1.3022296
0.061148096 -4.0425158 1.3207935
0.059670676 -4.0469785 1.308923
0.066849664 -4.057838 1.3053615
0.086084895 -4.0527768 1.3039843
0.092166387 -4.0509548 1.3058394
0.091865756 -4.0481954 1.3063716
0.09072458 -4.0563226 1.3020477
0.10718963 -4.045218 1.3170017
0.099384539 -4.0472093 1.3022408
0.10449753 -4.0456395 1.3128024
0.11077446 -4.0547862 1.3089756
0.11561508 -4.0510688 1.3206114
0.12858497 -4.0458312 1.3213053
0.13799308 -4.0470166 1.3069706
0.14602374 -4.0477796 1.3143598
0.1359093 -4.0545015 1.3044021
0.1463268 -4.0480227 1.3062032
0.15242019 -4.0507369 1.3189874
0.15346728 -4.0469141 1.3096503
0.15975314 -4.0436358 1.3017451
0.17660032 -4.0397382 1.304548
0.16962038 -4.0366573 1.3109148
0.1942758 -4.0462637 1.3023578
0.19962487 -4.0521188 1.3124456
0.19063881 -4.0355997 1.3215935
0.20904158 -4.0348516 1.3038344
0.21748629 -4.0493417 1.3123611
0.20773183 -4.0433941 1.3179727
0.21076106 -4.0420556 1.3071982
0.22445279 -4.0400858 1.3194849
0.23023891 -4.0469241 1.3154447
0.23882751 -4.0463967 1.3142529
0.23378246 -4.0468683 1.3032142
0.24017996 -4.0476451 1.3060721
0.25666487 -4.0430608 1.3051929
0.26229718 -4.0457273 1.3047978
0.27016994 -4.0456023 1.3096403
0.26656884 -4.0408835 1.32015
0.26857877 -4.0387878 1.3117108
0.27981368 -4.0486522 1.3049453
0.28333488 -4.0383816 1.3110379
0.28281534 -4.0451732 1.3173461
0.30110332 -4.0426602 1.3028632
0.30835208 -4.0393996 1.3072765
0.31845826 -4.0453038 1.3159384
0.3076846 -4.0312243 1.3215905
0.31651521 -4.0349207 1.307017
0.33018771 -4.0278659 1.3168029
0.33436936 -4.0444493 1.3083174
0.33011118 -4.0354443 1.309593
0.33908686 -4.0285645 1.3207564
0.35415447 -4.0278502 1.3047377
0.35552964 -4.0344934 1.3108333
0.36242127 -4.0395327 1.3197833
0.37372547 -4.0401096 1.3024151
0.37369087 -4.0371046 1.318704
0.37930775 -4.0309114 1.3108666
0.39035031 -4.0366883 1.3096459
0.39117804 -4.0239253 1.3113962
0.4035196 -4.0210619 1.3016979
0.39713594 -4.034863 1.3184174
0.40191495 -4.039237 1.3153819
0.41067442 -4.0278745 1.3052258
0.42552888 -4.0352592 1.3095453
0.42933246 -4.0369778 1.3127943
0.43576702 -4.0243678 1.318548
0.43848971 -4.0317774 1.3099856
0.43337417 -4.0337806 1.3151296
0.44703698 -4.0205908 1.3125118
0.4424493 -4.0206943 1.3122251
0.44816238 -4.0328145 1.3175967
0.47059426 -4.0257888 1.3180462
0.46998969 -4.0156355 1.3093019
0.47922811 -4.0162592 1.3126088
0.47278509 -4.0187097 1.3136255
0.48959026 -4.0203552 1.3066722
0.49214807 -4.0249066 1.3117214
0.48614261 -4.0202022 1.3141721
0.5052802 -4.027462 1.309209
0.50179911 -4.0249357 1.3035315
0.51803035 -4.0223217 1.3051145
0.51963204 -4.0229006 1.3130964
0.52168238 -4.0097079 1.3105966
0.53498733 -4.0128994 1.3068305
0.53159827 -4.0081563 1.3199635
0.54922485 -4.012229 1.3107922
0.53989708 -4.0193634 1.316403
0.55561751 -4.0181231 1.3060443
0.55378759 -4.0033631 1.307744
0.56699347 -4.0177016 1.31128
0.57452083 -4.0014253 1.316732
0.58363003 -4.0091624 1.3208997
0.58072001 -4.0004635 1.3175466
0.59530914 -4.0040731 1.3102807
0.58613098 -4.0166845 1.3070289
0.59008461 -3.9972801 1.3189677
0.60486597 -4.012814 1.3030268
0.60525697 -3.9982364 1.3075738
0.61528808 -4.0110974 1.3061203
0.62701768 -3.9963591 1.3095598
0.62228203 -3.9996998 1.3084997
0.62299728 -3.9995363 1.3189182
0.62787896 -4.0078864 1.3172438
0.64940643 -4.0072503 1.31116
0.64366663 -4.0013943 1.3116577
0.65467381 -3.9971848 1.3107443
0.65761858 -4.0037932 1.3134739
0.66462117 -3.995609 1.30995
0.67616951 -4.0029907 1.3127264
0.66626304 -3.9842386 1.3093942
0.67979479 -3.9958169 1.3018669
0.69226509 -3.9922733 1.3136408
0.69515264 -3.9894404 1.3161944
0.6963644 -3.9906712 1.3185062
0.71149105 -3.9832313 1.3057885
0.70711404 -3.9903731 1.3163867
0.72182226 -3.9801574 1.3194749
0.71925873 -3.9885252 1.3098383
0.73316985 -3.9909291 1.311903
0.72985601 -3.9888234 1.3117949
0.74320859 -3.9787681 1.3191758
0.74903238 -3.9818234 1.30916
0.74662876 -3.9875708 1.3210288
0.7467773 -3.9776845 1.310711
0.74923617 -3.9782486 1.306869
0.75897586 -3.9687653 1.3149137
0.77931225 -3.9701481 1.3121948
0.78273547 -3.9796672 1.3201209
0.77652049 -3.9808464 1.3046479
0.79236871 -3.9709098 1.3102778
0.78810728 -3.9731894 1.3049526
0.79122537 -3.9752121 1.3155538
0.804326 -3.9652045 1.3193815
0.80929399 -3.9606128 1.3120613
0.8239426 -3.959125 1.3031355
0.81474763 -3.9734592 1.3026434
0.83359575 -3.973017 1.3197113
-3.1728573 -3.0832756 1.1805762
-3.1603136 -3.095154 1.192048
-3.1581447 -3.0980396 1.1926347
-3.1611562 -3.1107843 1.1867112
-3.1447918 -3.1046066 1.1963006
-3.156028 -3.1127317 1.1856019
-3.1398895 -3.1259816 1.1837
-2.998163 -2.9927039 1.2706277
-3.0066841 -2.9972069 1.2751217
-2.9910474 -3.0004599 1.2710477
-2.9857831 -2.9995434 1.2704737
-2.9806237 -3.0104122 1.2624552
-2.9839866 -3.0234478 1.2559792
-2.986757 -3.0238364 1.2611804
-2.9754453 -3.0322084 1.2569752
-2.9745381 -3.0361707 1.2690549
-2.964324 -3.0283546 1.2722884
-2.9560061 -3.0343237 1.2626301
-2.9566031 -3.0330038 1.2726774
-2.9527004 -3.0402429 1.2636744
-2.9528658 -3.0464194 1.2597847
-2.9535997 -3.0516441 1.2692171
-2.9423461 -3.064445 1.2697991
-2.9375629 -3.0642357 1.2741716
-2.9275727 -3.0569394 1.2743453
-2.921782 -3.0729666 1.2747241
-2.9239058 -3.0630164 1.2670805
-2.9227905 -3.0689907 1.2576234
-2.9113276 -3.0798101 1.2736357
-2.9098117 -3.0909808 1.2665524
-2.9172933 -3.0865767 1.2574304
-2.9086587 -3.087172 1.2672155
-2.8905861 -3.100785 1.2683253
-2.8919261 -3.0938921 1.2737644
-2.8888876 -3.1012917 1.2706134
-2.8856699 -3.1071889 1.2555429
-2.8820677 -3.1195042 1.2745245
-2.8861034 -3.1150041 1.2716275
-2.8795905 -3.1233466 1.262001
-2.8770599 -3.1344848 1.2652875
-2.7366142 -3.0009522 1.3329045
-2.730468 -2.9994028 1.3481492
-2.7345316 -3.0041091 1.3338463
-2.7174802 -2.9944899 1.3504962
-2.7149842 -3.0061719 1.3438001
-2.7156339 -3.0189819 1.3352541
-2.7113488 -3.0125408 1.3384341
-2.7080767 -3.0144925 1.3501496
-2.7076964 -3.0142939 1.3375517
-2.6969373 -3.0359325 1.3378388
-2.7028863 -3.0264919 1.3392061
-2.697062 -3.035094 1.3459594
-2.6959875 -3.0319538 1.3318368
-2.6892107 -3.0359612 1.3511584
-2.6857786 -3.0416772 1.3426168
-2.6690376 -3.052253 1.345078
-2.6808374 -3.0627592 1.3377874
-2.6694517 -3.0542138 1.3323464
-2.6663454 -3.0695138 1.3508993
-2.6558318 -3.058286 1.3316029
-2.645026 -3.0772438 1.3455305
-2.6528475 -3.0746188 1.3346336
-2.6539106 -3.0751665 1.3506486
-2.6490912 -3.0731895 1.3464218
-2.6449449 -3.0920382 1.3402386
-2.6293352 -3.0784082 1.3472332
-2.631259 -3.0808463 1.3474697
-2.6204684 -3.0961719 1.3399932
-2.6151135 -3.0926695 1.3409526
-2.6112006 -3.102937 1.3368696
-2.6065788 -3.1066875 1.3375527
-2.6080246 -3.1025536 1.3445785
-2.6003621 -3.1037822 1.3347687
-2.5966794 -3.1244955 1.3506415
-2.5972188 -3.1253719 1.3313656
-2.583936 -3.1149535 1.3494132
-2.5836537 -3.1307786 1.3487105
-2.5831299 -3.1401379 1.3363642
-2.5700772 -3.1284726 1.3511957
-2.5760603 -3.1372294 1.3394293
-2.5661213 -3.145705 1.3475758
-2.5554943 -3.1399715 1.3435136
-2.5578363 -3.1509261 1.3418744
-2.5499833 -3.1425538 1.3431671
-2.5462523 -3.1590812 1.3472224
-2.5417924 -3.166692 1.3453294
-2.5392797 -3.158391 1.3512383
-2.5374649 -3.1739419 1.3314086
-2.5279913 -3.1608212 1.3468591
-2.5236814 -3.1780694 1.3371614
-2.5311329 -3.1697698 1.3425906
-2.5104327 -3.1752388 1.3373495
-2.5137901 -3.1874511 1.344744
-2.5187817 -3.1962163 1.3440949
-2.5024755 -3.1856616 1.3504961
-2.5021093 -3.1950626 1.3328583
-2.5036311 -3.2063723 1.3470871
-2.4992392 -3.2002928 1.3493243
-2.4946721 -3.2091711 1.3482354
-2.4746494 -3.2181749 1.3334451
-2.4843199 -3.2190709 1.3504952
-2.4685562 -3.2237127 1.3456107
-2.4780288 -3.2161624 1.3320423
-2.4601018 -3.2180591 1.3332309
-2.4628193 -3.2281103 1.34849
-2.459131 -3.2222605 1.3378576
-2.4530754 -3.2424026 1.3394188
-2.4527862 -3.2426279 1.3505566
-2.4502549 -3.2427661 1.3363072
-2.428808 -3.2473667 1.3365384
-2.4421465 -3.2461274 1.3393519
-2.4384301 -3.2536187 1.3409957
-2.4195936 -3.2550821 1.3336555
-2.4143205 -3.2631228 1.347878
-2.4078541 -3.2583902 1.3355025
-2.4061241 -3.2544827 1.3324237
-2.4150217 -3.2690384 1.3326433
-2.4023533 -3.2678285 1.3360716
-2.3985424 -3.2686155 1.3427895
-2.3889763 -3.2724884 1.3483286
-2.3791745 -3.2742376 1.3385221
-2.3865542 -3.276813 1.344633
-2.3722856 -3.285099 1.3326831
-2.148603 -2.9926515 1.4877861
-2.1478617 -2.9980047 1.499314
-2.1394918 -2.9861898 1.4981326
-2.1541965 -3.0078392 1.4857725
-2.1486776 -3.0013916 1.4979931
-2.1397259 -2.9957097 1.4927911
-2.1240523 -3.0050421 1.4870738
-2.1228354 -3.0091584 1.5029587
-2.1314206 -3.0052443 1.499613
-2.1138909 -3.0116568 1.49132
-2.1083071 -3.0157354 1.4987942
-2.1193135 -3.023258 1.4839386
-2.0987878 -3.0265999 1.4839153
-2.0994396 -3.0288398 1.4852544
-2.0924473 -3.0297587 1.4960468
-2.09323 -3.0259275 1.4955212
-2.099211 -3.0306287 1.488657
-2.0909052 -3.0383232 1.5006649
-2.0867102 -3.0388174 1.4995691
-2.0858569 -3.0460005 1.4950372
-2.0732923 -3.0518222 1.4893972
-2.0732498 -3.0528772 1.4991992
-2.0680587 -3.0576377 1.4886178
-2.0628867 -3.0672846 1.4987491
-2.0563717 -3.0541785 1.4909086
-2.0590603 -3.0660985 1.48984
-2.0422704 -3.0682468 1.4870052
-2.0523407 -3.0663407 1.4994049
-2.0303991 -3.0644951 1.4942334
-2.0295494 -3.0660558 1.4847959
-2.0332274 -3.0793154 1.492448
-2.0225418 -3.0768003 1.5019501
-2.0220501 -3.0933661 1.4895911
-2.0121357 -3.0890355 1.4904784
-2.0120862 -3.0824699 1.4873592
-1.999873 -3.0828764 1.495201
-2.0087247 -3.0907812 1.48377
-2.000407 -3.0930481 1.4971144
-1.9996859 -3.0976691 1.4951676
-1.9841324 -3.1057403 1.4945176
-1.9780124 -3.1017938 1.4834589
-1.9842366 -3.111469 1.4977604
-1.9809546 -3.1049643 1.4983356
-1.9700278 -3.1128612 1.4860744
-1.9782099 -3.1250279 1.4832062
-1.9695073 -3.1293051 1.5027523
-1.9529589 -3.1267617 1.4972088
-1.9478379 -3.1202319 1.4922074
-1.9493686 -3.1373165 1.4853879
-1.9528421 -3.1231868 1.493294
-1.936962 -3.1272805 1.4879377
-1.9321369 -3.1419451 1.4956907
-1.9330063 -3.1376789 1.492727
-1.9332967 -3.1468406 1.4846392
-1.9258444 -3.1485429 1.487151
-1.9212568 -3.1459053 1.4881459
-1.8207923 -2.9930725 1.5702875
-1.8224152 -2.9973679 1.565858
-1.8090359 -2.9875679 1.5670861
-1.8024725 -3.00562 1.5651797
-1.8079995 -3.0121737 1.5619097
-1.7988794 -2.9982879 1.5666986
-1.8020025 -3.0096614 1.5784713
-1.7880859 -3.0057185 1.5637937
-1.7822537 -3.0187204 1.5701189
-1.7739061 -3.0115356 1.561781
-1.7845601 -3.0246179 1.5709556
-1.7689178 -3.0235107 1.5783875
-1.7777015 -3.0132153 1.5781658
-1.7652537 -3.0205514 1.5624329
-1.7547086 -3.0176129 1.5626811
-1.7474303 -3.0297561 1.5593439
-1.7553595 -3.0292277 1.5671566
-1.7515128 -3.0389917 1.5614294
-1.7423401 -3.0471358 1.5652115
-1.7468387 -3.0311484 1.578684
-1.7396719 -3.0500343 1.5615737
-1.723327 -3.0375006 1.5680643
-1.7195469 -3.037977 1.567338
-1.7159851 -3.0502353 1.5617573
-1.7281528 -3.0561819 1.5615911
-1.7200689 -3.059087 1.571752
-1.7153189 -3.0541613 1.5649049
-1.7027528 -3.0496325 1.5707521
-1.6959107 -3.060178 1.5709074
-1.705283 -3.0594728 1.5694964
-1.7011795 -3.0758543 1.5716399
-1.6941831 -3.0601482 1.5687513
-1.6806927 -3.0649226 1.5678148
-1.6879253 -3.070399 1.5770423
-1.6807353 -3.0723107 1.5627398
-1.6737082 -3.0704093 1.5679429
-1.676517 -3.088032 1.5604759
-1.6661695 -3.0773659 1.5599364
-1.6499716 -3.0841384 1.571244
-1.6536152 -3.0845675 1.5656435
-1.6586666 -3.0851805 1.5660422
-1.6415712 -3.0830877 1.5645216
-1.647361 -3.0917985 1.560595
-1.6340842 -3.0920396 1.5735546
-1.6315767 -3.089391 1.5669591
-1.6233685 -3.1040194 1.5646157
-1.6299541 -3.1057637 1.5669942
-1.6240034 -3.1014709 1.5623772
-1.618589 -3.1052942 1.5733203
-1.6018639 -3.1170778 1.5661607
-1.610736 -3.1182332 1.5607086
-1.5992064 -3.1066165 1.5596637
-1.5891943 -3.1251163 1.5722162
-1.6031055 -3.1146693 1.5668299
-1.5840541 -3.1260478 1.5663885
-1.5915949 -3.1335542 1.5736089
-1.5814762 -3.1319859 1.5613691
-1.5689758 -3.1288095 1.5756999
-1.5810894 -3.1245644 1.5684795
-1.5622568 -3.1279433 1.5717413
-1.5705807 -3.1445465 1.5761077
-1.5643537 -3.1339753 1.5743444
-1.5591685 -3.1377504 1.576329
-1.5414279 -3.1397984 1.571002
-1.5490702 -3.1471596 1.5765321
-1.5371511 -3.1464293 1.576785
-1.5380086 -3.1399512 1.5608295
-1.5311029 -3.1453469 1.5702676
-1.5298634 -3.147233 1.5661615
-1.5158411 -3.1546667 1.5608815
-1.518554 -3.1548076 1.5611972
-1.4366822 -2.9863372 1.6501253
-1.4370191 -3.0037296 1.6416159
-1.4353687 -2.9877741 1.653239
-1.4190423 -3.0038567 1.6396751
-1.4171832 -2.992419 1.6490095
-1.4150683 -3.0062406 1.6469837
-1.4089061 -2.9975615 1.6417181
-1.4133033 -3.0120502 1.6367159
-1.4018035 -3.0169277 1.6464235
-1.395581 -3.0089319 1.6381272
-1.3890402 -3.0036964 1.653662
-1.3894174 -3.0229847 1.6538174
-1.3783011 -3.024812 1.6519355
-1.3755591 -3.0145054 1.6359721
-1.3663782 -3.0265348 1.6534419
-1.3678603 -3.0206473 1.6390798
-1.3713654 -3.0327985 1.6353806
-1.3601334 -3.0335503 1.6391705
-1.3539009 -3.0270085 1.6400548
-1.3579583 -3.0384531 1.6509011
-1.3503091 -3.0275688 1.6489431
-1.3471226 -3.0412762 1.6496511
-1.343778 -3.0280845 1.6504802
-1.3423128 -3.0363705 1.6435584
-1.3368083 -3.0396984 1.6465437
-1.3338313 -3.0487335 1.6373473
-1.3252139 -3.0455017 1.6379246
-1.3202929 -3.0352685 1.6396691
-1.3115796 -3.0430362 1.6498682
-1.3019793 -3.0390973 1.6505296
-1.3015301 -3.0517478 1.6439766
-1.3030366 -3.0454533 1.6456113
-1.3038323 -3.0600579 1.6423271
-1.3037965 -3.0574441 1.6526401
-1.2906799 -3.0535748 1.6415029
-1.2945755 -3.0509801 1.6432018
-1.2876648 -3.0640228 1.6499982
-1.2801744 -3.0564013 1.6488872
-1.2709371 -3.064326 1.641862
-1.2714981 -3.0669127 1.6406236
-1.2713951 -3.0733149 1.648576
-1.2578428 -3.0654907 1.6446589
-1.2626532 -3.0627325 1.6479669
-1.2507454 -3.0642107 1.6357126
-1.248522 -3.0768471 1.6491454
-1.2374336 -3.0776567 1.6469845
-1.2446436 -3.0758355 1.6535869
-1.2250549 -3.0708065 1.6496106
-1.2265748 -3.0808253 1.6395035
-1.2351173 -3.0756924 1.6485976
-1.2248961 -3.0947466 1.6530714
-1.2067199 -3.0845411 1.647145
-1.2124584 -3.0834408 1.6457469
-1.2148864 -3.0947301 1.6446346
-1.2095666 -3.0880961 1.6526436
-1.1908115 -3.0946758 1.6415948
-1.1942151 -3.0927703 1.6541129
-1.1910138 -3.0955834 1.6533998
-1.1917864 -3.1042259 1.6444019
-1.1826639 -3.1057231 1.6422645
-1.1844448 -3.1013134 1.6427945
-1.1817498 -3.1030443 1.6352459
-1.1649787 -3.1148329 1.6505071
-1.1696035 -3.1133711 1.6361825
-1.1553383 -3.1109135 1.6501898
-1.1530619 -3.1140273 1.6393086
-1.1418319 -3.1048732 1.6520184
-1.1380816 -3.1168487 1.6435946
-1.1350421 -3.1139305 1.6482017
-1.1409982 -3.1262252 1.652979
-1.1290897 -3.124639 1.6438272
-1.1366488 -3.1246979 1.6545997
-1.1317543 -3.1123285 1.6352327
-1.1115963 -3.1289287 1.6389704
-1.1257608 -3.1156111 1.6468027
-1.1059159 -3.1243663 1.6531521
-1.1169498 -3.1262436 1.6502805
-1.0952718 -3.1287243 1.6370518
-1.1020154 -3.1325219 1.6483541
-1.1041497 -3.1266344 1.6489681
-1.0815047 -3.1331987 1.6527687
-1.0880092 -3.1316853 1.6381048
-1.0837393 -3.1296427 1.6373985
-1.0788341 -3.1318095 1.641674
-1.0701891 -3.1325104 1.6408433
-1.0737097 -3.137738 1.6528271
-1.0708787 -3.1383736 1.6444975
-1.0509174 -3.1417074 1.6352448
-1.0641826 -3.1561632 1.643746
-1.0461435 -3.1571338 1.6396803
-1.0474883 -3.1398418 1.6505893
-1.0450304 -3.1534393 1.6445451
-1.0372343 -3.1471536 1.6420704
-1.0301425 -3.160352 1.6389499
-1.0187733 -3.1492965 1.6366433
-1.0282327 -3.1661549 1.6506176
-1.0257062 -3.1645775 1.6454587
-1.0115073 -3.1674364 1.6384623
-1.0065591 -3.1679602 1.6385005
-1.0131078 -3.1548462 1.639052
-1.0037202 -3.1674809 1.6383734
-1.0034214 -3.1620634 1.645569
-0.98916519 -3.1732574 1.6405157
-0.94189507 -2.9852245 1.7195722
-0.93347657 -2.986702 1.7152888
-0.92736292 -3.002053 1.7155941
-0.92727309 -2.9992938 1.7189175
-0.91234028 -2.9867539 1.7208167
-0.90440208 -2.9936862 1.7236208
-0.91642392 -2.9915893 1.720961
-0.90789241 -3.004529 1.7270827
-0.90003771 -3.0015962 1.7200321
-0.90498573 -3.0088353 1.723191
-0.89498526 -3.0087206 1.7192354
-0.8817752 -3.0043733 1.7151163
-0.89284682 -2.9980993 1.7169544
-0.88361144 -3.0159247 1.7228539
-0.87105083 -3.0030084 1.72259
-0.87658936 -3.0063465 1.7166843
-0.85932207 -3.0059011 1.7141604
-0.86471289 -3.0211203 1.7199758
-0.86398023 -3.0126832 1.729997
-0.85029656 -3.0133936 1.7140465
-0.85345221 -3.0083055 1.7194717
-0.84056193 -3.0142107 1.7304999
-0.83178902 -3.0153925 1.7290515
-0.84117639 -3.0115459 1.7110213
-0.82466257 -3.0193474 1.7271454
-0.82841104 -3.0168977 1.7211633
-0.8180635 -3.0213926 1.7168525
-0.81023824 -3.0154922 1.7185427
-0.81659597 -3.0330746 1.7298844
-0.81293088 -3.0211904 1.7217238
-0.80521476 -3.0366807 1.7198539
-0.81207186 -3.0235012 1.7132753
-0.80789918 -3.0257709 1.7267056
-0.7851733 -3.021652 1.7251672
-0.78047597 -3.0252445 1.7170061
-0.77965307 -3.0368125 1.7124678
-0.78481078 -3.0422621 1.7246015
-0.77427763 -3.0441165 1.7237967
-0.7820527 -3.0365605 1.7265648
-0.77848464 -3.0295732 1.7223662
-0.76307559 -3.0391049 1.7238208
-0.76953501 -3.0397303 1.7195922
-0.76257139 -3.0404215 1.7142254
-0.74217618 -3.0426266 1.7141032
-0.74331784 -3.0443761 1.7115082
-0.75261903 -3.0495458 1.7184587
-0.7464571 -3.0441175 1.7210675
-0.72816002 -3.0524023 1.7229239
-0.73066628 -3.0527098 1.7134318
-0.73040307 -3.0536985 1.7120173
-0.71433687 -3.0435288 1.722155
-0.71681476 -3.0440707 1.7127453
-0.7035197 -3.0419028 1.7237166
-0.71559012 -3.0435948 1.7135489
-0.70778126 -3.0506852 1.7226919
-0.70256609 -3.0513349 1.7277198
-0.69039911 -3.0500822 1.7192241
-0.69562185 -3.0547936 1.7234861
-0.67898697 -3.0662739 1.7284768
-0.69184262 -3.0617547 1.7135094
-0.68611151 -3.0654349 1.7297362
-0.67024136 -3.0558598 1.7264396
-0.66377956 -3.0572577 1.7263234
-0.66634518 -3.0549958 1.7255219
-0.65907717 -3.0691962 1.7186307
-0.66266483 -3.0624537 1.7120843
-0.66122329 -3.0678182 1.7277793
-0.64827615 -3.0626805 1.7197454
-0.65106583 -3.0651846 1.7212082
-0.64886343 -3.0648222 1.7281607
-0.64162719 -3.0630078 1.7123979
-0.63816291 -3.0696042 1.727169
-0.61799401 -3.0740204 1.7214949
-0.61793995 -3.0652857 1.7190294
-0.6186862 -3.0735676 1.7233045
-0.60632253 -3.0697229 1.7152568
-0.60050392 -3.0687239 1.7227736
-0.59898919 -3.0790663 1.7163507
-0.60550708 -3.0764883 1.7283406
-0.59056103 -3.0759985 1.7216039
-0.58866119 -3.0725651 1.7175862
-0.58252305 -3.0699608 1.7278711
-0.58161259 -3.0714827 1.7146324
-0.58637506 -3.0772464 1.7110152
-0.5736019 -3.0880537 1.719997
-0.57655245 -3.0907958 1.7136984
-0.56754965 -3.0920188 1.7292675
-0.57102895 -3.0760283 1.7153568
-0.56093007 -3.0908577 1.7248813
-0.55884004 -3.0750444 1.7157459
-0.5434857 -3.081636 1.7108889
-0.55214798 -3.0863948 1.7294747
-0.55052429 -3.0945501 1.7273715
-0.54213822 -3.0917759 1.7203312
-0.53736824 -3.0805376 1.7233043
-0.5236153 -3.0965602 1.72435
-0.51616001 -3.0878913 1.724981
-0.51313472 -3.0870144 1.7224051
-0.52401894 -3.1003523 1.7257963
-0.50537771 -3.0959148 1.7257913
-0.51587081 -3.1004388 1.7199794
-0.51121998 -3.0979421 1.7301869
-0.48798239 -3.0981398 1.7130117
-0.48684698 -3.0942707 1.719377
-0.49275085 -3.0899515 1.7177409
-0.47568062 -3.0962007 1.7208364
-0.4775638 -3.0993168 1.713349
-0.47881499 -3.1037309 1.7274806
-0.46264109 -3.1033537 1.7290106
-0.46307504 -3.1086607 1.7157081
-0.46351305 -3.1087871 1.7186056
-0.44976208 -3.1085899 1.7247179
-0.4458026 -3.1094837 1.7113444
-0.45901749 -3.0935714 1.722546
-0.44586617 -3.1078932 1.7187666
-0.4343501 -3.1094763 1.7294319
-0.43973765 -3.0972748 1.7176687
-0.43261173 -3.1106577 1.7221729
-0.4313533 -3.1122007 1.72773
-0.42856401 -3.0985131 1.7286497
-0.41907635 -3.1095994 1.7301066
-0.40669033 -3.1112716 1.712418
-0.40819129 -3.1133225 1.7144871
-0.40306497 -3.112927 1.7131137
-0.40673617 -3.1037197 1.7180576
-0.39418593 -3.107337 1.7220517
-0.39096966 -3.1006832 1.7188745
-0.37951586 -3.1112459 1.7229352
-0.38355702 -3.1048934 1.7260679
-0.38204029 -3.1200955 1.7234972
-0.37960303 -3.1101551 1.7304428
-0.37570813 -3.112174 1.7163129
-0.36950114 -3.1200409 1.7207229
-0.36122438 -3.1071284 1.7261131
-0.35432029 -3.1222355 1.7212889
-0.36247152 -3.1091413 1.7134199
-0.34662795 -3.1171806 1.7127709
-0.35396096 -3.1181166 1.7221195
-0.33723241 -3.1074452 1.7183747
-0.3373706 -3.1196091 1.7199758
-0.34007886 -3.1136887 1.7120595
-0.33584076 -3.108227 1.7226599
-0.32573193 -3.1209126 1.7259237
-0.31121242 -3.1096766 1.7226233
-0.31130213 -3.1158924 1.7247336
-0.31621531 -3.1146159 1.7204497
-0.30899692 -3.1218529 1.7286319
-0.30242687 -3.1207809 1.7163774
-0.30650771 -3.1273394 1.7152876
-0.29433265 -3.1183951 1.7225209
-0.28055587 -3.116519 1.716156
-0.27469483 -3.1147654 1.7157276
-0.27823275 -3.1272645 1.7230825
-0.27850646 -3.129606 1.7221363
-0.26207989 -3.1163998 1.715431
-0.2635425 -3.1324701 1.7304528
-0.26928851 -3.1256859 1.7186819
-0.26685181 -3.1166959 1.7284213
-0.2566691 -3.116152 1.7120348
-0.24757566 -3.1277988 1.7250187
-0.2512483 -3.1300352 1.7202989
-0.24128549 -3.1307771 1.7177464
-0.23175053 -3.1194246 1.7231027
-0.23486018 -3.1327138 1.7265192
-0.21891566 -3.1339447 1.7235377
-0.22967596 -3.1210077 1.7248755
-0.22541401 -3.1181862 1.7133808
-0.21292247 -3.1372981 1.7112534
-0.21069106 -3.1305981 1.730041
-0.20484571 -3.1191757 1.7175472
-0.20601597 -3.1357977 1.7231759
-0.19190575 -3.1268294 1.7284155
-0.20034763 -3.1326985 1.7253544
-0.18343277 -3.1260505 1.7293448
-0.18310095 -3.1278317 1.7124387
-0.18575032 -3.1247473 1.7287982
-0.16706161 -3.1217756 1.7283013
-0.17986712 -3.1306872 1.7290088
-0.18515539 -3.3065124 1.6408776
-0.18104199 -3.3161128 1.6403214
-0.17926185 -3.496057 1.5675923
-0.18175487 -3.5014834 1.559972
-0.16833156 -3.6845524 1.4909195
-0.16838732 -3.6902719 1.4846431
-0.17325974 -3.864886 1.4210101
-0.17452177 -4.0665507 1.3407288
-0.17061657 -4.0490541 1.3395292
-0.16720779 -4.0487404 1.3496728
-0.16309123 -4.0477362 1.3490095
-0.15125675 -4.067255 1.3390028
-0.13997814 -4.0597901 1.3341
-0.14557967 -4.0597129 1.3440282
-0.13880108 -4.0617833 1.3359628
-0.12522605 -4.0490632 1.3424345
-0.11792714 -4.0575619 1.3393914
-0.11841219 -4.0641851 1.3397996
-0.12332956 -4.0525742 1.3379632
-0.10944637 -4.0632253 1.3366916
-0.1054193 -4.0554309 1.3366665
-0.10205521 -4.0614738 1.3373576
-0.088697612 -4.0619102 1.3457407
-0.080242701 -4.0536203 1.33442
-0.081859276 -4.0642247 1.3412397
-0.071541242 -4.0669265 1.3409826
-0.07475128 -4.0680027 1.3324223
-0.061004262 -4.0552378 1.3374257
-0.066848814 -4.0530634 1.3342197
-0.054529618 -4.0626798 1.3405341
-0.043481994 -4.0539436 1.3348061
-0.032459334 -4.0675173 1.3431908
-0.040745426 -4.0534086 1.3512866
-0.020648412 -4.056519 1.3478121
-0.031871989 -4.0669217 1.3338649
-0.016275838 -4.052681 1.3373398
-0.020936685 -4.0673261 1.339854
-0.014157883 -4.0538993 1.3352416
-0.0023755624 -4.0519929 1.3329033
0.0062007792 -4.0634427 1.3410405
0.0010915071 -4.069521 1.3379982
0.010254295 -4.0702529 1.3414582
0.027801698 -4.0649467 1.3390955
0.033444963 -4.0652199 1.3336823
0.035613589 -4.0623927 1.3379191
0.043835122 -4.0696459 1.3364409
0.035531331 -4.0672359 1.3403544
0.049741793 -4.063724 1.3377231
0.059339687 -4.0541062 1.337019
0.06659919 -4.0615883 1.3448774
0.061995808 -4.0598564 1.3466623
0.074350037 -4.0546384 1.3477122
0.070164129 -4.057549 1.3340572
0.083615407 -4.0604935 1.3401101
0.091653392 -4.0669451 1.3489631
0.10392807 -4.0508518 1.3505281
0.094724402 -4.0687389 1.3344599
0.10943401 -4.0580916 1.3418529
0.12151212 -4.0635228 1.3388051
0.11288586 -4.0673704 1.3482084
0.13211781 -4.0614977 1.3392689
0.13313439 -4.0689464 1.3354652
0.13520074 -4.0662565 1.3486601
0.14361183 -4.0557914 1.3388126
0.13807556 -4.062964 1.3424066
0.16139203 -4.0635371 1.3419797
0.16627322 -4.058989 1.3435436
0.15508592 -4.0654063 1.3356247
0.17129137 -4.0654206 1.3421366
0.16444868 -4.0597353 1.3446548
0.18700893 -4.060493 1.3328918
0.18062943 -4.065908 1.3335183
0.19044586 -4.0549307 1.3366644
0.19345683 -4.0612164 1.350098
0.20661986 -4.0587115 1.3361734
0.20337665 -4.0585632 1.3414822
0.21970613 -4.059207 1.3511373
0.21759914 -4.0567107 1.3341657
0.22757277 -4.0636811 1.3369625
0.22405785 -4.0631666 1.345219
0.24306066 -4.045763 1.3324847
0.25030014 -4.060411 1.334094
0.23816562 -4.0509129 1.3464316
0.24917677 -4.044075 1.3322266
0.25362098 -4.0497446 1.3402615
0.2641401 -4.0443268 1.3481716
0.27996746 -4.0482497 1.3351572
0.28544953 -4.0599484 1.3443503
0.27395943 -4.0473423 1.3462762
0.28526562 -4.0439196 1.3484123
0.28482774 -4.0471621 1.347639
0.29165503 -4.0488324 1.3318975
0.30009115 -4.0483041 1.3453254
0.30086419 -4.0424318 1.3452549
0.30743167 -4.0577807 1.3391708
0.32203344 -4.0482764 1.3381521
0.3245447 -4.0486102 1.3328506
0.33404088 -4.0491261 1.3354822
0.33272958 -4.0467963 1.3503441
0.35334358 -4.0388241 1.3482448
0.35609293 -4.0569525 1.3425114
0.35806832 -4.053916 1.334708
0.36430162 -4.0481057 1.3470249
0.36396211 -4.047183 1.3447992
0.36355144 -4.0453544 1.3468007
0.37705597 -4.0545835 1.337875
0.38954103 -4.0469613 1.3481767
0.39672387 -4.035502 1.3375152
0.38653767 -4.051012 1.3487284
0.39121249 -4.0515656 1.347451
0.41378728 -4.035027 1.3475742
0.41062787 -4.0421691 1.350255
0.41966426 -4.0487337 1.3382596
0.42101687 -4.0412931 1.3466917
0.42014283 -4.039917 1.3364502
0.44126949 -4.0306907 1.3364691
0.43346971 -4.0346313 1.3435917
0.45597082 -4.0370417 1.3416477
0.44780955 -4.0352898 1.3436596
0.45086059 -4.0345135 1.3445758
0.47263339 -4.0368123 1.3414805
0.47452852 -4.0279198 1.3506851
0.47910348 -4.0356393 1.3327593
0.4716821 -4.0276532 1.3417007
0.49269193 -4.0261884 1.3314363
0.48345944 -4.0292425 1.3498093
0.49424478 -4.0257421 1.3436439
0.5121519 -4.0253844 1.3344631
0.50811404 -4.0388312 1.3464211
0.50608706 -4.0348697 1.3385345
0.52497524 -4.0347772 1.3477199
0.52076721 -4.0384302 1.3451613
0.52576274 -4.0231481 1.3342386
0.53283149 -4.0209265 1.3506492
0.54884058 -4.0233331 1.3478643
0.55458421 -4.0206094 1.3413566
0.55869985 -4.0327368 1.3376737
0.55664903 -4.0325923 1.3336643
0.56541634 -4.0221195 1.3355159
0.56614053 -4.0193071 1.3406292
0.57897699 -4.0232391 1.3451273
0.58099782 -4.0170107 1.3452569
0.58045894 -4.0114169 1.339945
0.58899635 -4.0243835 1.3361232
0.59394306 -4.0269699 1.3491558
0.59610373 -4.0094395 1.344165
0.61175561 -4.0134196 1.346292
0.62372333 -4.0250759 1.347801
0.61168045 -4.0135894 1.3390118
0.62148803 -4.0070014 1.3322563
0.63640767 -4.0131989 1.3407824
0.63582426 -4.002996 1.3347429
0.63536918 -4.0189524 1.3334951
0.64960092 -4.0119896 1.3384706
0.6600098 -4.0056977 1.340042
0.66344988 -4.002861 1.3383182
0.66189796 -4.0099883 1.3317806
0.66247177 -4.0107617 1.3327452
0.68455321 -4.0091906 1.3443475
0.67784423 -4.0034237 1.3416806
0.68437833 -4.0083475 1.3319515
0.69943732 -3.9994638 1.3315523
0.70845544 -3.9966433 1.3343163
0.69622439 -4.005198 1.3431544
0.70896739 -4.0089493 1.3373884
0.72328061 -3.9948645 1.3335546
0.71586853 -4.0079346 1.3416817
0.72191745 -4.0060329 1.3481158
0.72892958 -3.9876502 1.3351934
0.74754256 -4.0015755 1.3471024
0.74348742 -3.9945648 1.3331444
0.74970168 -3.9980912 1.3471189
0.75551516 -3.9981949 1.3429549
0.76409119 -3.9961236 1.3492696
0.76150405 -3.9869015 1.3508586
0.77314937 -3.9889576 1.3455497
0.78095931 -3.9840152 1.3461804
0.77689493 -3.9786124 1.3477148
0.77926314 -3.9917846 1.3466262
0.78870732 -3.9919291 1.3505986
0.81005907 -3.9817131 1.3405604
0.79745126 -3.9908652 1.3459663
0.8188163 -3.9797854 1.3502316
0.81601584 -3.9857092 1.3355234
0.81952852 -3.9797986 1.3489845
0.82462859 -3.9878197 1.3393292
-3.1783218 -3.1062472 1.2178912
-3.166923 -3.1188505 1.2122537
-3.1635163 -3.1194127 1.2141355
-3.0335999 -2.9961262 1.293349
-3.0294604 -2.9951923 1.2995037
-3.0159709 -3.0023737 1.287255
-3.0085113 -3.0136852 1.3030857
-3.0065737 -3.0062985 1.3012519
-2.9945745 -3.0208418 1.2959816
-2.9904037 -3.0114286 1.2880406
-3.0018427 -3.0152452 1.3025944
-2.9918518 -3.0320175 1.2889799
-2.9874928 -3.0297434 1.2992322
-2.981246 -3.0338202 1.3066069
-2.9702742 -3.0379479 1.2991483
-2.9731419 -3.0527828 1.2887354
-2.9682524 -3.0443604 1.2912319
-2.9675264 -3.0582085 1.3053303
-2.9686284 -3.0642717 1.2890947
-2.9549949 -3.0703838 1.3064756
-2.9492967 -3.0721607 1.3042376
-2.949039 -3.0681789 1.2894188
-2.94239 -3.0640752 1.3010596
-2.9454827 -3.0779681 1.2928035
-2.941195 -3.0851386 1.3045934
-2.9243605 -3.0794315 1.3057163
-2.917933 -3.0930958 1.2994236
-2.9290032 -3.0903008 1.3034385
-2.9259694 -3.0928802 1.3055404
-2.9191654 -3.1061044 1.3056742
-2.9149747 -3.097914 1.2881688
-2.9130163 -3.1137557 1.2987775
-2.9058712 -3.107244 1.2976159
-2.8870795 -3.1081262 1.2866812
-2.8965383 -3.1290278 1.2926902
-2.8942015 -3.1174073 1.2885141
-2.8907361 -3.1236777 1.2947757
-2.873558 -3.1253426 1.2879281
-2.872359 -3.1283033 1.302591
-2.8690526 -3.1487956 1.2881134
-2.865607 -3.1494384 1.3059038
-2.8596611 -3.1524699 1.2919241
-2.863101 -3.1527088 1.2885218
-2.8476968 -3.1585143 1.2882966
-2.8432217 -3.1581426 1.2912233
-2.8327322 -3.1598034 1.2898178
-2.8464129 -3.1623743 1.3061829
-2.8338268 -3.1721478 1.3049182
-2.8280826 -3.1851087 1.3047216
-2.8276701 -3.1791553 1.2880554
-2.8217294 -3.194154 1.2947631
-2.8179929 -3.1876101 1.3024496
-2.8082309 -3.1889148 1.2939016
-2.8018653 -3.1992295 1.3035462
-2.7957196 -3.2094893 1.2975545
-2.8066416 -3.2136853 1.2938877
-2.7989638 -3.2159929 1.2916297
-2.7949152 -3.210151 1.3035715
-2.7921259 -3.2230072 1.3065195
-2.7895279 -3.2198985 1.2993817
-2.7835903 -3.2153025 1.3012002
-2.7709401 -3.2314289 1.2935109
-2.7705975 -3.2422571 1.2884594
-2.7587979 -3.2311897 1.2970291
-2.7573481 -3.2384517 1.2992687
-2.7618845 -3.2411165 1.3012359
-2.7500823 -3.2405894 1.3048128
-2.7405329 -3.2605054 1.2981423
-2.7390363 -3.2621293 1.3025204
-2.7345865 -3.2656577 1.2939055
-2.7372687 -3.2677565 1.2937788
-2.7181275 -3.2617183 1.3014115
-2.72667 -3.2798562 1.3020953
-2.7202587 -3.2707188 1.2977197
-2.7052724 -3.2846611 1.2899489
-2.7080412 -3.2876747 1.3033739
-2.7088375 -3.2834265 1.30118
-2.7060518 -3.2941747 1.3029178
-2.6899312 -3.2879775 1.2868731
-2.6894271 -3.3018866 1.2911352
-2.6775327 -3.3030398 1.2971271
-2.6857598 -3.3096189 1.2929796
-2.6663492 -3.3093128 1.29451
-2.666249 -3.3071733 1.2889873
-2.6705196 -3.3146305 1.2933255
-2.6625557 -3.3294449 1.2984469
-2.6611614 -3.3296492 1.2916064
-2.6419559 -3.3316665 1.2978017
-2.6410074 -3.3221674 1.2939717
-2.6360986 -3.3367739 1.3000034
-2.6469223 -3.3441005 1.2886466
-2.6317492 -3.3442743 1.2944686
-2.6207182 -3.3496625 1.3043483
-2.6281519 -3.359581 1.3001128
-2.621103 -3.3584058 1.2921587
-2.6097107 -3.3539073 1.2931224
-2.6131921 -3.3526607 1.2976075
-2.6035087 -3.3568599 1.3037943
-2.607625 -3.3647671 1.3031929
-2.5955663 -3.3724267 1.2916912
-2.5974708 -3.375577 1.2965624
-2.5907269 -3.388226 1.3049531
-2.578156 -3.374521 1.2916421
-2.5757003 -3.3929319 1.2920924
-2.5774751 -3.3889813 1.2973917
-2.567199 -3.3983307 1.2908562
-2.5559542 -3.395859 1.2892277
-2.5602193 -3.4084067 1.2870539
-2.5582924 -3.4097784 1.3006202
-2.556962 -3.4038041 1.2901673
-2.5471284 -3.4044518 1.3001981
-2.5324187 -3.423079 1.3012073
-2.5293131 -3.4138632 1.2995423
-2.5195138 -3.4269247 1.3030807
-2.529259 -3.4264989 1.2941772
-2.5137 -3.4205403 1.2995253
-2.5046718 -3.4280849 1.2909393
-2.517267 -3.4446473 1.2933935
-2.5120311 -3.4440415 1.298057
-2.4932239 -3.4468682 1.2922692
-2.1581457 -2.9937303 1.512884
-2.1603808 -3.0010989 1.5149499
-2.1616025 -3.0101411 1.5297861
-2.1644847 -3.0141675 1.5151085
-2.1438248 -3.012728 1.5243975
-2.1520638 -3.0205233 1.5231795
-2.1349506 -3.0240889 1.5179446
-2.1464193 -3.0250533 1.5196679
-2.1354294 -3.0255902 1.5255113
-2.1397719 -3.0321333 1.5120354
-2.1298981 -3.0351357 1.5242989
-2.1228881 -3.0245664 1.5122321
-2.1138079 -3.0394163 1.5141554
-2.1098874 -3.0413504 1.5150788
-2.1006403 -3.0468299 1.5204623
-2.1021001 -3.044759 1.5210651
-2.1047738 -3.0497892 1.5211112
-2.0926783 -3.0505061 1.523196
-2.0988555 -3.0444562 1.527741
-2.0791852 -3.0469759 1.5287337
-2.0929866 -3.0638525 1.5297095
-2.0745206 -3.0579543 1.5242337
-2.0681171 -3.0672152 1.5268813
-2.0797863 -3.0567989 1.5105627
-2.070528 -3.0613835 1.5117257
-2.0558825 -3.0716796 1.5179152
-2.0606296 -3.0689054 1.5220243
-2.0453269 -3.0782955 1.52836
-2.0479352 -3.0781267 1.5236832
-2.0459948 -3.0825558 1.5194187
-2.0430574 -3.0850587 1.5212034
-2.0391405 -3.0933716 1.511806
-2.0406952 -3.0995617 1.5160615
-2.0195982 -3.1017056 1.513641
-2.014816 -3.0988793 1.5295378
-2.008867 -3.1057003 1.5180343
-2.0167243 -3.1015649 1.5121951
-2.0004685 -3.1064272 1.5198495
-1.9978732 -3.0982027 1.5105504
-1.9999508 -3.1123462 1.5196939
-2.0062888 -3.1078651 1.5292003
-1.9908384 -3.1237833 1.5132535
-1.9847814 -3.1255772 1.5139701
-1.974465 -3.1305985 1.5153909
-1.9865652 -3.1151664 1.5224792
-1.9827647 -3.1181173 1.5255823
-1.9704639 -3.1332624 1.5156502
-1.9639984 -3.1364918 1.5236791
-1.9698746 -3.1414704 1.5227499
-1.9650462 -3.1328747 1.5104884
-1.9510704 -3.1349692 1.5255133
-1.9475844 -3.1459694 1.527419
-1.9400414 -3.1552727 1.5103238
-1.8342814 -3.0006831 1.5854883
-1.8448139 -3.0003657 1.6043718
-1.8282546 -3.0006196 1.6030787
-1.8285886 -2.9929485 1.5894094
-1.818851 -3.0031917 1.5952728
-1.8210809 -3.0036945 1.598914
-1.8242365 -3.003756 1.5939012
-1.8196501 -3.0142331 1.5895379
-1.800035 -3.005619 1.5969121
-1.7985109 -3.0138607 1.5977151
-1.7940785 -3.0182416 1.5978931
-1.7889721 -3.0173407 1.6009721
-1.7849789 -3.0240698 1.5863746
-1.7822752 -3.0153258 1.60202
-1.7932373 -3.0210407 1.5899884
-1.7783325 -3.033186 1.6000139
-1.779783 -3.0326903 1.5925318
-1.7662427 -3.0318153 1.5971211
-1.7570626 -3.0355361 1.5928669
-1.7605045 -3.0419471 1.6029074
-1.76314 -3.0481436 1.5910977
-1.745594 -3.0534551 1.6027137
-1.7449657 -3.0389984 1.5901192
-1.7389313 -3.0460663 1.5887818
-1.7372482 -3.0483284 1.6042362
-1.7275933 -3.0599208 1.5900468
-1.7279096 -3.0572028 1.598848
-1.7357044 -3.0651867 1.5910134
-1.7189066 -3.0682364 1.6019412
-1.7263596 -3.0589774 1.5889354
-1.7237687 -3.0566063 1.5922043
-1.7129841 -3.0609455 1.5926272
-1.7105802 -3.0689161 1.5899663
-1.7007674 -3.0751154 1.6026911
-1.6922888 -3.0838978 1.5956014
-1.6883522 -3.0872955 1.5993608
-1.698602 -3.0752826 1.5882739
-1.680047 -3.0753412 1.5916326
-1.6893235 -3.0828819 1.5943654
-1.6676688 -3.0821593 1.5887749
-1.6790167 -3.0831323 1.5879672
-1.6670924 -3.097611 1.5852258
-1.654742 -3.0939791 1.5969137
-1.6650493 -3.1048312 1.5847958
-1.6626284 -3.0915051 1.5862832
-1.647294 -3.0985458 1.5867547
-1.6481969 -3.100143 1.6016146
-1.6401836 -3.1074955 1.5987855
-1.6288083 -3.1084378 1.5907793
-1.634697 -3.112042 1.5858533
-1.6261729 -3.1113143 1.602306
-1.6184534 -3.1229854 1.5866253
-1.6134721 -3.1266327 1.5969161
-1.6167997 -3.124917 1.5986879
-1.612242 -3.1251137 1.5961133
-1.6061938 -3.1143119 1.5888193
-1.5996709 -3.1287529 1.6022432
-1.598285 -3.119523 1.5906237
-1.599725 -3.1232638 1.600365
-1.5891682 -3.1372426 1.588799
-1.5835341 -3.1270497 1.6002517
-1.5814444 -3.1334927 1.6023179
-1.5750321 -3.139313 1.6030155
-1.578326 -3.132823 1.5877016
-1.5598451 -3.1461403 1.5944574
-1.5639356 -3.1377776 1.5942754
-1.5553172 -3.1472633 1.6019067
-1.5532718 -3.1597376 1.601016
-1.5428427 -3.1580296 1.5986265
-1.5426693 -3.1501455 1.6044943
-1.4524395 -2.9943113 1.6772791
-1.4526063 -2.9873605 1.6713505
-1.4507039 -2.9983876 1.6618189
-1.448101 -2.9971023 1.6609887
-1.4408094 -3.0017326 1.6690466
-1.446759 -2.9948533 1.6676663
-1.4328879 -3.003758 1.6789933
-1.4313825 -2.995023 1.6600326
-1.4307652 -3.000268 1.6649607
-1.4125345 -3.0097511 1.6599473
-1.4084331 -3.0150387 1.6662364
-1.4060384 -3.0046782 1.6615248
-1.4095697 -3.0166032 1.6678283
-1.4026297 -3.0101159 1.6774538
-1.3965173 -3.0205307 1.6644797
-1.4023441 -3.0210915 1.6604099
-1.3895484 -3.0319803 1.6694545
-1.3854231 -3.0255659 1.669247
-1.3802556 -3.0227389 1.6658021
-1.3701575 -3.0258889 1.6748754
-1.36507 -3.0291479 1.6606563
-1.3736907 -3.0342255 1.6787875
-1.3670204 -3.0270503 1.6669775
-1.3540437 -3.0371537 1.6636325
-1.351439 -3.0453663 1.6718447
-1.3618057 -3.0436299 1.6614622
-1.3562394 -3.0333247 1.662151
-1.341626 -3.043124 1.6712084
-1.3472173 -3.0519881 1.665041
-1.336251 -3.0549893 1.6776661
-1.3362089 -3.0571408 1.6689684
-1.3303832 -3.0521536 1.6771239
-1.3264235 -3.0447392 1.6743792
-1.3142715 -3.0485942 1.6634495
-1.3054616 -3.0540931 1.6662201
-1.3084371 -3.0542097 1.6726339
-1.3017925 -3.053014 1.6712534
-1.2944566 -3.0614614 1.6619687
-1.2980608 -3.0597594 1.6657088
-1.2878298 -3.071353 1.6683306
-1.2849711 -3.0671685 1.6706778
-1.2908075 -3.0614254 1.6598834
-1.2884858 -3.0759926 1.6783683
-1.2689064 -3.0826797 1.6748575
-1.2802541 -3.0848317 1.667701
-1.2688287 -3.0742369 1.662275
-1.2709873 -3.0812774 1.6598858
-1.2545236 -3.0852642 1.6708843
-1.2473422 -3.0771406 1.665414
-1.2564185 -3.0830734 1.6701735
-1.2428703 -3.0904379 1.6609347
-1.2469724 -3.0879314 1.6592499
-1.2418667 -3.0873983 1.6648034
-1.2382734 -3.0915837 1.6654691
-1.2381886 -3.0914171 1.6657755
-1.2252579 -3.1041279 1.6784643
-1.2177508 -3.1033022 1.6658937
-1.2126305 -3.0903208 1.6711111
-1.2165093 -3.0944681 1.6662215
-1.2058561 -3.0920043 1.6771621
-1.2104408 -3.1003075 1.6624953
-1.2042621 -3.0970302 1.672086
-1.1997658 -3.1129673 1.6639546
-1.1897136 -3.1096334 1.6733769
-1.1789935 -3.1105394 1.6646986
-1.1879646 -3.1028421 1.6650364
-1.1842445 -3.1119673 1.6679205
-1.1730928 -3.1203043 1.6655008
-1.1767213 -3.1168547 1.6606424
-1.1652372 -3.1270883 1.6599505
-1.1628102 -3.126246 1.672652
-1.1550477 -3.1235664 1.6703211
-1.1576922 -3.1207345 1.6737376
-1.1484658 -3.1321967 1.6621665
-1.149815 -3.1172872 1.6713613
-1.13984 -3.1356995 1.6699197
-1.1295252 -3.1347454 1.661013
-1.1363239 -3.1269948 1.6654232
-1.1255403 -3.1272306 1.674931
-1.1196127 -3.1403425 1.6758471
-1.1143749 -3.1353898 1.6592411
-1.1164334 -3.1470392 1.6669443
-1.1008205 -3.1457002 1.6791028
-1.1017889 -3.1395037 1.6614168
-1.0943264 -3.1390281 1.6602514
-1.0976669 -3.152951 1.6622788
-1.0824467 -3.1409352 1.6668594
-1.0761312 -3.1400964 1.6607835
-1.0854033 -3.1528542 1.6760585
-1.0851655 -3.144067 1.6598023
-1.0640095 -3.1544268 1.6700735
-1.0594574 -3.151232 1.6702636
-1.0672002 -3.1568136 1.6733552
-1.0627822 -3.1477547 1.6641992
-1.056048 -3.155627 1.6770691
-1.0504774 -3.1512353 1.6775596
-1.0428772 -3.1560214 1.6716038
-1.0306944 -3.1588919 1.6680185
-1.0445853 -3.1554365 1.6732007
-1.0231992 -3.1561475 1.6686895
-1.0180674 -3.1601088 1.6753315
-0.96528304 -2.9874096 1.7411695
