# .PCD v0.7 - Point Cloud Data file format
VERSION 0.7
FIELDS x y z
SIZE 4 4 4
TYPE F F F
COUNT 1 1 1
WIDTH 1531
HEIGHT 1
VIEWPOINT 0 0 0 1 0 0 0
POINTS 1531
DATA ascii
-0.7758432 -4.1914206 1.983954
-0.76278609 -4.1871786 1.9873593
-0.76131099 -4.197103 1.9762532
-0.75555223 -4.2032514 1.9754272
-0.75482625 -4.2010098 1.9741582
-0.7371645 -4.1954684 1.9877744
-0.73238152 -4.2020478 1.9870754
-0.72762537 -4.2059641 1.9892787
-0.72747141 -4.1977997 1.9776224
-0.73088813 -4.2067194 1.9735391
-0.71556824 -4.1989102 1.9880971
-0.71906322 -4.2039089 1.9879886
-0.69915146 -4.2132993 1.9790391
-0.69034439 -4.2027988 1.9850162
-0.68236196 -4.2174416 1.9743015
-0.69564718 -4.220294 1.9901869
-0.67531478 -4.2042356 1.9805435
-0.67567992 -4.2092953 1.9880259
-0.67384058 -4.2200766 1.9847071
-0.66365612 -4.2201509 1.9734941
-0.65755379 -4.210784 1.9911078
-0.65689206 -4.2107916 1.9847323
-0.63633758 -4.2167687 1.9899676
-0.64473134 -4.219821 1.9866965
-0.62714666 -4.2207747 1.989767
-0.6202755 -4.2208986 1.9909616
-0.61751759 -4.2265773 1.9891826
-0.62440199 -4.2185087 1.9833041
-0.60380268 -4.2144899 1.9875963
-0.60652101 -4.2261772 1.9927574
-0.60045117 -4.2176542 1.9882209
-0.59676635 -4.2343626 1.9846039
-0.57945597 -4.2364111 1.9759287
-0.57690907 -4.232749 1.9851116
-0.57763219 -4.2373991 1.9742432
-0.57528365 -4.2210765 1.9841447
-0.57173938 -4.2278953 1.9892538
-0.54997289 -4.227499 1.9833089
-0.55408382 -4.2324057 1.9822522
-0.55390149 -4.225934 1.9903692
-0.54855692 -4.2392964 1.987862
-0.52774775 -4.2348795 1.9894911
-0.53055465 -4.2390594 1.9899081
-0.52203578 -4.2265997 1.9748152
-0.52433282 -4.2407727 1.9758921
-0.51749724 -4.2385068 1.9741031
-0.50075918 -4.2386079 1.9862986
-0.49891105 -4.2428551 1.9796849
-0.48300675 -4.2371268 1.9889516
-0.48815817 -4.2371306 1.9854686
-0.4851917 -4.2377057 1.9893932
-0.4647314 -4.2433882 1.9784964
-0.46264115 -4.2377954 1.9841738
-0.46013296 -4.2496023 1.9830559
-0.45271665 -4.2496266 1.9885025
-0.44422269 -4.2487359 1.9769436
-0.43751675 -4.2370291 1.986004
-0.43861452 -4.2493968 1.9915293
-0.4263249 -4.2517843 1.9834871
-0.42476785 -4.2452483 1.9761368
-0.42669293 -4.2416716 1.988899
-0.40469259 -4.2435613 1.9766577
-0.41358817 -4.2492881 1.9906802
-0.39680561 -4.2584357 1.9735581
-0.40114012 -4.2460966 1.9770662
-0.40002725 -4.251194 1.9821109
-0.3904725 -4.2555165 1.9795001
-0.37185663 -4.2468691 1.9851507
-0.36771458 -4.2518654 1.989035
-0.37161398 -4.2612386 1.9800682
-0.36286297 -4.258472 1.9752828
-0.36134908 -4.2596402 1.9892039
-0.3520757 -4.2556405 1.9779859
-0.3487792 -4.2607961 1.9782
-0.34260416 -4.2562237 1.9913244
-0.33292037 -4.2564778 1.9799147
-0.3181912 -4.2531166 1.9847368
-0.32607216 -4.2570801 1.9787526
-0.30830178 -4.2628427 1.9883103
-0.30664656 -4.2584462 1.9890245
-0.29395747 -4.2512422 1.9930271
-0.28605321 -4.248467 1.9763744
-0.28422719 -4.262363 1.9842261
-0.27361864 -4.2589068 1.9874191
-0.28279546 -4.2552214 1.9756725
-0.27884722 -4.2677984 1.9841518
-0.26630819 -4.2515931 1.9764639
-0.26894647 -4.2692161 1.9852759
-0.25756842 -4.2550168 1.9887804
-0.25663218 -4.2651114 1.9771276
-0.23498125 -4.268466 1.9931175
-0.22932723 -4.2698665 1.9923123
-0.22032541 -4.2553911 1.9780331
-0.22347143 -4.2562585 1.9876231
-0.22342403 -4.2722549 1.9813036
-0.21512285 -4.2702551 1.9828038
-0.19834188 -4.2616687 1.9808978
-0.20924836 -4.2616744 1.9817488
-0.19134244 -4.2562556 1.9771708
-0.18993171 -4.2558551 1.9828619
-0.1801734 -4.2597589 1.9855534
-0.17442478 -4.2639637 1.9871913
-0.16948093 -4.2651229 1.9836428
-0.15881599 -4.255384 1.9795569
-0.15856069 -4.2715549 1.9797968
-0.14462459 -4.2653813 1.98235
-0.14918795 -4.2683849 1.9737945
-0.135657 -4.2682528 1.9855301
-0.14127472 -4.2561736 1.9829729
-0.13147019 -4.2686424 1.9810963
-0.11597435 -4.2573123 1.9755878
-0.11778673 -4.2661929 1.986138
-0.11796091 -4.2760901 1.9757844
-0.10168336 -4.2612824 1.9754162
-0.089491457 -4.2721801 1.9791158
-0.097059496 -4.2751026 1.9892187
-0.082074128 -4.2685504 1.9765401
-0.075644135 -4.2744284 1.9842068
-0.07747829 -4.2718859 1.984158
-0.061869502 -4.2655015 1.9918373
-0.068137221 -4.2695837 1.9910353
-0.059913188 -4.2614408 1.9815326
-0.041138854 -4.2594352 1.9823048
-0.052718055 -4.2671151 1.978048
-0.044665314 -4.2685671 1.9830486
-0.032912891 -4.2635503 1.9852732
-0.031057414 -4.2695122 1.9741889
-0.02188056 -4.2750077 1.9773567
-0.0050369152 -4.268302 1.9831883
-0.0082419794 -4.2719522 1.975518
-0.003767736 -4.2678342 1.9838706
-9.548392e-05 -4.261457 1.9804628
0.014074103 -4.26227 1.979149
0.009015847 -4.2606273 1.9902351
0.01970082 -4.276897 1.9799414
0.035386357 -4.2673793 1.9747277
0.033296514 -4.2619715 1.9836073
0.040122319 -4.2733517 1.9870378
0.050115757 -4.2738538 1.9772123
0.045940816 -4.2635264 1.983767
0.054095451 -4.2746902 1.9744614
0.070602641 -4.2681475 1.9915464
0.063701883 -4.2734003 1.9878231
0.075487182 -4.2696767 1.9857394
0.078358516 -4.2612338 1.9873741
0.09093599 -4.2630706 1.9785066
0.098299652 -4.272963 1.9750186
0.094542742 -4.2619948 1.9801135
0.11421608 -4.2669983 1.9846612
0.10406381 -4.2621422 1.979483
0.1204661 -4.2750964 1.9830791
0.12756254 -4.2575083 1.9931483
0.13174373 -4.2727861 1.9778861
0.13220146 -4.2622437 1.9862607
0.15057507 -4.2747941 1.9829831
0.15058324 -4.2607322 1.9777652
0.1617236 -4.2652707 1.9825432
0.14937577 -4.2595305 1.9781696
0.16212255 -4.2600808 1.9886638
0.17941672 -4.2567477 1.9838775
0.17153227 -4.2629757 1.9859918
0.18724369 -4.2680707 1.9855406
0.19302391 -4.2549481 1.9896498
0.20354164 -4.2673306 1.9841315
0.20243356 -4.2673025 1.9858838
0.19804752 -4.2732286 1.9815117
0.20844314 -4.2539763 1.9924058
0.22361648 -4.2730346 1.9888365
0.21441567 -4.2653074 1.9845051
0.2357087 -4.2662473 1.9832867
0.23221503 -4.2610331 1.9756119
0.25083524 -4.266068 1.9826051
0.2490038 -4.2712831 1.9824759
0.25128102 -4.2519407 1.9897106
0.26803944 -4.259666 1.9767118
0.26654977 -4.2577367 1.9775167
0.28068745 -4.2513709 1.9772952
0.28571868 -4.2557902 1.9777288
0.28718022 -4.2553682 1.9855946
0.28430974 -4.2596116 1.9922168
0.30022043 -4.2533054 1.9837418
0.30845568 -4.2543364 1.9899114
0.30368349 -4.263155 1.9905376
0.31878152 -4.2556524 1.9901694
0.32111371 -4.2573471 1.9817307
0.33044648 -4.2664862 1.9748678
0.34058356 -4.2474422 1.974009
0.33049843 -4.249321 1.9883608
0.34084636 -4.255692 1.9827558
0.35905942 -4.250886 1.9925208
0.36389408 -4.2561221 1.9881968
0.36025292 -4.2590747 1.9824387
0.36278084 -4.2527504 1.9874501
0.36593419 -4.2572789 1.979544
0.38871861 -4.2454257 1.9895152
0.38306361 -4.2501888 1.9899104
0.39054498 -4.2507644 1.9889046
0.39716682 -4.2473726 1.9855667
0.39813966 -4.2595811 1.9753964
0.41350672 -4.2595229 1.9895619
0.41863811 -4.2405767 1.9780134
0.41944471 -4.2512178 1.9830257
0.43449232 -4.2452755 1.9738671
0.43455055 -4.2421241 1.9796767
0.44670191 -4.2421317 1.9768282
0.44882357 -4.2537374 1.9886966
0.4513396 -4.2438035 1.9794617
0.45284897 -4.2531896 1.9930818
0.47101957 -4.2475433 1.9739491
0.45901898 -4.2524695 1.974321
0.48118305 -4.2382035 1.9930778
0.47179759 -4.2490697 1.9806243
0.48742354 -4.2508254 1.9735352
0.49388999 -4.2384596 1.9890112
0.50616509 -4.2398782 1.9838849
0.49559078 -4.24511 1.9865502
0.51688385 -4.2337604 1.9785379
0.50894111 -4.2468343 1.9805204
0.5146175 -4.2476702 1.9875214
0.52116007 -4.2464385 1.98896
0.52807361 -4.2289729 1.9840201
0.53374296 -4.2268229 1.9875618
0.54695779 -4.2349758 1.9886869
0.55308241 -4.24259 1.9815087
0.55468208 -4.2238564 1.9922343
0.5711543 -4.2416229 1.9770421
0.57029074 -4.2240214 1.9925058
0.58141381 -4.2402868 1.974193
0.57451826 -4.2367988 1.9743336
0.59462267 -4.2326908 1.9749873
0.59616452 -4.2275896 1.992379
0.59276539 -4.2227397 1.9911853
0.61290675 -4.2305942 1.9810952
0.6141721 -4.2182417 1.9826386
0.60825801 -4.2302065 1.9821557
0.61306828 -4.2316151 1.9831376
0.62268525 -4.2198024 1.9809443
0.62776464 -4.2227798 1.9817003
0.63453001 -4.2185655 1.9851509
0.64143473 -4.2201586 1.9919082
0.64899188 -4.22612 1.9829564
0.65393955 -4.2213898 1.9780365
0.65769231 -4.2224264 1.9844359
0.67135358 -4.2081046 1.982353
0.66655707 -4.2256031 1.9874623
0.68127638 -4.2241955 1.9903117
0.69697624 -4.2190742 1.9841148
0.69048142 -4.214776 1.9740725
0.70474136 -4.2096133 1.9873683
0.70245051 -4.2034459 1.9781872
0.70691568 -4.2156196 1.982152
0.72242761 -4.2087431 1.9899464
0.71301824 -4.2040095 1.9757951
0.73000687 -4.2115097 1.9750484
0.72491121 -4.2096996 1.9758782
0.74492341 -4.1990628 1.9771819
0.74778366 -4.198617 1.9826647
0.74444544 -4.2105551 1.9914957
0.75106353 -4.1941218 1.9845309
0.77097607 -4.2058663 1.9827672
0.76170594 -4.1990309 1.9878548
0.7763992 -4.2025676 1.9788361
0.7788853 -4.2013969 1.9735593
0.78721863 -4.1891184 1.9797828
0.7948038 -4.1878161 1.9868085
0.80321723 -4.19238 1.9834554
0.81293279 -4.1999607 1.979524
0.80812961 -4.1967554 1.9826219
0.8121559 -4.1928062 1.9811126
0.82921582 -4.1948175 1.9868102
0.82451046 -4.1919699 1.978286
0.82489109 -4.1802993 1.9851598
0.83625126 -4.1920109 1.9921309
0.84233308 -4.1812558 1.9902987
0.85463685 -4.1887813 1.9886793
0.85396469 -4.1737571 1.9813979
0.86993772 -4.1748796 1.9854295
0.8619777 -4.1866655 1.9915521
0.87711394 -4.180285 1.9805012
0.89073914 -4.1827021 1.9863082
0.89006025 -4.1756802 1.9738235
0.90085542 -4.1741328 1.9918625
0.89852262 -4.1670775 1.9770344
0.90315926 -4.1797919 1.9917978
0.90596199 -4.1660519 1.9778641
0.90714353 -4.1788321 1.9777749
0.92104191 -4.1614857 1.9753751
0.91897017 -4.1779437 1.9799925
0.94301921 -4.1651087 1.9897864
0.93601549 -4.1644897 1.9759506
0.954817 -4.1703897 1.9879156
0.96113205 -4.1713319 1.9801995
0.9654842 -4.1604428 1.9783014
0.95500642 -4.170752 1.9824438
0.95929021 -4.1640906 1.9790726
0.96963841 -4.1620793 1.9816597
0.97989547 -4.1519985 1.9803233
0.98775083 -4.1498165 1.981251
1.0002217 -4.1494117 1.9737277
1.0024846 -4.1618342 1.9855292
1.0109098 -4.1612768 1.9901288
1.0112979 -4.1402249 1.9924757
1.0239681 -4.1406393 1.9843929
1.0147382 -4.1373477 1.9846743
1.0296488 -4.1555872 1.9902821
1.0411861 -4.149291 1.9765584
1.0353085 -4.1385489 1.9915645
11.846575 -0.82954544 0.15399061
11.651628 -0.79631853 0.21014686
11.45982 -0.76452047 0.26097441
11.258703 -0.72289741 0.31089959
11.075297 -0.70240301 0.35924804
10.882105 -0.67521697 0.4023962
10.677704 -0.64333278 0.44760466
10.489677 -0.62574124 0.49622732
10.30296 -0.59672141 0.53484446
10.297368 -0.57611853 0.52792972
10.295716 -0.56936848 0.52809089
10.297159 -0.54469007 0.53162414
10.308073 -0.53888351 0.53764093
10.303127 -0.52119774 0.53650647
10.30142 -0.51386631 0.52763265
10.301374 -0.48661819 0.53825158
10.297791 -0.49060655 0.53360212
10.312729 -0.46940273 0.53993237
10.309603 -0.46164489 0.52921146
10.298408 -0.44031379 0.54472637
10.300278 -0.42145011 0.53262299
10.302289 -0.40193802 0.53082865
10.307814 -0.39228776 0.54047042
10.319334 -0.38833836 0.53342628
10.309701 -0.36683112 0.53934103
10.311173 -0.34608421 0.53813028
10.303245 -0.32961592 0.53855652
10.310646 -0.31888437 0.54581106
10.304358 -0.31193346 0.54644692
10.307329 -0.2968125 0.53403652
10.305795 -0.28043631 0.54611146
10.312138 -0.26264375 0.5433194
10.316666 -0.25990158 0.53579772
10.310815 -0.24619308 0.53784466
10.317901 -0.22265269 0.52701735
10.310881 -0.19815429 0.5425548
10.32263 -0.20207898 0.54017758
10.314785 -0.17907627 0.53414828
10.314175 -0.16281593 0.54068571
10.31418 -0.14401884 0.52795917
10.321755 -0.12717019 0.5372234
10.321385 -0.12437333 0.52989411
10.318203 -0.097422659 0.53092051
10.307479 -0.096676446 0.5312683
10.318782 -0.06917882 0.54076892
10.319238 -0.069015071 0.54037994
10.31521 -0.057395987 0.54167783
10.503263 -0.03474598 0.48492315
10.51079 -0.011837741 0.4967061
10.504834 -0.0091576111 0.49289659
10.329453 0.0028300378 0.61360794
10.339991 0.032061316 0.620664
10.34318 0.037936907 0.62028033
10.327374 0.052935064 0.60625225
10.331898 0.059102718 0.60533094
10.325901 0.085612543 0.61018246
10.534304 0.089633949 0.56701797
10.529173 0.10579765 0.5582068
10.533934 0.12943433 0.55764103
10.530457 0.1470814 0.56509244
10.52315 0.1660123 0.56792253
10.534472 0.17549124 0.56556755
10.532829 0.18818891 0.57467192
10.530783 0.20513165 0.56435823
10.534688 0.20666721 0.56579614
10.537651 0.22229622 0.55932784
10.525445 0.25162965 0.56083304
10.535297 0.25596541 0.56381428
10.536319 0.26521525 0.57574475
10.516754 0.2911621 0.57063502
10.52462 0.30999643 0.5697692
10.535295 0.32036754 0.56369555
10.523596 0.3293314 0.57563323
10.520979 0.35650432 0.56982756
10.528029 0.36785823 0.57087177
10.516496 0.38247177 0.57285976
10.518475 0.38519645 0.56949633
10.521937 0.39811167 0.57578421
10.528361 0.41240627 0.57663804
10.526695 0.42751443 0.56875539
10.519898 0.45088756 0.56502414
10.512216 0.46535566 0.5569818
10.518438 0.48856378 0.56322157
10.516579 0.48961619 0.56195325
10.508893 0.51819921 0.5573585
10.522231 0.51575077 0.57269752
10.517536 0.53580242 0.57608229
10.509458 0.55985945 0.55770403
10.507647 0.57090306 0.55894285
10.506669 0.58086365 0.56061327
10.517788 0.60463142 0.57098091
10.505156 0.62134063 0.56114173
10.504459 0.62491751 0.55983651
10.509984 0.64729977 0.56491059
10.514218 0.66268164 0.56389546
10.513839 0.6721074 0.56576061
10.508777 0.67756498 0.57300717
10.507079 0.69569087 0.56964159
10.506984 0.71277297 0.5626514
10.508105 0.72966504 0.57095474
10.510878 0.7384845 0.56835991
10.503998 0.75549996 0.5678094
10.507257 0.77266914 0.57617223
10.509192 0.79623169 0.57225478
10.496179 0.8049193 0.56905806
10.502131 0.81413722 0.56062716
10.489928 0.83922446 0.56299514
10.504951 0.84356564 0.56883168
10.496588 0.86878258 0.55709434
10.501214 0.87611407 0.56759447
10.494123 0.88723046 0.5722608
10.484418 0.91249937 0.55929077
10.494141 0.92208159 0.56883961
10.492207 0.93467188 0.56730211
10.486334 0.95534426 0.55980498
10.477244 0.96308362 0.56687993
10.479703 0.9797551 0.56439793
10.484509 0.99260521 0.5716145
10.475133 0.99826825 0.56940699
10.473997 1.0297542 0.5598917
10.483342 1.0353661 0.56685513
10.477333 1.0525092 0.56445152
10.478333 1.0606332 0.55699599
10.468862 1.0881006 0.56749833
10.477833 1.0909939 0.56404251
10.673034 1.1264797 0.52845335
10.661513 1.1456712 0.52015263
10.667489 1.1510291 0.53007704
10.660662 1.1683897 0.53104138
10.651606 1.1860156 0.52887046
10.653013 1.1944071 0.51769227
10.661364 1.2182304 0.52904004
10.64729 1.2245154 0.51389658
10.64574 1.242811 0.51160735
10.654672 1.2715796 0.51760054
10.640126 1.2833241 0.52410752
10.655215 1.2851195 0.51492876
10.641983 1.3144835 0.51623279
10.638654 1.318633 0.5200246
10.636269 1.3353601 0.52657181
10.631692 1.3551496 0.52664238
8.6797781 2.9661095 0.88903981
8.6695127 2.9735808 0.892178
8.6768532 2.9893522 0.8917824
8.6674442 3.0050619 0.87992811
8.6528883 3.0017314 0.89319897
8.4770918 2.9566858 0.92067617
8.470006 2.9680362 0.93833983
8.4747696 2.9899464 0.93540788
8.4547844 2.9917047 0.92838049
8.447175 2.9991465 0.92006886
8.4613132 3.0228653 0.93549526
8.2691774 2.9548359 0.97153753
8.2636909 2.9836359 0.96601373
8.2577925 2.9871826 0.96411175
8.2600241 3.0003469 0.96679747
8.2555103 3.0058842 0.97642791
8.2532139 3.0284526 0.96559525
8.0656853 2.9727786 1.0101091
8.0581818 2.9681537 1.0193354
8.0436363 2.9800866 1.0242075
8.0407629 2.9903407 1.0210079
8.0333004 3.0160942 1.0236001
8.0366201 3.0204856 1.0234699
7.8520899 2.9544499 1.0606138
7.8480487 2.983217 1.074167
7.8466783 2.991643 1.0617527
7.8349233 3.0019612 1.0604075
7.8323202 3.0118349 1.0590348
7.8289714 3.0183325 1.0618051
7.8148341 3.0344265 1.065282
7.6439219 2.9613571 1.1130362
7.631525 2.9751933 1.1100852
7.6217055 2.9965389 1.100317
7.631741 2.9998703 1.1019794
7.6136613 3.0032852 1.1014662
7.6091199 3.0294697 1.1184421
7.6121497 3.0280538 1.1148051
7.4328852 2.9759855 1.1553606
7.4332685 2.9767213 1.1462502
7.4164076 2.9875207 1.1623203
7.4230089 2.9932554 1.1648612
7.412106 3.010726 1.1505901
7.3982382 3.0225248 1.1470221
7.3945875 3.0285213 1.1561489
7.2123647 2.9666309 1.2033038
7.2099376 2.9781246 1.2007743
7.2044725 2.996855 1.2062099
7.2153568 3.001477 1.2011837
7.2015381 3.010618 1.2065386
7.198595 3.0270481 1.1923438
7.1917081 3.0342443 1.1935407
7.1873484 3.0347164 1.201871
7.0093207 2.969521 1.2369125
7.0071998 2.9806252 1.2423811
6.9941921 2.9939487 1.2496243
7.0030818 3.0089786 1.238299
6.9894285 3.0226905 1.2356477
6.9811974 3.0314479 1.2475678
6.987926 3.0305617 1.2385842
6.9799962 3.0509217 1.2359916
6.7993355 2.9706063 1.2958061
6.7984896 2.9878907 1.2808217
6.7859607 2.9907613 1.2866137
6.7832165 2.9956503 1.2937448
6.7859273 3.0116842 1.2844403
6.7758684 3.0207739 1.3004123
6.7744708 3.0403903 1.3003488
6.7704086 3.0359685 1.2993009
6.5806136 2.9625015 1.332875
6.5795736 2.9850583 1.3318355
6.5759282 2.989711 1.3387483
6.5668406 2.9976568 1.3334769
6.5627556 2.9972258 1.3416129
6.5644498 3.0182157 1.3451805
6.5532627 3.0260947 1.3353306
6.5527582 3.0281062 1.345125
6.548213 3.0329249 1.3450959
6.543591 3.0578995 1.3312113
6.361403 2.9724965 1.3796568
6.3641534 2.9923928 1.376241
6.3658524 2.992789 1.3883098
6.3544512 3.0082555 1.379162
6.3377666 3.003808 1.3804265
6.3492055 3.0252385 1.37353
6.3441997 3.0396781 1.3853676
6.3293319 3.037822 1.3900777
6.3242459 3.0556426 1.3904734
6.1436625 2.9684112 1.4319602
6.1447563 2.9841647 1.4361322
6.1490402 2.986814 1.4313316
6.1298962 2.9953189 1.418064
6.1428089 3.0165925 1.4314057
6.1265621 3.0253634 1.4314482
6.1315675 3.0297675 1.4240756
6.1296649 3.0333724 1.4223027
6.1195874 3.0463281 1.4298398
6.1142087 3.058429 1.4263694
6.1092134 3.0496464 1.4315103
5.9263144 2.9787455 1.4690777
5.9218321 2.9833839 1.4754847
5.9125381 2.9930401 1.4618369
5.909965 2.9997823 1.4809091
5.920722 3.0144627 1.4802042
5.91151 3.0183463 1.4753611
5.9149141 3.0245361 1.4655868
5.8965335 3.0448699 1.4802377
5.9056787 3.0440576 1.4784653
5.8913422 3.062495 1.4793915
5.8821344 3.0564249 1.4682537
5.8852391 3.0700195 1.4734911
5.8747396 3.0784779 1.4801265
5.8705807 3.0885324 1.4652524
5.8654823 3.0935252 1.4768126
5.8596678 3.0934982 1.4640162
5.8689985 3.1210792 1.4691751
5.8485436 3.1144953 1.4664394
5.8627286 3.1212831 1.4746686
5.8551292 3.1379728 1.4731188
5.8484449 3.1497049 1.477288
5.8506117 3.148803 1.4668469
6.0093746 3.2543302 1.4314215
6.0032616 3.2675653 1.4231019
6.0022631 3.2599976 1.4315882
5.9928126 3.2709222 1.4318666
5.9905543 3.2954957 1.4315513
5.9934435 3.3039441 1.4164832
5.9735851 3.3109181 1.4200404
5.9819441 3.3146453 1.4321305
5.9687419 3.3160517 1.4278022
5.9596972 3.3239999 1.4344275
5.9601998 3.3437271 1.4257855
5.9505095 3.3418686 1.4220073
5.9524879 3.3435502 1.4222965
5.9429412 3.3603323 1.4251516
5.933661 3.3794184 1.424228
5.9440541 3.3859673 1.4234068
5.9393678 3.3772433 1.4212201
5.9382267 3.4014754 1.4344275
5.9291644 3.3971143 1.4207149
5.9157619 3.408329 1.4266304
5.9089737 3.4246781 1.4239591
5.9135318 3.4359803 1.4311223
5.9143 3.4339161 1.4316664
5.8953462 3.4469719 1.4206983
5.8992357 3.4554257 1.4205287
5.8821902 3.4589624 1.4186267
5.8843122 3.4625142 1.4197263
5.8842359 3.4696376 1.4167901
5.8773556 3.4924231 1.4212316
5.8767514 3.4865422 1.4286327
5.862051 3.4986205 1.424135
5.8646684 3.5000155 1.422698
5.8544369 3.5269494 1.4309621
5.8447385 3.5197115 1.4240537
5.8440604 3.5411563 1.4173777
5.8432016 3.5503607 1.4260238
6.006928 3.6476524 1.3847696
6.0051026 3.6687787 1.3876815
6.000329 3.6678636 1.3851843
5.9799857 3.6711946 1.3886186
5.9870315 3.6846871 1.3759502
5.9695683 3.6856697 1.3765028
5.9706564 3.7013059 1.3758221
5.9599967 3.7121394 1.3797427
5.9624171 3.7272022 1.3769547
5.9581499 3.7263248 1.3752241
5.9625177 3.7276051 1.3814961
5.9508629 3.7521427 1.380529
5.9421086 3.7570014 1.3902888
5.9308457 3.7666225 1.3750284
5.9230056 3.7684076 1.3849163
5.9224858 3.7778585 1.3874503
5.9225068 3.7935383 1.3772907
5.9218354 3.7837114 1.3896424
5.9050732 3.8014688 1.3887416
5.9055114 3.8001351 1.3786556
5.9042072 3.808356 1.381549
5.889164 3.8301213 1.3806865
5.8931422 3.8283429 1.3763965
5.886869 3.8405235 1.373449
5.8853235 3.8500974 1.3840148
5.8736544 3.8643966 1.3757674
5.8645082 3.8639729 1.3749429
5.865191 3.8681462 1.3760418
5.8582139 3.880837 1.3866562
5.8503246 3.8992567 1.3877019
5.8523378 3.9016755 1.3887411
5.9991994 4.022624 1.3380817
6.0030694 4.0248432 1.3426753
5.9826379 4.0261254 1.3312445
5.9792476 4.0312104 1.3411901
5.9864111 4.0499864 1.3372446
5.9653153 4.0649867 1.3446931
5.9633837 4.066052 1.3281397
5.9625392 4.0655341 1.3361093
5.9522977 4.0825324 1.3343389
5.9430904 4.0869603 1.3268347
5.9549103 4.1017113 1.3438751
5.9413037 4.1059232 1.3347713
5.9322786 4.1153064 1.3385944
5.9318118 4.1269121 1.339155
5.9212785 4.1313071 1.3301514
5.9267883 4.1402435 1.3278165
5.919735 4.1528974 1.338223
5.8961167 4.1503668 1.3397955
5.9004569 4.1632667 1.330058
5.9030151 4.1726427 1.3364482
5.8980575 4.1795335 1.3292973
5.8901286 4.1985245 1.3380741
5.873085 4.1942086 1.3279573
5.8798528 4.2151551 1.3411781
5.8671699 4.2113099 1.3305337
5.8654718 4.2187276 1.3405735
5.8614273 4.2248559 1.3350228
5.8477783 4.2331419 1.3387055
5.83569 4.251555 1.32706
5.8338532 4.2583246 1.3365703
5.8383951 4.2659473 1.3447598
5.8157749 4.2714624 1.3437365
5.8219199 4.2857666 1.3302017
5.8179369 4.2926836 1.3294264
5.8071632 4.2927728 1.3366265
5.8057342 4.2970319 1.343073
5.7943335 4.3031249 1.3274851
5.7973709 4.3214588 1.3320284
5.7840796 4.3336058 1.3268385
5.7791314 4.3298287 1.3402803
5.7636824 4.3365173 1.3332148
5.756412 4.3465214 1.3435429
5.7481065 4.3686171 1.3400624
5.7462554 4.3726873 1.3353937
5.743618 4.371954 1.3427179
5.7481689 4.3757715 1.3262126
5.7391558 4.3941803 1.3277206
5.7345433 4.4016294 1.339491
5.7144628 4.4018021 1.3353455
5.7091813 4.4230518 1.3393682
5.7173309 4.4148898 1.3420336
5.6984034 4.4255047 1.3266652
5.6897931 4.4338741 1.3453629
5.6976914 4.4464626 1.3401104
5.6809096 4.4624949 1.3261119
5.6714411 4.4691715 1.3279272
5.6654563 4.4729385 1.3401562
5.6609683 4.4782081 1.3318478
5.6682401 4.4895234 1.3357335
5.6513548 4.5016947 1.3328997
5.6384816 4.5081635 1.3339427
5.6482625 4.5018644 1.3376483
5.6426644 4.5131264 1.3417795
5.6357527 4.5184674 1.3305639
5.6235776 4.5332198 1.3274544
5.617393 4.5447073 1.3431035
5.6130133 4.5564251 1.3346105
5.6008511 4.5498805 1.3434864
5.6003699 4.5568442 1.3357859
5.5837636 4.5731707 1.3323737
5.5843124 4.5828824 1.3275561
5.5858932 4.5886455 1.3285743
5.5711689 4.5950909 1.3329972
5.560565 4.6009159 1.3349136
5.5587349 4.6208692 1.3437432
5.5537839 4.6209512 1.33623
5.5444717 4.6229777 1.3326129
5.5466557 4.6391778 1.3346385
5.5377045 4.6412425 1.3358241
5.5210419 4.6530581 1.3455412
5.520957 4.6517901 1.3371843
5.5160432 4.6584826 1.3268133
5.5121374 4.6768398 1.3351194
5.4926434 4.6909938 1.3414916
5.4950552 4.6897287 1.3400666
5.4862857 4.6899352 1.3309823
5.4699926 4.7072625 1.3361925
5.4700718 4.7132168 1.3298792
5.4721656 4.7166748 1.3379164
5.4554343 4.7299356 1.3300639
5.44841 4.7295871 1.3332475
5.4530182 4.7508116 1.3354361
5.4472442 4.7546272 1.3283042
5.4297662 4.7654572 1.3276573
5.4186497 4.7652178 1.3380855
5.4260974 4.7827382 1.3410696
5.4044504 4.7705054 1.333739
5.4080033 4.7849026 1.3447305
5.405232 4.7879553 1.3315564
5.3904877 4.800849 1.3440292
5.3878803 4.8133001 1.3285484
5.3884459 4.8169532 1.3266964
5.3711901 4.8214359 1.3410739
5.3667912 4.8350549 1.338704
5.3617353 4.844182 1.3285266
5.3470974 4.8473926 1.328311
5.355433 4.8556023 1.3283135
5.3364277 4.8540211 1.335173
5.3284035 4.8763356 1.3375543
5.3271947 4.8705835 1.3453076
5.3184485 4.8889122 1.3380003
5.3142109 4.8945045 1.326843
5.3081112 4.9095502 1.3326751
5.2963781 4.9069166 1.344642
5.2822657 4.9059567 1.3382617
5.2779651 4.917099 1.3276267
5.2734385 4.9233274 1.3377455
5.2689042 4.9373116 1.338837
5.2712193 4.9500427 1.3348064
5.2559052 4.9483471 1.3375963
5.2483344 4.9646969 1.3312967
5.2534461 4.9636116 1.3431814
5.2273903 4.9832392 1.3427126
-0.95477039 -4.3748984 1.9594518
-0.94201064 -4.3707619 1.9708909
-0.93877679 -4.3645964 1.9600198
-0.94011468 -4.3725915 1.9608973
-0.92797655 -4.3783884 1.9781623
-0.91330761 -4.3730102 1.95941
-0.9065432 -4.3779302 1.9779997
-0.90134698 -4.3732448 1.9703796
-0.89952868 -4.3812375 1.9724358
-0.89052939 -4.3762445 1.9659638
-0.89772028 -4.3695221 1.9671627
-0.89152861 -4.3761425 1.9738387
-0.873896 -4.385633 1.9680114
-0.86713278 -4.3825679 1.9755117
-0.85949033 -4.3934722 1.9785292
-0.85458124 -4.3758178 1.9682313
-0.84842271 -4.3775101 1.9743104
-0.84367287 -4.3801198 1.9663638
-0.84654146 -4.3870263 1.9717044
-0.82735205 -4.3910503 1.9633096
-0.83463305 -4.3883843 1.9629004
-0.82071346 -4.3856468 1.9771254
-0.82011634 -4.3913989 1.9631057
-0.80534488 -4.396512 1.9733886
-0.80307156 -4.4001079 1.9739958
-0.79777902 -4.4049225 1.973478
-0.80278283 -4.3897076 1.9724793
-0.78170604 -4.3958735 1.9700742
-0.78857428 -4.3910403 1.9619571
-0.77010041 -4.3931518 1.9710017
-0.76001966 -4.40868 1.9638901
-0.7703467 -4.3964262 1.9606845
-0.74644721 -4.4097142 1.9728872
-0.75656599 -4.414371 1.9611284
-0.73640043 -4.4028974 1.9669166
-0.73562616 -4.4122744 1.9690248
-0.73536825 -4.4128008 1.9674739
-0.71610749 -4.4183974 1.9608743
-0.7192505 -4.4170108 1.9602166
-0.71050918 -4.4033003 1.9785476
-0.71272177 -4.4056602 1.9624416
-0.70204467 -4.4045005 1.9596723
-0.69457167 -4.4055963 1.9646896
-0.69489473 -4.4229665 1.9661154
-0.68697518 -4.4263287 1.9600722
-0.67326605 -4.4150758 1.9657003
-0.67744744 -4.4097252 1.9718417
-0.66317832 -4.4112759 1.9734179
-0.65550745 -4.422133 1.9774034
-0.64849293 -4.4304137 1.9761134
-0.64314634 -4.427073 1.9734687
-0.6339044 -4.4192224 1.9729803
-0.62743038 -4.430068 1.9723845
-0.63593793 -4.4274073 1.9753979
-0.62301844 -4.4229984 1.9760201
-0.6161409 -4.4310536 1.9688574
-0.60363412 -4.4294643 1.9679989
-0.60498464 -4.4197822 1.9665345
-0.60475779 -4.4286056 1.9751495
-0.58054423 -4.4365931 1.9764116
-0.57761949 -4.4254131 1.9619335
-0.57733834 -4.4311724 1.9762162
-0.57754451 -4.4366398 1.960555
-0.55834526 -4.4367981 1.9684477
-0.55613136 -4.4302216 1.9616338
-0.5532943 -4.4429536 1.9676406
-0.53761876 -4.4293656 1.9761037
-0.54280078 -4.4433165 1.9751079
-0.52944601 -4.4432297 1.9661384
-0.52747524 -4.4451203 1.9700228
-0.52424127 -4.4302778 1.9659193
-0.51548433 -4.4413476 1.9768806
-0.51244372 -4.438817 1.9631896
-0.50506341 -4.4432826 1.970147
-0.48978928 -4.4517307 1.9644789
-0.48132807 -4.4435391 1.9668682
-0.48685908 -4.4458709 1.963626
-0.48392603 -4.4395838 1.9672049
-0.46198782 -4.4461432 1.9716338
-0.46901816 -4.436933 1.9749267
-0.45216328 -4.4506922 1.9738079
-0.45941088 -4.4418979 1.962357
-0.45569637 -4.4562678 1.9741651
-0.44567192 -4.4494638 1.9622273
-0.42868918 -4.4535918 1.9625527
-0.43737376 -4.4554672 1.9717721
-0.42366818 -4.4490819 1.9793539
-0.41320387 -4.4459734 1.9739077
-0.41915977 -4.4471378 1.9625789
-0.40068603 -4.461544 1.9611279
-0.39891857 -4.4453077 1.9665771
-0.39826909 -4.462533 1.9614708
-0.38906974 -4.4622579 1.9626362
-0.36806157 -4.4581738 1.9712391
-0.37899041 -4.4633231 1.9763379
-0.36959308 -4.4633737 1.9601774
-0.3509756 -4.4559369 1.971009
-0.34477568 -4.4642549 1.9655472
-0.3440212 -4.4647479 1.9595108
-0.33459482 -4.4529877 1.9596492
-0.32661879 -4.4656811 1.9765959
-0.33319288 -4.4639473 1.976881
-0.32487255 -4.4592366 1.977996
-0.31538615 -4.4597411 1.9637413
-0.31729627 -4.4573994 1.9648747
-0.29410693 -4.4518847 1.966486
-0.28707755 -4.4539785 1.9760541
-0.28921598 -4.456099 1.9778157
-0.27681562 -4.4636922 1.959587
-0.27045101 -4.4680867 1.9736123
-0.26394746 -4.4707341 1.9754293
-0.26049671 -4.4661846 1.9594567
-0.25676027 -4.4595447 1.9686625
-0.2519083 -4.4696488 1.9778224
-0.24131052 -4.4678946 1.969775
-0.2495788 -4.4691825 1.9676834
-0.23623535 -4.4696736 1.9639308
-0.23332335 -4.4585357 1.9784821
-0.22864918 -4.4612317 1.9658556
-0.2222034 -4.4637966 1.9692413
-0.20173186 -4.4660931 1.9703777
-0.19944292 -4.4711742 1.9764529
-0.19312614 -4.4587545 1.9695488
-0.19760318 -4.4677191 1.9729122
-0.19291981 -4.4723229 1.9783933
-0.1762836 -4.4714322 1.9629408
-0.18173856 -4.4634356 1.9673431
-0.17094569 -4.458766 1.96322
-0.16560125 -4.4756603 1.9767294
-0.15288296 -4.4723487 1.9679931
-0.15677872 -4.4748049 1.9772713
-0.13953769 -4.4612122 1.9617708
-0.13622111 -4.4675436 1.9789833
-0.11980845 -4.4645925 1.9675158
-0.12003209 -4.4631996 1.9717205
-0.11477438 -4.4714117 1.9770831
-0.10496889 -4.4713216 1.9707004
-0.11076089 -4.4666805 1.9692374
-0.10067584 -4.4629378 1.9711208
-0.097081155 -4.4727197 1.9765483
-0.082222492 -4.472641 1.9597433
-0.078085452 -4.461565 1.9767456
-0.069448836 -4.4734163 1.967623
-0.063599557 -4.4750996 1.9616486
-0.069217615 -4.4632506 1.9772558
-0.050630815 -4.4723887 1.9648306
-0.046681322 -4.4779668 1.972667
-0.049114402 -4.4755816 1.9653069
-0.033010367 -4.4693575 1.9618431
-0.035022866 -4.4657836 1.9687421
-0.031607728 -4.4735975 1.9758562
-0.024997624 -4.4635205 1.9741739
-0.0013851115 -4.4710531 1.9607589
-0.0068952176 -4.4789824 1.9657711
0.0016203469 -4.4787769 1.9627334
0.0057432069 -4.4662309 1.97065
0.017440785 -4.4759827 1.9730726
0.016974766 -4.4744139 1.9779553
0.029148567 -4.4629884 1.9691288
0.037858561 -4.4798226 1.9639335
0.033467591 -4.4794888 1.9709733
0.056190625 -4.4787922 1.9681304
0.057231218 -4.4607306 1.9777863
0.06485679 -4.4744263 1.9595354
0.057494406 -4.4658537 1.9615041
0.067094214 -4.4794054 1.976024
0.084610537 -4.4675074 1.9607888
0.084549405 -4.4623222 1.9671099
0.089370817 -4.471211 1.9648355
0.10536561 -4.4776373 1.9656973
0.09616486 -4.4747014 1.9668545
0.11400366 -4.4752898 1.968661
0.10899931 -4.4610848 1.9684736
0.11365075 -4.4655013 1.9745258
0.12005106 -4.4635272 1.9690772
0.12841991 -4.4782 1.9699947
0.13130836 -4.4616032 1.9627194
0.13896139 -4.4713144 1.9605296
0.15293527 -4.4624505 1.9693426
0.16463445 -4.4638381 1.9716126
0.15719509 -4.4606724 1.9766926
0.17091255 -4.4659138 1.9610494
0.18643628 -4.4624057 1.9594682
0.18177219 -4.4604917 1.9733185
0.18316004 -4.4584222 1.9689822
0.19909899 -4.4742293 1.9698036
0.19595501 -4.473393 1.9670435
0.20553546 -4.471148 1.9743855
0.21292558 -4.4611735 1.9703958
0.22912839 -4.465744 1.9648142
0.22760075 -4.4639974 1.9621851
0.23115264 -4.4747767 1.9740925
0.23906104 -4.4562759 1.9692777
0.2453877 -4.4686818 1.9661379
0.24556416 -4.4659424 1.9648191
0.26140386 -4.473506 1.9674366
0.25806445 -4.4704552 1.970625
0.27196449 -4.4640656 1.9757843
0.27320606 -4.4565268 1.9706351
0.2904574 -4.4590259 1.9606239
0.28212661 -4.4692926 1.9720587
0.29116613 -4.4622474 1.972405
0.31211254 -4.4535332 1.9709344
0.30824354 -4.4647312 1.9767315
0.32123411 -4.4619908 1.9649328
0.31290531 -4.4696493 1.9652265
0.32719338 -4.4668841 1.968218
0.3246693 -4.4564557 1.9772377
0.34730384 -4.4510226 1.9734261
0.34478852 -4.4545741 1.9667366
0.3522613 -4.4526916 1.9693924
0.3511683 -4.4480047 1.9786974
0.37042084 -4.4486051 1.9763116
0.36820221 -4.4593086 1.9623142
0.37177992 -4.4632549 1.9706345
0.38355824 -4.461762 1.9708655
0.39562953 -4.4522133 1.9734217
0.39069155 -4.4514203 1.9659574
0.39477256 -4.4542227 1.963469
0.41504112 -4.4457712 1.9769632
0.40861934 -4.4560757 1.9718652
0.42485273 -4.4537024 1.9709707
0.43039024 -4.4583044 1.9689835
0.43354118 -4.4513521 1.9757919
0.44269386 -4.4470491 1.9781446
0.440166 -4.4571934 1.9614718
0.45786831 -4.4414921 1.9738208
0.45812592 -4.4569526 1.9664273
0.47091839 -4.4545565 1.9756868
0.48122153 -4.4381142 1.972845
0.48501801 -4.4543161 1.9791366
0.48371553 -4.440506 1.9672313
0.48151776 -4.4473786 1.9701449
0.49733174 -4.4373207 1.9594226
0.49995321 -4.4443283 1.9724069
0.5049265 -4.4400826 1.9746414
0.51322591 -4.4443512 1.9719635
0.51387328 -4.4345789 1.9732022
0.52712625 -4.4382296 1.9762062
0.52963763 -4.4377918 1.9750121
0.54930615 -4.4397712 1.9769675
0.55526531 -4.4292655 1.9720756
0.54931808 -4.4471698 1.9596447
0.5662834 -4.4354715 1.9765974
0.57252532 -4.427361 1.9658587
0.57175046 -4.4404869 1.9786738
0.57320905 -4.4315209 1.9665194
0.59198874 -4.4281149 1.9634279
0.59200603 -4.4376621 1.9759674
0.59502602 -4.430903 1.9682181
0.59685081 -4.4306793 1.9777538
0.60062981 -4.4306998 1.9770507
0.61951578 -4.4228692 1.9776902
0.62596971 -4.4242744 1.969267
0.6293751 -4.4256377 1.9681836
0.64204061 -4.4339743 1.9731959
0.64752007 -4.4270501 1.9663862
0.64084387 -4.4275427 1.9621863
0.65107483 -4.4342141 1.9676346
0.65384418 -4.4240594 1.9790282
0.66886288 -4.418273 1.9698235
0.67341602 -4.4148998 1.9597675
0.67726469 -4.4188318 1.9767025
0.68175173 -4.4224992 1.971384
0.69781417 -4.4289498 1.9638458
0.692792 -4.4089227 1.9671053
0.69278067 -4.4096017 1.9764148
0.70595837 -4.423142 1.9643488
0.71493483 -4.4126348 1.9647204
0.72935808 -4.4055409 1.9743465
0.7351737 -4.4096098 1.9688503
0.73178309 -4.4153051 1.9658097
0.73833513 -4.4033298 1.9779115
0.74182069 -4.4130454 1.9654109
0.75998652 -4.4128747 1.9655164
0.75061256 -4.4039001 1.9646976
0.76449668 -4.4011106 1.9622389
0.76768887 -4.4113154 1.9652708
0.77881348 -4.3987145 1.9778317
0.79030824 -4.3978596 1.9765003
0.79142761 -4.3973565 1.9701053
0.78704917 -4.4064112 1.9770114
0.79962873 -4.3950782 1.9748801
0.80430847 -4.4064236 1.9620124
0.81648612 -4.4057655 1.9682863
0.8087678 -4.4006424 1.9624962
0.82022887 -4.387794 1.9784489
0.82922977 -4.3979115 1.9631413
0.84126085 -4.4030609 1.979371
0.84585142 -4.3828707 1.9753832
0.84910887 -4.3877139 1.9708169
0.84596974 -4.3830876 1.9761065
0.86973506 -4.3920326 1.9716305
0.87136739 -4.3824463 1.9747019
0.88013035 -4.3868299 1.9773158
0.87516546 -4.385077 1.9639291
0.88440877 -4.3780079 1.9622576
0.88960302 -4.3880796 1.9693273
0.89948809 -4.372262 1.9700978
0.90560114 -4.3779926 1.9699003
0.9077245 -4.3866038 1.9636921
0.92527992 -4.3844905 1.9609343
0.92812318 -4.3847456 1.9680477
0.92648852 -4.3695016 1.9635544
0.92792356 -4.3716259 1.9734763
0.93197078 -4.3648443 1.9639409
0.94262934 -4.3749475 1.9602562
0.95161474 -4.3659821 1.9652724
0.967668 -4.3732562 1.9648708
0.96448982 -4.3605399 1.977494
0.98111224 -4.3718209 1.9602534
0.9715246 -4.3716655 1.963865
0.9791773 -4.3547845 1.9659512
0.99394155 -4.3656535 1.9620029
1.0042106 -4.3612018 1.9746435
1.0043995 -4.3588142 1.97277
1.0150511 -4.3518786 1.9594893
1.0220162 -4.3620658 1.9738613
1.0139954 -4.3623061 1.9596381
1.0255711 -4.3518295 1.9768016
1.029768 -4.3508329 1.9613458
1.0367223 -4.3455253 1.9646983
12.454512 -0.9057287 0.11310433
12.048819 -0.84233612 0.20305373
11.873775 -0.81701976 0.24565598
11.673053 -0.7862972 0.30080605
11.471037 -0.7711494 0.3389118
11.287365 -0.7257517 0.37737438
10.892869 -0.6906544 0.469531
10.696596 -0.67035198 0.52569956
10.506283 -0.63233989 0.56212175
10.312928 -0.61907864 0.6188336
10.314301 -0.6053381 0.61984807
10.323855 -0.58990479 0.6190989
10.312851 -0.57636636 0.61321867
10.319185 -0.55034214 0.60815454
10.315406 -0.53306431 0.60887307
10.324468 -0.52612978 0.60616535
10.326728 -0.50589472 0.61773264
10.330638 -0.48847249 0.6021328
10.325451 -0.48784885 0.61761701
10.331423 -0.46701044 0.61997622
10.328842 -0.44565707 0.62168521
10.327256 -0.43558562 0.60443556
10.324902 -0.41733462 0.60633123
10.336645 -0.41354582 0.61985695
10.323306 -0.39431313 0.61626518
10.330664 -0.38677472 0.6052115
10.335295 -0.35771206 0.61999547
10.331472 -0.34545642 0.61780322
10.33203 -0.33908325 0.62183523
10.328053 -0.32741436 0.61230522
10.326414 -0.31898186 0.6097272
10.326464 -0.29277125 0.60281849
10.329244 -0.28953177 0.61975765
10.333899 -0.27514365 0.6060816
10.332061 -0.25467107 0.61723357
10.326611 -0.22739553 0.62151831
10.330086 -0.21602482 0.62045944
10.328325 -0.20899159 0.61724913
10.324352 -0.20189576 0.60600424
10.324391 -0.17925313 0.61201984
10.334881 -0.15870453 0.61205882
10.342772 -0.15854102 0.6038987
10.343733 -0.13601226 0.60456783
10.341614 -0.12922259 0.60521412
10.325799 -0.10464632 0.61192161
10.341115 -0.085875295 0.61149269
10.340696 -0.083963178 0.60802209
10.339199 -0.064126015 0.61717188
10.334471 -0.048556078 0.61900425
10.338477 -0.033221427 0.60906559
10.32848 -0.027652111 0.60526145
10.3385 -0.01442612 0.60720646
10.357591 0.001461102 0.69278914
10.360078 0.03314608 0.69522285
10.343191 0.048842028 0.68781763
10.352991 0.059700858 0.68476802
10.342343 0.070007309 0.68921477
10.348204 0.07870248 0.67908293
10.343194 0.10257603 0.69010496
10.359997 0.11038307 0.68204558
10.346841 0.12813912 0.68513936
10.34986 0.13588317 0.68704283
10.354804 0.14545506 0.68850392
10.349788 0.17752385 0.68720967
10.347184 0.19273581 0.68717098
10.357156 0.1977984 0.68355083
10.539161 0.21609688 0.65197802
10.550484 0.23680466 0.63847923
10.551654 0.25261331 0.63441408
10.543825 0.26535514 0.64371616
10.547917 0.26509142 0.63633472
10.535083 0.28801802 0.64225799
10.54413 0.2960799 0.64331406
10.534619 0.31933606 0.64200008
10.543793 0.34022027 0.64145958
10.532907 0.3513273 0.6515435
10.538382 0.36960739 0.64167386
10.536081 0.37950736 0.63780224
10.540261 0.39089531 0.63502985
10.540356 0.41479325 0.65029037
10.529732 0.42314178 0.65057874
10.531706 0.43903461 0.63908583
10.539583 0.44437522 0.64094734
10.528496 0.46062467 0.65135831
10.536074 0.48648867 0.64794725
10.543091 0.50192851 0.64093763
10.540171 0.50332403 0.63750321
10.527361 0.52292132 0.64926451
10.530659 0.5472216 0.63771027
10.531164 0.55215967 0.63535124
10.526909 0.56703752 0.64663875
10.522923 0.58447385 0.63911784
10.527422 0.59039176 0.64223725
10.533762 0.6058473 0.64690661
10.530494 0.6295265 0.64274138
10.523793 0.64088887 0.63931829
10.530062 0.65001822 0.64259398
10.532877 0.66704488 0.6507712
10.527431 0.6880973 0.64855397
10.530413 0.71040297 0.636581
10.531013 0.70922244 0.64479333
10.522882 0.72484404 0.63575035
10.527207 0.74577475 0.6379348
10.514633 0.75387621 0.64088553
10.526708 0.7795592 0.65282732
10.514596 0.77941269 0.6414445
10.519041 0.806427 0.64450532
10.506742 0.8171677 0.64990842
10.522598 0.82339609 0.64168078
10.516217 0.85355794 0.64107698
10.517843 0.8652941 0.64461213
10.507661 0.86989212 0.64908981
10.508415 0.899831 0.63982052
10.511333 0.8982302 0.64397633
10.517182 0.92975903 0.63914037
10.514952 0.93025219 0.63948458
10.501318 0.95628655 0.65217131
10.510725 0.97113782 0.64092851
10.505515 0.98298317 0.64124537
10.492056 0.98960531 0.63705701
10.497973 0.99903125 0.64993942
10.507405 1.0194733 0.65275609
10.501294 1.0418885 0.65084952
10.485893 1.0484612 0.65268183
10.494628 1.0621421 0.65138429
10.498507 1.0748731 0.63592309
10.482709 1.0952711 0.65184116
10.499578 1.1063972 0.64795732
10.485182 1.1336542 0.64126754
10.491084 1.1488146 0.64655036
10.492777 1.1512744 0.64661163
10.681287 1.1860497 0.60865045
10.678607 1.2149272 0.60227972
10.674001 1.2298477 0.60784018
10.671206 1.2349669 0.59244198
10.667092 1.2454488 0.59513718
10.667498 1.2616377 0.60359508
10.663799 1.2762202 0.6085456
10.656197 1.2979535 0.60612208
10.661883 1.3071543 0.60422993
10.652832 1.3196343 0.59017086
10.663822 1.348276 0.59478176
10.660648 1.355896 0.59337711
8.6939535 2.9571362 0.94302779
8.6912041 2.9674265 0.94999141
8.6935492 2.9825759 0.95391721
8.6752815 2.9830506 0.9455601
8.6888723 3.0030987 0.94484276
8.680624 3.0120499 0.94214809
8.4835014 2.9560282 0.98640352
8.4787331 2.978961 0.99875867
8.4744225 2.9761376 0.99881715
8.4745188 3.0046129 0.99663824
8.4609108 3.0039341 0.9902873
8.2754002 2.9591603 1.0459205
8.2807627 2.9660628 1.0407645
8.2700357 2.9788432 1.0439694
8.2709341 2.989378 1.0351145
8.2711 2.9958446 1.0431085
8.2685547 3.0136719 1.047158
8.0831499 2.9638588 1.0861262
8.0734577 2.9606168 1.0866245
8.0638084 2.9816277 1.0837766
8.0519648 2.9932048 1.0884341
8.0537539 3.0072956 1.0819662
8.0473423 3.010864 1.0908532
8.0557585 3.0278358 1.0809791
7.8647475 2.9610693 1.1339231
7.867579 2.9871612 1.1179844
7.8583889 2.9948869 1.1283489
7.8532329 3.0046835 1.1243781
7.8432107 3.0089056 1.1259085
7.833672 3.0276122 1.1171989
7.6592364 2.9683125 1.1726402
7.6515746 2.9650245 1.1671141
7.6374302 2.9795053 1.173923
7.6521583 2.9865985 1.1664759
7.6369972 3.0095093 1.1698248
7.6309462 3.0193827 1.1683046
7.6289415 3.0242128 1.163555
7.4359488 2.9559617 1.2214717
7.4404092 2.9737 1.2088481
7.4463854 2.9860919 1.2039933
7.4236374 2.9902897 1.2192186
7.432497 3.0109508 1.2204841
7.4158168 3.0216069 1.2055644
7.4259305 3.0311456 1.2070776
7.2279582 2.9558363 1.2646662
7.2340484 2.9722643 1.2576607
7.2186041 2.9908869 1.2648425
7.2183962 3.0020685 1.2652237
7.2122722 3.0018384 1.2529655
7.21351 3.0117271 1.2627271
7.2098794 3.0230248 1.2663203
7.2014599 3.027354 1.2602142
7.0145035 2.9633193 1.2982289
7.0125079 2.9692168 1.2916144
7.0120115 2.9819818 1.2932039
7.0052714 3.0049624 1.3011367
7.0115123 3.0166392 1.2976129
7.004921 3.0122621 1.2951976
6.9986978 3.0259287 1.3024849
7.0002022 3.0450158 1.3095993
6.8125253 2.9667957 1.3417747
6.8074665 2.9819891 1.3444104
6.796288 2.9942389 1.3488367
6.7992921 2.988625 1.3493735
6.7956686 3.0066614 1.3528937
6.7936215 3.0221169 1.3496193
6.7794938 3.0279863 1.3482518
6.7818294 3.0314515 1.3527435
6.7817364 3.0528936 1.341144
6.5909805 2.9799397 1.3826984
6.5853748 2.9823322 1.3903401
6.5881124 2.9837985 1.3836846
6.5734735 2.9982321 1.3797944
6.5832477 3.0198288 1.3808115
6.5735455 3.0219743 1.3903916
6.5673513 3.0262578 1.3859602
6.5578694 3.0406122 1.3979368
6.567008 3.0415139 1.3839233
6.383709 2.9842031 1.4257213
6.3658285 2.9804087 1.4414172
6.3656716 2.9951479 1.4303164
6.3731441 2.9967771 1.4314982
6.3539486 3.0079319 1.4379359
6.3508501 3.0130389 1.4367985
6.3487563 3.0326345 1.4286404
6.3562307 3.0302391 1.4356055
6.3392611 3.042578 1.4277709
6.3342562 3.0482838 1.4316895
6.1594758 2.9870422 1.4753181
6.1585298 2.9966209 1.4824436
6.1532679 2.9901941 1.4754245
6.1568933 2.9954038 1.4811566
6.1416883 3.0055945 1.4691715
6.1329093 3.0168757 1.4734269
6.1429811 3.0302646 1.4684174
6.1248822 3.0353413 1.472158
6.1337371 3.0476747 1.4793886
6.1147451 3.0592408 1.4834825
5.9451118 2.9687748 1.5261232
5.9499464 2.9885154 1.5259379
5.941895 2.9871507 1.5107461
5.9268126 2.9935796 1.5121901
5.9374514 3.0089841 1.5152565
5.9160929 3.0198019 1.521042
5.9189787 3.0248954 1.5116599
5.9168429 3.0361066 1.5188041
5.9184365 3.0404005 1.5297369
5.9072495 3.0499427 1.5236973
5.9001446 3.0686514 1.5259107
5.89185 3.0763366 1.5195817
5.9033589 3.0801237 1.5236105
5.8996639 3.0929933 1.5257967
5.8774018 3.100678 1.5151217
5.8781948 3.0911922 1.5270046
5.8847618 3.1087916 1.5157269
5.8819351 3.1084664 1.5274123
5.866241 3.1339574 1.5151495
5.8614683 3.1324952 1.5241922
5.8506451 3.1481733 1.5237135
5.8620234 3.1398139 1.5226954
5.8470616 3.1672316 1.5172459
5.8561168 3.1752343 1.5164535
5.8473473 3.1652663 1.5151392
5.9992881 3.273684 1.4723196
6.0115728 3.2799315 1.482724
5.992569 3.287678 1.4846146
5.9852381 3.3040671 1.483814
5.9856329 3.3000321 1.4733746
5.995059 3.3095329 1.4704432
5.983995 3.3347833 1.4709884
5.9719009 3.3294542 1.4707931
5.9743457 3.337574 1.4704489
5.9759865 3.3413296 1.4719907
5.9563012 3.3500452 1.4805205
5.9576039 3.3756042 1.4669255
5.9492993 3.3667288 1.4727106
5.9428735 3.3751042 1.4665252
5.935636 3.388468 1.4679512
5.9379473 3.3958623 1.4705311
5.9373155 3.4168091 1.4700209
5.9372177 3.4102898 1.4758474
5.916913 3.4308548 1.4814662
5.9162521 3.4377122 1.4825194
5.9171219 3.4495471 1.4839736
5.9065099 3.4473591 1.4826789
5.9022913 3.4615526 1.4842072
5.9038463 3.4740183 1.4858161
5.8992047 3.4839554 1.4725003
5.895977 3.4809246 1.4782972
5.8953185 3.4819944 1.4767656
5.8741379 3.50771 1.4804462
5.8787723 3.4978762 1.4764299
5.8690143 3.5121486 1.4710157
5.8602977 3.532069 1.4691879
5.8530245 3.5261674 1.4769303
5.8644447 3.5408485 1.470631
5.8573818 3.5418975 1.4685689
5.8519168 3.5631292 1.4682221
5.8331242 3.565969 1.4766296
6.0066104 3.6747811 1.4340796
5.9919186 3.68572 1.4328629
6.0008955 3.6861629 1.4336178
5.9858441 3.7017293 1.4404572
5.9853673 3.7134719 1.4390363
5.9830508 3.7228451 1.4235394
5.9684649 3.7285542 1.4345566
5.9675684 3.7321274 1.4384624
5.9645982 3.7351737 1.4354464
5.9612694 3.7443774 1.4271237
5.9463367 3.7655351 1.4376898
5.952661 3.7571151 1.4308294
5.9377575 3.7827985 1.4360543
5.9435973 3.7785685 1.4284949
5.9362645 3.799011 1.4243345
5.9274998 3.8022983 1.4412111
5.9232264 3.8161726 1.4354677
5.9099584 3.8143346 1.4249756
5.9005852 3.8147223 1.4292153
5.9081841 3.8369889 1.4343513
5.9074492 3.8495419 1.432345
5.8972683 3.8536503 1.4336262
5.8802161 3.8480973 1.4323051
5.8883772 3.8736377 1.4384761
5.8689675 3.877111 1.436819
5.865386 3.8770959 1.4301858
5.8586698 3.8980961 1.4291708
5.8661981 3.8911285 1.4380693
5.8632236 3.9000988 1.4391146
5.8444772 3.9219911 1.4341927
5.8508554 3.9284828 1.4335976
5.997149 4.039032 1.3850731
6.0026269 4.0492196 1.3866032
5.9867721 4.052937 1.3854699
5.977077 4.0626249 1.3796136
5.985713 4.0741224 1.3855537
5.9677038 4.0843062 1.3843129
5.9686685 4.0874329 1.3879306
5.9585199 4.0930104 1.3923527
5.9494047 4.1052785 1.3905087
5.9553566 4.1093731 1.3870053
5.940701 4.1232877 1.3970155
5.941329 4.128304 1.3888519
5.9234753 4.1431003 1.3960521
5.9244771 4.1538477 1.3845941
5.9196105 4.1588893 1.3962957
5.9206729 4.1715918 1.3898511
5.9004827 4.1709399 1.3982111
5.9038987 4.185833 1.3838345
5.8917255 4.1973152 1.3934199
5.897697 4.2004652 1.3788018
5.8801532 4.2146878 1.3898083
5.8726082 4.2152772 1.3975487
5.8768883 4.2237639 1.3918113
5.8683572 4.2390146 1.3885553
5.8683567 4.2351727 1.3820831
5.8600464 4.2381787 1.3800633
5.8452797 4.2467914 1.38915
5.9965758 4.3795462 1.3410769
5.9956098 4.3912501 1.3400794
5.9842172 4.3947563 1.3540145
5.9781947 4.4065609 1.3539628
5.9831672 4.4166751 1.3462996
5.9758682 4.4169345 1.3389304
5.9628205 4.4345393 1.338627
5.9665051 4.4380322 1.3463054
5.963706 4.4391136 1.3488214
5.9388752 4.4513402 1.3517901
5.94312 4.4630713 1.3444439
5.9430985 4.4599299 1.3404381
5.9220686 4.4715023 1.3515834
5.9149618 4.48317 1.346187
5.9077921 4.4859395 1.3425667
5.9129477 4.5075507 1.3508766
5.9107223 4.5022664 1.3484708
5.8881822 4.5268312 1.3412457
5.8933086 4.5347724 1.3467989
5.88094 4.5440698 1.3362838
5.8715286 4.5438108 1.3492135
5.8747597 4.5497413 1.3507247
5.8739734 4.560863 1.3355395
5.8643208 4.5711117 1.3437616
5.8492603 4.5804353 1.3465017
6.0041761 4.7015228 1.2987916
5.9936142 4.7065153 1.3013825
5.9806352 4.7152467 1.3003131
5.9804192 4.7353954 1.2989684
5.965745 4.7294774 1.2987139
5.9605441 4.7404613 1.3100017
5.9682612 4.7610011 1.2990298
5.9574776 4.7670913 1.3109989
5.9514976 4.769876 1.3050443
5.9337277 4.7839599 1.3002502
5.9386868 4.7857223 1.3080373
5.9197431 4.8034735 1.2924569
5.9233789 4.794807 1.2972574
5.9059339 4.8124976 1.2938652
5.9071321 4.8220992 1.2962228
5.9080648 4.833096 1.3012415
5.9002738 4.838418 1.2984864
5.8814993 4.8395767 1.2935165
5.8746824 4.8613863 1.3030366
5.8818994 4.8520694 1.2983544
5.8643107 4.8743658 1.3071581
5.8544979 4.8843846 1.3054452
5.8490934 4.884716 1.3068076
5.8484778 4.8942919 1.2976123
5.8444591 4.9117665 1.309779
5.8427858 4.9168854 1.3047129
5.8261209 4.9209366 1.2967483
5.8266888 4.9329486 1.3017311
5.8222756 4.9248896 1.3003219
5.8073711 4.9508057 1.3014035
5.8077736 4.9459023 1.2965986
5.796968 4.9579663 1.2936388
5.7844381 4.9714179 1.302847
5.7732596 4.9710574 1.2934765
-0.96367157 -4.3671203 1.9973128
-0.94881761 -4.372313 1.9995966
-0.94513208 -4.3793774 2.0065656
-0.92923552 -4.3772297 1.9973714
-0.93835449 -4.3884892 1.9943384
-0.91982275 -4.3805623 2.0110965
-0.91748565 -4.37745 2.0008085
-0.90319401 -4.3917952 1.9922885
-0.90859908 -4.388504 2.0116739
-0.90468496 -4.3765793 1.9946471
-0.88822514 -4.377152 2.0109353
-0.87693655 -4.3889832 2.0033727
-0.88336253 -4.3832431 2.0100794
-0.8828178 -4.387723 2.0002587
-0.87146538 -4.3874402 2.000495
-0.86314434 -4.3947453 2.0099664
-0.85806346 -4.3858352 2.0038497
-0.84326887 -4.3887572 2.0046785
-0.83699268 -4.4032092 2.0100808
-0.83132935 -4.3998747 2.0086813
-0.82269108 -4.4062095 2.0079746
-0.81776321 -4.4073858 1.9966934
-0.82039618 -4.4011207 1.9923999
-0.81632078 -4.4004455 2.0048661
-0.80206454 -4.3945532 1.9988461
-0.80757052 -4.4064779 2.0067432
-0.80360335 -4.3994608 2.0047641
-0.78575134 -4.40379 2.0010681
-0.78706908 -4.4079862 2.0041165
-0.78298301 -4.412663 2.0116875
-0.76029468 -4.4148474 1.9941034
-0.75831151 -4.4182515 1.9965134
