# .PCD v0.7 - Point Cloud Data file format
VERSION 0.7
FIELDS x y z
SIZE 4 4 4
TYPE F F F
COUNT 1 1 1
WIDTH 1536
HEIGHT 1
VIEWPOINT 0 0 0 1 0 0 0
POINTS 1536
DATA ascii
-0.014156172 3.8614554 1.3251641
-0.0074062925 3.8528354 1.3397396
-0.0083593 3.8631575 1.3336927
-0.020888589 3.8640068 1.3238196
-0.02653287 3.8558404 1.3381658
-0.026554134 3.8650227 1.3278428
-0.032018889 3.8588188 1.3317888
-0.041649725 3.8592374 1.3259836
-0.047532368 3.8672118 1.3382586
-0.061135564 3.857044 1.3338165
-0.069076099 3.8587437 1.3249123
-0.071647108 3.852562 1.3274139
-0.07964249 3.8507955 1.3402714
-0.073684625 3.8618681 1.3340189
-0.077599637 3.8526647 1.339649
-0.087168306 3.8688083 1.3345172
-0.087059692 3.8648551 1.323245
-0.10300496 3.8566391 1.3324627
-0.10475509 3.8679087 1.329733
-0.11423002 3.8509426 1.3369216
-0.10814689 3.8514037 1.3259037
-0.11096774 3.8546615 1.328805
-0.13128667 3.8552911 1.3300484
-0.1387479 3.8672459 1.3224806
-0.13246125 3.8606529 1.3258328
-0.14054431 3.849858 1.3254597
-0.15375888 3.8645384 1.3412722
-0.15824525 3.8486402 1.3290149
-0.15351379 3.8563581 1.3281806
-0.17151164 3.8599672 1.3305413
-0.16232049 3.8550253 1.3335317
-0.16414696 3.852628 1.3399562
-0.18307178 3.8552773 1.3271939
-0.1807528 3.8558304 1.3265774
-0.18600135 3.8480351 1.3395666
-0.18789719 3.8575213 1.341967
-0.19016571 3.8591571 1.3392615
-0.19662137 3.8616705 1.3408788
-0.21533397 3.854279 1.3304427
-0.21488048 3.8542528 1.3238517
-0.21206579 3.8487811 1.3325623
-0.22626011 3.8468454 1.3391269
-0.23402964 3.851347 1.3285995
-0.23456103 3.8435297 1.3388913
-0.2357083 3.8558254 1.3416612
-0.24386594 3.8515863 1.3341984
-0.24962267 3.8504395 1.32866
-0.25808439 3.8481975 1.3259311
-0.26492825 3.8526027 1.3361142
-0.26220772 3.8428209 1.3265824
-0.26607764 3.841213 1.3318974
-0.28123632 3.8507693 1.3356026
-0.28982979 3.8579142 1.3241432
-0.28895023 3.8498855 1.3252075
-0.29777831 3.8460665 1.3389159
-0.30383584 3.8394468 1.3287414
-0.29735556 3.8524265 1.3377836
-0.31641307 3.8423004 1.3249546
-0.31819889 3.8506854 1.3369095
-0.3298009 3.8471456 1.3394686
-0.33093405 3.8450899 1.3408132
-0.32675162 3.8532293 1.3321149
-0.33886328 3.8381281 1.3309702
-0.34243366 3.8492589 1.3422124
-0.34493908 3.8369133 1.3300594
-0.35373536 3.8438616 1.3317175
-0.35270542 3.8426409 1.3267936
-0.3626326 3.8477125 1.3321893
-0.36538792 3.8363476 1.3264235
-0.37618768 3.8387296 1.3375787
-0.38442761 3.8453264 1.3271465
-0.39132223 3.8414533 1.3253294
-0.38691428 3.8308151 1.3288945
-0.40365034 3.8419528 1.3240809
-0.4091433 3.8359303 1.3274201
-0.40678853 3.8464563 1.3382132
-0.42277485 3.8433564 1.3282986
-0.42368421 3.8356724 1.3239763
-0.41919696 3.8305757 1.3288171
-0.42047474 3.8400209 1.3365755
-0.4305965 3.8265674 1.3314738
-0.43114951 3.8315594 1.3230494
-0.45351872 3.8262992 1.3245449
-0.45232207 3.8296413 1.3377434
-0.45593801 3.8328285 1.3254923
-0.45621389 3.8237078 1.3243475
-0.46569574 3.8239369 1.3406905
-0.46509126 3.8285921 1.3299448
-0.46880823 3.8230693 1.3347052
-0.48768333 3.8216026 1.3295211
-0.47879905 3.8353469 1.3315009
-0.49501544 3.8338706 1.3390981
-0.49965531 3.835356 1.3420674
-0.50279874 3.8233685 1.3290188
-0.5127427 3.8330946 1.339805
-0.5149368 3.8278732 1.3421253
-0.51827455 3.8184977 1.3253371
-0.52526826 3.8150532 1.3338739
-0.52300662 3.8132176 1.3375651
-0.53598356 3.8178318 1.3404742
-0.53414363 3.8166537 1.3378201
-0.55032271 3.8245823 1.3343889
-0.55890357 3.8131931 1.3331504
-0.56451404 3.823981 1.3406388
-0.56317198 3.8101451 1.3385751
-0.57104254 3.8194339 1.3320194
-0.57659173 3.8107028 1.3368249
-0.57892805 3.8202949 1.3389302
-0.59272641 3.8174644 1.3399515
-0.58283234 3.8069715 1.3263459
-0.59002793 3.8036323 1.3323289
-0.59987658 3.8094268 1.3270146
-0.61315519 3.8119516 1.3310921
-0.60767114 3.8141766 1.3267467
-0.61469746 3.8030529 1.3293613
-0.62378621 3.8093669 1.3420684
-0.61942947 3.8154387 1.3268555
-0.63026595 3.8044801 1.3420532
-0.63899589 3.805028 1.335246
-0.6467033 3.8007734 1.3387794
-0.64801502 3.7946258 1.3398144
-0.64334244 3.803931 1.3274919
-0.66398287 3.8052573 1.3385499
-0.66054446 3.7973669 1.3326957
-0.66145027 3.8077478 1.3365883
-0.67974001 3.7943363 1.3276725
-0.68532127 3.7905769 1.3257138
-0.68611413 3.801275 1.3336889
-0.69170809 3.7885358 1.3231119
-0.70410776 3.7933807 1.3291879
-0.69297266 3.8022041 1.3300309
-0.70080119 3.8009892 1.3411013
-0.7209509 3.7844214 1.3344277
-0.71004117 3.7965784 1.3408005
-0.72498411 3.7931147 1.3384986
-0.73603314 3.7966449 1.3237369
-0.73599648 3.7798762 1.3261749
-0.73791718 3.7875957 1.3402774
-0.75186121 3.7950008 1.3226148
-0.7563808 3.7752848 1.3307784
-0.75482291 3.7919807 1.3287541
-0.75242049 3.7861238 1.3265109
-0.75894624 3.7853911 1.3287033
-0.77214408 3.7808411 1.3240633
-0.77896762 3.7866194 1.3369778
-0.78809154 3.7866189 1.3344481
-0.79197556 3.7719233 1.3361825
-0.79342008 3.7805741 1.3266766
-0.80076045 3.7805464 1.3256236
-0.80576193 3.7812634 1.3259094
-0.80259818 3.768801 1.3239535
-0.80145711 3.7640018 1.3372102
-0.82255769 3.7779369 1.3308115
-0.8214643 3.7639322 1.3409472
-0.82500917 3.7683606 1.337953
-0.83563793 3.7689204 1.3360571
-0.82879484 3.7708495 1.3405722
-0.84021562 3.7565863 1.3348519
-0.84114069 3.7602329 1.3302251
-0.8631171 3.7641273 1.3274437
-0.864806 3.7564328 1.3333355
-0.86844915 3.7551248 1.3355715
-0.87883383 3.7579606 1.3328931
-0.87561554 3.7671323 1.3373677
-0.88225985 3.7580001 1.3274359
-0.89189667 3.7634783 1.3392363
-0.8834275 3.7610373 1.3341455
-0.89044154 3.7524116 1.3359786
-0.9031741 3.748095 1.3226529
-0.90053171 3.7470348 1.3344234
-0.92066896 3.7495167 1.3397082
-0.91491252 3.7535846 1.3249017
-0.92691827 3.7524955 1.3341545
-0.9216007 3.7398505 1.33381
-0.93180662 3.7457855 1.3255715
-0.93194258 3.7473061 1.3240569
-0.75891536 3.0318861 1.6609046
-0.77134597 3.0255551 1.6508363
-0.76194191 3.0317104 1.657719
-0.76586199 3.0257249 1.6448162
-0.77801013 3.024817 1.6556773
-0.78487188 3.0148787 1.6518959
-0.78653866 3.0181463 1.6483219
-0.79895109 3.0319409 1.653407
-0.79170644 3.0207374 1.6457382
-0.79269868 3.0146041 1.6609085
-0.79520398 3.0253408 1.652615
-0.80041045 3.0278573 1.6590697
-0.8156836 3.0239866 1.6527647
-0.82407248 3.0204029 1.6615651
-0.82536256 3.0088766 1.6505543
-0.81578994 3.014693 1.650708
-0.82999712 3.0030451 1.6552378
-0.82777661 3.0031857 1.6546767
-0.84046942 3.0147705 1.6440324
-0.84082931 3.0095611 1.6483806
-0.8460173 3.0060425 1.6445978
-0.83949721 3.0015125 1.6444693
-0.84652066 3.0059023 1.6616137
-0.85984743 3.0060949 1.656324
-0.86437219 3.0091875 1.6606638
-0.85990596 3.0060408 1.6519811
-0.87528431 2.9928739 1.6528176
-0.86613113 3.0061126 1.6549679
-0.87753737 2.9908419 1.649882
-0.87958622 2.999393 1.6607711
-0.87728506 2.9869363 1.6493326
-0.89876497 2.9851782 1.6545603
-0.90037167 3.0005736 1.6453803
-0.90483218 2.9868174 1.6576008
-0.89458048 2.9927099 1.6541277
-0.89998728 2.9872401 1.6487279
-0.91407502 2.9905622 1.6513867
-0.90732443 2.987206 1.6485157
-0.91842175 2.9766099 1.6516112
-0.91460323 2.9881299 1.644501
-0.91989362 2.9861143 1.646183
-0.93662077 2.9867802 1.6473618
-0.92811841 2.9699988 1.6451963
-0.94879431 2.9729152 1.6505409
-0.93724775 2.9702392 1.6430501
-0.94917238 2.9663107 1.6513678
-0.946495 2.9724469 1.6442913
-0.96115685 2.9694848 1.655148
-0.95868784 2.9795742 1.6567041
-0.97312152 2.9776292 1.6510814
-0.9746635 2.9745393 1.6447501
-0.97452152 2.9588656 1.6603974
-0.97319895 2.975836 1.6605821
-0.97403985 2.9562702 1.6450074
-0.9895342 2.9723892 1.6480867
-0.99251741 2.9607196 1.6485736
-0.98718101 2.9558616 1.6565386
-0.98891914 2.9604743 1.6428888
-0.9997986 2.9516861 1.6606817
-1.00912 2.9525933 1.6578887
-1.0040619 2.956085 1.6533705
-1.0053334 2.9438434 1.6545492
-1.0109555 2.9570475 1.6540748
-1.0163908 2.9535315 1.6554168
-1.017399 2.9586401 1.6542656
-1.0353258 2.9448826 1.6428384
-1.0327636 2.9405768 1.6479526
-1.0422344 2.9386461 1.6590846
-1.0453529 2.9499471 1.6428394
-1.0506766 2.9360359 1.6489179
-1.0587912 2.9312901 1.6599104
-1.0514218 2.929378 1.6600897
-1.0628716 2.9459474 1.6549067
-1.0547937 2.9411826 1.6476474
-1.0653718 2.9395089 1.6469421
-1.077099 2.9240057 1.6539304
-1.0802512 2.9351599 1.6580697
-1.0782872 2.9209366 1.6617408
-1.0851891 2.9276857 1.6581811
-1.0883341 2.9332004 1.6421841
-1.0853983 2.9346876 1.642921
-1.0914679 2.9276292 1.6432314
-1.0973561 2.9132037 1.661602
-1.108425 2.9109371 1.6567047
-1.1067511 2.9221711 1.6516361
-1.1057802 2.9257545 1.6525726
-1.117819 2.9102602 1.6461773
-1.1257161 2.9208024 1.6470782
-1.12994 2.9085128 1.6562535
-1.1377215 2.9171467 1.6524744
-1.1414977 2.9127822 1.6517193
-1.1445348 2.9064121 1.6454481
-1.1472594 2.8982153 1.6462995
-1.151611 2.9030094 1.646438
-1.1408576 2.8935347 1.6593699
-1.1551704 2.909086 1.6574503
-1.1485447 2.8966517 1.6616071
-1.168312 2.9003711 1.6578826
-1.1671761 2.9039152 1.6434505
-1.1768626 2.903724 1.65924
-1.1703259 2.883801 1.6522583
-1.1845419 2.8848827 1.6605054
-1.185027 2.8872797 1.6421605
-1.1846582 2.8893628 1.6502202
-1.1841486 2.8862345 1.6504209
-1.1907047 2.8928263 1.6477946
-1.199178 2.8900745 1.6543612
-1.2034922 2.8915839 1.6462802
-1.2115287 2.8782554 1.6433815
-1.2139947 2.8792644 1.6419359
-1.2206689 2.8708315 1.642217
-1.2143226 2.8722019 1.6452353
-1.2197267 2.8771043 1.6523118
-1.2234731 2.86639 1.6431378
-1.2391577 2.8601978 1.6525077
-1.2346389 2.8714595 1.6501471
-1.2327441 2.8582554 1.6467183
-1.2442802 2.8647425 1.646488
-1.2438951 2.8671961 1.6546237
-1.2464061 2.8511841 1.6454686
-1.2503603 2.8524961 1.6495864
-1.2540307 2.8641503 1.6567861
-1.2546805 2.854394 1.650605
-1.2682514 2.8448822 1.6554323
-1.2709937 2.8436744 1.6557957
-1.2643638 2.8509715 1.6491543
-1.2800918 2.8441472 1.6510483
-1.2792461 2.8497682 1.6611742
-1.2786282 2.8397534 1.6555041
-1.2898721 2.8512042 1.655578
-1.2902685 2.8426745 1.6587256
-1.3065447 2.8344462 1.6552945
-1.2956187 2.8295369 1.6438797
-1.310871 2.8350236 1.6447312
-1.3012935 2.841732 1.6461587
-1.3113501 2.8390319 1.6566726
-1.3080455 2.8245633 1.6421571
-1.3228443 2.8348968 1.655063
-1.3275146 2.8298023 1.6597599
-1.3378525 2.8174155 1.6577189
-1.3281138 2.8285813 1.6489654
-1.3352249 2.8274179 1.6538059
-1.3457644 2.8211241 1.6555651
-1.3477162 2.8235197 1.6446445
-1.3488138 2.8194315 1.6422713
-1.3484812 2.8092229 1.6590426
-1.3576322 2.806253 1.6431953
-1.3612958 2.8124154 1.6595368
-1.372051 2.7978358 1.652645
-1.3581065 2.7968445 1.6552329
-1.3662004 2.8095152 1.6508588
-1.3830451 2.7989955 1.6471983
-1.3750467 2.8018546 1.6591272
-1.3852863 2.8066773 1.65534
-1.3864437 2.7943153 1.6493585
-1.3899717 2.786196 1.6550679
-1.3967257 2.7928336 1.6597122
-1.3993242 2.7997122 1.652429
-1.4055783 2.7797377 1.6524822
-1.3987215 2.7776074 1.653465
-1.4092741 2.7912803 1.6490453
-1.4241982 2.7920024 1.6560382
-1.4227798 2.7846148 1.6478275
-1.4294298 2.7708762 1.6463826
-1.4198642 2.779866 1.6545241
-1.4362773 2.7692113 1.6565001
-1.4269781 2.7756834 1.6470729
-1.4330318 2.7634349 1.646489
-1.446366 2.7688074 1.6479009
-1.4396441 2.7649093 1.6491581
-1.4519365 2.754328 1.646069
-1.4486458 2.7526896 1.6456884
-1.4583594 2.7563336 1.6599119
-1.4562808 2.757189 1.6423938
-1.4556442 2.7514684 1.6558682
-1.4668633 2.7531908 1.660696
-1.4761034 2.748065 1.6540092
-1.4747679 2.7407358 1.6570926
-1.4740134 2.7439196 1.6475726
-1.4918441 2.7376697 1.6561838
-1.4884146 2.7429693 1.6562487
-1.4880713 2.7353981 1.6567154
-1.4881058 2.7419496 1.6428717
-1.4939138 2.7344124 1.6519344
-1.497237 2.7313423 1.6573328
-1.5070827 2.7408805 1.6465151
-1.5120978 2.725003 1.6526388
-1.5237967 2.7342825 1.6535054
-1.5124092 2.7281353 1.6596338
-1.5305388 2.7279735 1.6615952
-1.5200541 2.7150538 1.6509445
-1.5295016 2.7262876 1.6548165
-1.5384793 2.7212939 1.6473387
-1.5412978 2.7142963 1.6544284
-1.5350505 2.7077768 1.6605576
-1.5434018 2.7152095 1.6583399
-1.5425678 2.7014227 1.6423649
-1.5556071 2.6997292 1.6577951
-1.5477767 2.7132127 1.649209
-1.5538149 2.712353 1.6425972
-1.5578885 2.7057614 1.6452073
-1.5726098 2.6935029 1.6611978
-1.5634561 2.696044 1.6543466
-1.581777 2.6995409 1.6426551
-1.5730052 2.6930566 1.6466067
-1.578101 2.6819894 1.6601591
-1.5854115 2.6955216 1.6420977
-1.588694 2.6797767 1.6445212
-1.5965431 2.6756217 1.6426119
-1.592975 2.6891847 1.6420318
-1.5960157 2.6824272 1.6570543
-1.5964432 2.6846986 1.6420176
-1.600877 2.6798708 1.6517266
-1.6121589 2.6804659 1.6471426
-1.6151291 2.673574 1.6582893
-1.6141446 2.6653237 1.6605891
-1.6196043 2.6734979 1.6586466
-1.6231225 2.6621211 1.6431901
-1.6242138 2.6666238 1.6458145
-1.6272112 2.6584198 1.6442432
-1.6307856 2.6508975 1.6581608
-1.6393342 2.6466668 1.6566015
-1.6429163 2.6417184 1.6524712
-1.6567862 2.6492007 1.651198
-1.6552368 2.6374223 1.6453001
-1.6625376 2.6503353 1.6534245
-1.6675352 2.6414914 1.6520004
-1.6544721 2.6328299 1.6614823
-1.6768622 2.6467738 1.6577549
-1.6766247 2.6414142 1.6481166
-1.6779552 2.6361706 1.6532543
-1.6853647 2.626066 1.6564646
-1.6743304 2.6360631 1.6570348
-1.6874231 2.6158714 1.6474011
-1.6817856 2.6209068 1.648308
-1.7020427 2.6223159 1.6444517
-1.6941721 2.6223984 1.6540809
-1.7077223 2.6192122 1.6573827
-1.7117871 2.6173003 1.6569679
-1.6995761 2.6192875 1.6535379
-1.7170001 2.6036024 1.6472141
-1.709283 2.6041625 1.6531401
-1.7183523 2.5994086 1.6514232
-1.726848 2.6052103 1.6518797
-1.724974 2.6002946 1.6597414
-1.7221898 2.5987635 1.6513875
-1.7232584 2.5887413 1.6454962
-1.7346944 2.5888038 1.6588039
-1.7428252 2.5884333 1.6525903
-1.7513673 2.5839021 1.6507592
-1.7433361 2.5855722 1.6556436
-1.7416253 2.5785809 1.6434937
-1.753985 2.5861387 1.6490005
-1.7480582 2.5688157 1.6427249
-1.7616714 2.5769782 1.6539543
-1.7674196 2.5715334 1.6460783
-1.7615181 2.5686247 1.6506109
-1.7815045 2.5578816 1.6576421
-1.7681797 2.5626056 1.6467438
-1.781065 2.5623822 1.6537602
-1.7757778 2.553781 1.6448976
-1.7856029 2.5504785 1.6514996
-1.7875744 2.5584006 1.6481205
-1.7840354 2.5558305 1.6498843
-1.8067687 2.5432248 1.6422819
-1.7982689 2.548445 1.6517105
-1.7976416 2.5431371 1.6607115
-1.8124781 2.54141 1.6614554
-1.8202798 2.5365713 1.6494143
-1.8189765 2.5424075 1.6596457
-1.8106532 2.5370877 1.643777
-1.8311889 2.525496 1.6471118
-1.8251189 2.5354824 1.6608795
-1.8224247 2.5325539 1.6545929
-1.8379627 2.5304351 1.6582214
-1.8410999 2.5203552 1.6495957
-1.8348048 2.5144382 1.6581929
-1.839505 2.5172167 1.6475986
-1.8434577 2.5157223 1.6547064
-1.859448 2.5190561 1.6501958
-1.8452032 2.5142345 1.6429158
-1.8668233 2.5123954 1.6465994
-1.8651053 2.5001404 1.6428298
-1.8696158 2.4940908 1.6586969
-1.8604091 2.4960101 1.6550152
-1.8675705 2.4982958 1.6438286
-1.8833537 2.4903767 1.649305
-1.8705362 2.4812539 1.6601446
-1.8883092 2.4916711 1.6520793
-1.8789709 2.4895873 1.6499424
-1.8941393 2.485234 1.6455835
-1.8965839 2.4827423 1.6419897
-1.8953414 2.4854472 1.6487502
-1.8978648 2.4671159 1.6520749
-1.9045173 2.4814625 1.6599379
-1.9148477 2.472115 1.6527103
-1.916361 2.4704483 1.6601923
-2.0254691 2.6093919 1.581297
-2.0308604 2.6095281 1.575345
-2.024313 2.6024547 1.5699522
-2.0398984 2.6036618 1.5628539
-2.039839 2.6058693 1.5759166
-2.0433691 2.5927606 1.5743418
-2.0401349 2.6005661 1.5770981
-2.0535719 2.5851529 1.5768682
-2.0591419 2.5828397 1.5699627
-2.0519354 2.5824394 1.5640672
-2.0572431 2.5694287 1.5754638
-2.0615542 2.5746472 1.5698408
-2.0718133 2.5700293 1.5799938
-2.0674613 2.5734386 1.5742085
-2.0702033 2.5605156 1.5734899
-2.0798786 2.5676672 1.5625273
-2.0911248 2.5616534 1.5622398
-2.0796103 2.565799 1.5694137
-2.0883219 2.5479672 1.5771539
-2.0839348 2.5609303 1.5673786
-2.1054392 2.55217 1.5674824
-2.0955427 2.5426791 1.575699
-2.1112654 2.5465052 1.5621977
-2.1168308 2.5382559 1.5750102
-2.1081774 2.5308328 1.5778096
-2.1202383 2.5372984 1.570675
-2.1232579 2.5360782 1.5804462
-2.1265607 2.5299282 1.5772878
-2.1226854 2.5186186 1.5792271
-2.1310658 2.515244 1.5770639
-2.1292174 2.5139089 1.5690799
-2.1272609 2.5260098 1.5745496
-2.1370838 2.5059237 1.5667948
-2.1404037 2.5038035 1.5737449
-2.1509068 2.5138643 1.5762312
-2.1586065 2.5153871 1.5681474
-2.1534367 2.4974096 1.5818124
-2.1584911 2.499644 1.5723014
-2.1666999 2.4892647 1.5744598
-2.172965 2.4940114 1.5762274
-2.1613894 2.4841092 1.5796487
-2.1777933 2.4796615 1.5781646
-2.1687233 2.4888852 1.5795928
-2.1874039 2.4782786 1.5819044
-2.1791301 2.4806547 1.5772849
-2.1883655 2.4788127 1.5772016
-2.1856806 2.4656181 1.5621588
-2.1893265 2.4708419 1.5723733
-2.2024791 2.4713259 1.5752361
-2.193469 2.4690094 1.5658783
-2.202687 2.461729 1.5696554
-2.2084792 2.4615009 1.5720273
-2.2157514 2.4537947 1.5666699
-2.221591 2.4508557 1.5737581
-2.2251146 2.4396338 1.5662791
-2.2132533 2.4426157 1.5800196
-2.2214711 2.4317174 1.5636317
-2.2247274 2.4406037 1.5755388
-2.2377646 2.4397638 1.5710058
-2.2279348 2.4313562 1.5672371
-2.2274587 2.4371483 1.5792735
-2.2432008 2.4205616 1.5741721
-2.2365665 2.4201119 1.5644597
-2.2552853 2.4172273 1.5749079
-2.2469118 2.4142196 1.577239
-2.2460127 2.4064693 1.5656613
-2.2513685 2.4138932 1.5662992
-2.253108 2.4014482 1.5789423
-2.2629361 2.399349 1.5738691
-2.2572925 2.3904583 1.5635164
-2.2754133 2.4054184 1.562089
-2.2814932 2.3880064 1.5672125
-2.27267 2.4005942 1.5750285
-2.2735548 2.3778243 1.5631074
-2.2839868 2.3867853 1.5713303
-2.2920833 2.3799975 1.5749594
-2.2917533 2.371202 1.5691735
-2.2907805 2.3840106 1.5741085
-2.2971604 2.3703306 1.5801148
-2.308609 2.3656287 1.5804057
-2.3104057 2.3661366 1.5788364
-2.3136253 2.3638906 1.5630398
-2.311717 2.3537893 1.5630201
-2.3219881 2.3461201 1.5634243
-2.3241758 2.3513317 1.5759879
-2.3181362 2.3517547 1.5649669
-2.3284626 2.3358116 1.5683581
-2.3245707 2.3441401 1.5677701
-2.3357391 2.3293836 1.5767189
-2.3408966 2.3264689 1.5641875
-2.3257587 2.3250432 1.5753902
-2.3321855 2.323679 1.5675775
-2.3344042 2.3274996 1.5728989
-2.3366382 2.3243215 1.5737909
-2.3384633 2.3222234 1.5631388
-2.3477201 2.3094285 1.5761589
-2.3479936 2.3095653 1.5764893
-2.364871 2.3168483 1.5684066
-2.3623321 2.2962122 1.56883
-2.3708396 2.2936637 1.5696059
-2.3718739 2.2894936 1.5722277
-2.3617008 2.3021326 1.5767616
-2.3793356 2.2957842 1.5683969
-2.3716447 2.2904284 1.5801396
-2.3830569 2.2864697 1.5730741
-2.5180626 2.4027386 1.4966199
-2.5272737 2.4154944 1.4834892
-2.5161495 2.3945808 1.5009446
-2.533103 2.3994098 1.501072
-2.5296283 2.3989298 1.5019631
-2.5253725 2.4006102 1.5020009
-2.5384903 2.3956532 1.497999
-2.5470691 2.3762462 1.4909741
-2.5440073 2.3877106 1.5019236
-2.5491982 2.3709385 1.4922489
-2.5414495 2.3752778 1.4959151
-2.5502625 2.3737483 1.4958663
-2.552201 2.3666809 1.4984376
-2.5566792 2.3659925 1.4893764
-2.5610249 2.3521068 1.4833785
-2.5644746 2.3457994 1.4826088
-2.5678816 2.3496926 1.5004344
-2.5752854 2.3483198 1.4824102
-2.5697091 2.3533163 1.4994121
-2.5731781 2.3364253 1.4832081
-2.5863171 2.3305809 1.4949143
-2.5757844 2.3392167 1.4886667
-2.5852957 2.3292017 1.4989316
-2.5922306 2.317992 1.4920931
-2.5882215 2.3257141 1.4949582
-2.5902052 2.3132598 1.4951098
-2.5929537 2.3206668 1.4827529
-2.5978713 2.3039329 1.4926263
-2.6008081 2.3160331 1.491104
-2.6067381 2.3079174 1.4963027
-2.6088667 2.3099105 1.4992738
-2.6192842 2.3056793 1.4945017
-2.8928499 2.5355806 1.3235655
-2.8995752 2.5209868 1.3248247
-2.9131331 2.5336294 1.3374411
-2.9038205 2.5275104 1.3412426
-2.9143505 2.5218599 1.3360946
-2.9172318 2.5145037 1.3378611
-2.9102337 2.5074177 1.3353807
-2.9247525 2.4976037 1.3284417
-2.9340665 2.5088575 1.3271579
-2.9204042 2.4928856 1.3253088
-2.9315078 2.4834402 1.3366257
-2.9337671 2.4907861 1.3374108
-2.934761 2.4880853 1.3349054
-2.9431331 2.4782026 1.3303528
-2.9476979 2.4812894 1.3242264
-2.9574049 2.4649894 1.3348255
-2.9453394 2.4591756 1.322425
-2.9557488 2.4623258 1.3243018
-2.9530914 2.4596386 1.3415287
-2.9717119 2.4540851 1.3268846
-2.9721756 2.4608936 1.3269011
-2.9613168 2.4489026 1.3383744
-2.969667 2.4393716 1.3312625
-2.9805169 2.444917 1.3383881
-2.9759133 2.4293401 1.332726
-2.9774306 2.4274929 1.3348938
-2.9883428 2.4211423 1.3353827
-2.9916496 2.4278076 1.3231612
-2.9930737 2.4205496 1.3323972
-2.9972653 2.4180851 1.3402289
-2.9960949 2.4185648 1.339023
-2.9949021 2.4133053 1.3299849
-3.0022304 2.4030919 1.3355793
-3.0166645 2.4054191 1.3308872
-3.0239673 2.3957348 1.3347911
-3.0169261 2.387912 1.3410257
-3.0277112 2.3925502 1.325092
-3.0180016 2.3772485 1.3400106
-3.0205076 2.3838842 1.3318633
-3.0337715 2.369684 1.325448
-3.0391979 2.3600037 1.3237134
-3.0458243 2.3548598 1.3409252
-3.0414829 2.365726 1.3321342
-3.0515411 2.34549 1.3298858
-3.0462856 2.3412774 1.3421729
-3.0571201 2.3474264 1.3308617
-3.0617139 2.3461046 1.3284178
-3.0622356 2.337801 1.3349062
-3.0678327 2.3302939 1.3322686
-3.0615711 2.3328195 1.3396738
-3.0617187 2.3332095 1.3416463
-3.0635951 2.3302581 1.3227273
-3.0682535 2.3149269 1.3389313
-3.081697 2.3128107 1.3391606
-3.0773828 2.2992167 1.3394433
-3.0807757 2.2980497 1.3301455
-3.0954738 2.2955439 1.3238009
-3.0926094 2.2957654 1.3334324
-3.0832508 2.2936332 1.339841
-3.0965238 2.2809997 1.333064
-3.1023853 2.2914498 1.3309702
-3.1062684 2.2832489 1.3302226
-3.1090643 2.2736087 1.3384461
-3.1156502 2.2737384 1.3288602
-3.1020007 2.2613893 1.3299916
-3.1080625 2.2688487 1.3342717
-3.1234162 2.2648053 1.340366
-3.125108 2.2468154 1.3310065
-3.1171625 2.2413671 1.323844
-3.122802 2.2458234 1.3283815
-3.1352127 2.2475889 1.3277072
-3.1297109 2.2286363 1.3231742
-3.1449509 2.230047 1.333348
-3.1319609 2.2280245 1.3280026
-3.1485507 2.2227981 1.3346637
-3.1440032 2.2146509 1.3331444
-3.1551692 2.2142847 1.3319461
-3.1602347 2.2153552 1.3371269
-3.1546535 2.2074935 1.3412324
-3.1562288 2.197109 1.3341717
-3.1532605 2.1974239 1.3332584
-3.1709602 2.1863446 1.3377789
-3.1731865 2.1831238 1.3281004
-3.1652331 2.1759849 1.3407946
-3.1826189 2.1753416 1.3326615
-3.1733372 2.1623259 1.3407845
-3.1855686 2.1612175 1.3329494
-3.1789923 2.1581109 1.3305967
-3.1872289 2.1636465 1.3247992
-3.1913536 2.1506619 1.3330375
-3.182533 2.1436946 1.3260157
-3.1946194 2.1420705 1.3323441
-3.202179 2.1412563 1.3398849
-3.1994107 2.1314259 1.3247244
-3.2039423 2.127234 1.3333628
-3.1966004 2.1353416 1.3334315
-3.2011294 2.1142297 1.3368422
-3.2134871 2.1227 1.3416008
-3.2081914 2.1059327 1.3363538
-3.2086868 2.1080337 1.3225853
-3.2209377 2.1019423 1.3263167
-3.2202039 2.1067452 1.3328953
-3.2331357 2.0869629 1.3231351
-3.2385201 2.092917 1.3280243
-3.239059 2.0773017 1.3332052
-3.230953 2.0919836 1.3309819
-3.2427719 2.0850861 1.3321387
-3.2311738 2.068774 1.3262615
-3.2348108 2.0606947 1.3281176
-3.2436883 2.0550504 1.3365791
-3.2463281 2.0600793 1.3234576
-3.2452302 2.0487604 1.3396516
-3.2575474 2.0474212 1.34058
-3.2596183 2.0436029 1.3319832
-3.2567937 2.0421453 1.3322958
-3.2687817 2.0316863 1.3318191
-3.2629867 2.032295 1.3289778
-3.2760286 2.0273819 1.3343613
-3.2749412 2.0217056 1.3362063
-3.2719913 2.0100191 1.3369519
-3.2805736 2.018554 1.3272754
-3.2822709 2.0110419 1.3308328
-3.2877679 2.014061 1.337608
-3.2923298 1.9978513 1.3251259
-3.2854824 1.9873018 1.3357509
-3.2983158 1.9875939 1.3404858
-3.2916195 1.9765038 1.3304021
-3.2877579 1.9751886 1.339982
-3.2985065 1.977771 1.3284662
-3.3074036 1.9661072 1.3298485
-3.2955487 1.9686587 1.3243543
-3.3133638 1.9723039 1.3359401
-3.307615 1.9532368 1.3351413
-3.3150847 1.9523859 1.322733
-3.3150299 1.9411545 1.3243794
-3.3243434 1.939855 1.3309258
-3.3289158 1.9480108 1.3309939
-3.3235652 1.9427807 1.3343625
-3.3286285 1.9295481 1.3249329
-3.3252008 1.9301581 1.3284628
-3.3403845 1.9253563 1.3391714
-3.5003459 2.0162661 1.2582684
-3.4895515 2.0046225 1.2428207
-3.4995489 1.9882228 1.2511607
-3.5019479 1.9945854 1.2529117
-3.5026937 1.9943349 1.2580093
-3.516886 1.9922063 1.2559127
-3.5110035 1.9781162 1.2532395
-3.5217457 1.981644 1.2619913
-3.5219104 1.9712743 1.2560142
-3.5185385 1.9683893 1.2499001
-3.524451 1.9674946 1.2485644
-3.5313721 1.9601762 1.2604799
-3.5337341 1.9456354 1.2608945
-3.5277488 1.9514639 1.2525743
-3.5400059 1.9393082 1.2489101
-3.5271585 1.9357144 1.2480276
-3.5364008 1.9207507 1.2579691
-3.5483093 1.9177859 1.2563565
-3.5514591 1.9173902 1.2492959
4.6226873 -4.723259 0.12469563
4.6251402 -4.7178388 0.1368175
4.635282 -4.7032433 0.13188855
4.6343055 -4.6957808 0.1318258
4.6455555 -4.6978769 0.1407508
4.6490283 -4.677547 0.14061369
4.6548109 -4.6735821 0.14259349
4.6610522 -4.6665139 0.13184677
4.6654902 -4.6737905 0.14200862
4.6806684 -4.6551409 0.14279352
4.6792397 -4.6502342 0.12915803
4.6863985 -4.6494651 0.13450967
4.6856694 -4.6451354 0.12801453
4.7000027 -4.6283536 0.14252999
4.7142644 -4.6268854 0.12848847
4.7174416 -4.6284981 0.12830698
4.7204723 -4.6108732 0.12561116
4.7254739 -4.613543 0.14349523
4.7397194 -4.5983024 0.12760544
4.7441177 -4.5944004 0.14385889
4.6177759 -4.4706802 0.2183907
4.629127 -4.4542413 0.20727929
4.6258206 -4.4450216 0.21396406
4.6360102 -4.4479504 0.21088737
4.6407061 -4.4430904 0.22272731
4.6513515 -4.4215169 0.20639351
4.6418066 -4.4233665 0.22111449
4.6495566 -4.4066596 0.20658644
4.6551814 -4.4021435 0.22071134
4.6649075 -4.3996558 0.21214083
4.6708779 -4.3984113 0.21292838
4.671484 -4.3920465 0.22372392
4.6809688 -4.3752089 0.21729916
4.6971297 -4.3743935 0.22149695
4.6902046 -4.3750858 0.20409738
4.7151103 -4.3713269 0.22180547
4.7036729 -4.3632979 0.21118921
4.7269478 -4.3536949 0.21079636
4.7156849 -4.3446345 0.20842794
4.7385383 -4.3320055 0.22204685
4.7328115 -4.3395548 0.21040086
4.7478633 -4.3326383 0.21860228
4.6183243 -4.1987104 0.29700267
4.6175556 -4.1785898 0.28979558
4.620976 -4.1715069 0.29535291
4.6269879 -4.1656213 0.2981174
4.6306987 -4.177268 0.30235025
4.643784 -4.1717253 0.28961694
4.6564679 -4.1635213 0.29936692
4.6467738 -4.1585312 0.29515997
4.6506901 -4.1453252 0.29680917
4.662951 -4.1431165 0.29877192
4.6634045 -4.121109 0.28439417
4.6823616 -4.1257277 0.30370662
4.6741023 -4.1127748 0.30366325
4.6913915 -4.1196494 0.30305809
4.6914358 -4.1086445 0.28435126
4.695704 -4.0903754 0.28472391
4.7072296 -4.0852351 0.28682914
4.7084961 -4.0755925 0.28744489
4.7255468 -4.0678282 0.29477865
4.724237 -4.0735884 0.29782546
4.7248812 -4.064672 0.29637587
4.7311382 -4.0625658 0.30379573
4.7366986 -4.0544772 0.29764858
4.7422061 -4.0348487 0.2980985
4.6076555 -3.9218638 0.38290524
4.6136665 -3.9095883 0.37954938
4.6200414 -3.9115095 0.37478161
4.6285124 -3.897877 0.37309644
4.6375904 -3.8928978 0.37260738
4.6339931 -3.894923 0.37978199
4.6534333 -3.8819895 0.36928916
4.6514149 -3.8684752 0.37431058
4.6568074 -3.8750677 0.3808209
4.656044 -3.8618104 0.38035205
4.6757212 -3.8493085 0.36720046
4.6803083 -3.8562686 0.37989542
4.6815305 -3.8423183 0.36423287
4.6779761 -3.8253524 0.37575877
4.6927271 -3.824755 0.36581215
4.6869802 -3.8131926 0.36738116
4.6883984 -3.8076181 0.37541679
4.6993151 -3.8094811 0.37049225
4.7152438 -3.8113623 0.37249312
4.7176738 -3.7994082 0.38126177
4.7196255 -3.7931693 0.37603527
4.7284164 -3.7877262 0.37734398
4.7298932 -3.7664349 0.3660908
4.7356987 -3.7740631 0.36528391
4.7330203 -3.7722962 0.37854722
4.7403865 -3.7616234 0.37683839
4.7493119 -3.7548695 0.3741619
4.6224322 -3.6288161 0.46296024
4.6142921 -3.626066 0.46343294
4.6281438 -3.6061966 0.44929522
4.6307549 -3.6096766 0.45482466
4.6281309 -3.6096578 0.45921788
4.6468062 -3.5934451 0.4583157
4.6342196 -3.5967011 0.46319115
4.6408167 -3.5878997 0.46323204
4.6606684 -3.576988 0.44733718
4.658802 -3.5623965 0.45157996
4.6542501 -3.5560901 0.46154097
4.6585999 -3.5629928 0.44782218
4.6634135 -3.5611043 0.4475359
4.6740804 -3.5416555 0.45732561
4.6902671 -3.5298731 0.46068314
4.6908383 -3.5244484 0.45379534
4.6904979 -3.5166345 0.45718646
4.695024 -3.5272386 0.46290675
4.6995821 -3.5029969 0.45305967
4.7082357 -3.5056188 0.45131788
4.7211232 -3.4977803 0.44938952
4.7239628 -3.490571 0.45405826
4.7130737 -3.4835184 0.45410866
4.72189 -3.4707596 0.44709387
4.7404861 -3.4667656 0.44534057
4.7424307 -3.4671433 0.46248418
4.7374787 -3.4527948 0.46090689
4.755908 -3.4588444 0.46218401
4.7600489 -3.4452515 0.46115422
4.754333 -3.4479108 0.45094728
4.6183991 -3.3349905 0.54190415
4.6088448 -3.3119154 0.53361356
4.62395 -3.3046079 0.52579993
4.6190968 -3.313354 0.52416229
4.6272197 -3.3083642 0.53992903
4.6335807 -3.2862811 0.52872187
4.6370759 -3.2939925 0.52526033
4.6389847 -3.2881072 0.52913928
4.6421618 -3.2829049 0.5399946
4.6443 -3.2682328 0.54156721
4.6562223 -3.2658327 0.54184085
4.6592045 -3.2576327 0.53876036
4.6738873 -3.2389643 0.53655171
4.6807475 -3.2497773 0.53915465
4.6859608 -3.2370861 0.54029846
4.6869316 -3.2226443 0.5370701
4.6766863 -3.2293081 0.53966874
4.68297 -3.2186551 0.54168457
4.6931243 -3.209408 0.5424282
4.6941242 -3.2025964 0.53136307
4.6966877 -3.1884277 0.53621083
4.6995153 -3.1958323 0.54276478
4.719254 -3.1731009 0.5414871
4.7167745 -3.1680472 0.54289013
4.7168889 -3.1623089 0.5304715
4.7181377 -3.1601191 0.5259757
4.7361488 -3.1526849 0.52829063
4.7367496 -3.1434681 0.53472692
4.739357 -3.1485898 0.52387244
4.7426991 -3.1371946 0.53328526
4.7549663 -3.1277099 0.53031635
4.7520723 -3.1198621 0.53338611
4.755723 -3.1167314 0.53262424
4.7580867 -3.1005268 0.53034693
4.608439 -3.0082228 0.60712028
4.6196284 -2.9997349 0.61961412
4.7799983 -3.0976489 0.53306669
4.7691288 -3.0791636 0.52902967
4.7846856 -3.0824714 0.53327084
4.7893791 -3.0668287 0.542301
4.7834764 -3.0633008 0.53420353
4.7945948 -3.04704 0.52733541
4.808774 -3.0514922 0.53697324
4.8021817 -3.0379353 0.53618491
4.813303 -3.044966 0.54064125
4.8213005 -3.0250032 0.52715683
4.8217826 -3.0225425 0.52931792
4.8155956 -3.0152693 0.54330951
4.8253622 -3.0167468 0.52733225
4.8393602 -2.9978299 0.54033053
4.8423796 -2.9891057 0.53018367
4.9930372 -3.0902967 0.44973093
5.0012069 -3.0846086 0.45802861
4.9990048 -3.0697739 0.45319232
5.0160046 -3.0680702 0.45462835
5.0174508 -3.0626116 0.44932443
5.0054026 -3.0609043 0.45977238
5.0155063 -3.049608 0.45077905
5.0195913 -3.0327601 0.45358747
5.0276895 -3.0261192 0.44858634
5.0287762 -3.0206554 0.445577
5.0397062 -3.0244658 0.45139202
5.0500612 -3.0044186 0.45593366
5.0487041 -3.0108762 0.44834232
5.042501 -3.0046268 0.45548114
5.2153311 -3.0749049 0.38121134
5.2053714 -3.0675933 0.38155082
5.2258492 -3.0744417 0.36619481
5.2173233 -3.0614581 0.3806892
5.231596 -3.0446203 0.37482101
5.2408571 -3.0509298 0.36740738
5.2270989 -3.0305336 0.36916807
5.2391453 -3.0239964 0.36395469
5.2357235 -3.0230212 0.36525664
5.2447 -3.0124438 0.36577499
5.2608051 -3.0108285 0.38266721
5.2625175 -3.003479 0.37960628
5.2645597 -2.9999475 0.38242626
5.4305167 -3.0800421 0.29106525
5.4318032 -3.0791023 0.28914687
5.4272108 -3.0531664 0.29363027
5.4351945 -3.0452435 0.29121521
5.4449282 -3.0495191 0.2880365
5.4494376 -3.0414512 0.29852644
5.4552388 -3.0286312 0.29228121
5.4615474 -3.0239203 0.30033293
5.4647379 -3.0217006 0.28840983
5.4648566 -3.0016332 0.29268807
5.4677849 -2.9990733 0.30035049
5.479229 -2.999527 0.30138838
5.6295247 -3.0769961 0.22090428
5.6436353 -3.0624022 0.22065417
5.6553202 -3.0623429 0.20854628
5.643815 -3.0420318 0.21691804
5.6627889 -3.0401664 0.21051556
5.6555066 -3.0362287 0.22122377
5.6562648 -3.0333264 0.20654544
5.6650891 -3.0145206 0.20432279
5.6781807 -3.0169911 0.21704204
5.6789236 -3.0122116 0.22168383
5.6806931 -3.0021002 0.20936058
5.8439708 -3.0678275 0.14388348
5.8449912 -3.0602744 0.13048723
5.8538923 -3.0484998 0.12953033
5.8511539 -3.0420139 0.14256079
5.8620014 -3.0470617 0.13164504
5.8635459 -3.0355916 0.1357417
5.8704004 -3.0195267 0.13074845
5.8750215 -3.0145886 0.13538297
5.8723497 -3.0131154 0.13688952
5.8943086 -2.9940686 0.14059402
5.8839326 -2.9980452 0.13630578
6.6091428 1.6436214 0.10813599
6.6237922 1.6411946 0.11261754
6.6153007 1.651198 0.11366666
6.6190882 1.6625607 0.10335033
6.6168156 1.6720628 0.10471123
6.600421 1.6823862 0.10191888
6.5991077 1.6991633 0.1015473
6.5948343 1.713822 0.1066144
6.5880713 1.7293732 0.11067028
6.5937796 1.7652103 0.10661008
6.5893021 1.7857687 0.10230391
6.5809889 1.7959933 0.10851194
6.3939147 1.7635578 0.17517468
6.3925848 1.7760358 0.18455578
6.386971 1.7828296 0.19212946
6.3854218 1.788421 0.19169657
6.3887191 1.793859 0.18934965
6.3790078 1.808827 0.18513411
6.376575 1.8146863 0.18498592
6.3825326 1.8286442 0.18993579
6.3844495 1.8303292 0.18694791
6.364367 1.8353189 0.18951048
6.3764954 1.8531027 0.17919198
6.3767285 1.8520083 0.17243829
6.3663306 1.8677639 0.18356881
6.3634939 1.8844465 0.19138439
6.3602118 1.8869151 0.17573509
6.3545709 1.9021735 0.18615454
6.3447018 1.8975128 0.17353736
6.354672 1.9213356 0.18598576
6.3495798 1.9296134 0.1912304
6.3414874 1.9403595 0.17257953
6.3359451 1.945797 0.1828309
6.1642151 1.9001459 0.2616553
6.1616511 1.9003366 0.26881531
6.1502061 1.9202909 0.26378712
6.1665645 1.919576 0.25236043
6.1472616 1.9358449 0.26732871
6.1583662 1.944882 0.26877636
6.1568418 1.946539 0.26519066
6.1477537 1.965766 0.26103044
6.143898 1.9595749 0.25876755
6.1413798 1.9705284 0.25309733
6.1291008 1.9883078 0.26683232
6.1370893 1.9861596 0.25216612
6.1322255 1.9952142 0.26886606
6.1223211 2.0032871 0.25626659
6.1209788 2.014729 0.2513552
6.1145926 2.0199594 0.26690385
6.129642 2.0263612 0.25553635
6.1210938 2.0463827 0.25482628
6.1083736 2.0452685 0.25935948
6.1133785 2.0643675 0.26628426
6.1127014 2.0739315 0.26243043
6.1057477 2.074239 0.26787415
5.929997 2.0331774 0.33236763
5.9251356 2.0240209 0.33784205
5.9276633 2.0363133 0.3462159
5.9252687 2.045023 0.33128157
5.9184103 2.0515971 0.33421424
5.9201736 2.0724504 0.34863761
5.9212151 2.0834224 0.33341986
5.9067783 2.0822506 0.3487784
5.8992548 2.0832641 0.34518197
5.9078655 2.1001983 0.33337826
5.9019094 2.098387 0.33127493
5.9018888 2.1145298 0.33175147
5.887332 2.1160278 0.33626068
5.9011369 2.137969 0.34122363
5.8799963 2.1359024 0.34450901
5.8817768 2.1584601 0.34039983
5.8779693 2.1649325 0.33901891
5.8789325 2.1598525 0.34822613
5.8752427 2.170145 0.33021122
5.8679457 2.1719561 0.34089881
5.8688331 2.1907291 0.34154743
5.8676057 2.1924129 0.33011544
5.8668432 2.202481 0.33196184
5.8705788 2.2093077 0.34753415
5.6872306 2.1528852 0.41137409
5.6792827 2.1660526 0.41101938
5.6872144 2.1784003 0.40893418
5.6737547 2.1747105 0.41357031
5.6694903 2.1903417 0.42030439
5.6672006 2.2016976 0.42065921
5.6755872 2.1969743 0.41160128
5.6646113 2.2140684 0.4160451
5.6621928 2.2134566 0.42237961
5.6616092 2.2196481 0.42736754
5.6565871 2.2376058 0.4128373
5.6568484 2.2506151 0.42355004
5.656744 2.2545667 0.4186902
5.6545434 2.2680795 0.42222452
5.6369681 2.2603612 0.4134782
5.6461153 2.2733965 0.40818015
5.6356072 2.2778728 0.41025543
5.6360297 2.2944393 0.4215259
5.6408849 2.2916636 0.42428985
5.6320639 2.3113921 0.42535487
5.6282201 2.3091969 0.41649145
5.6298347 2.330373 0.41275549
5.6221514 2.3345652 0.42509362
5.6095972 2.3396883 0.42307168
5.6205664 2.3503788 0.42546266
5.6027784 2.3533704 0.41302463
5.5996814 2.3690178 0.41720328
5.4291883 2.2967527 0.4886384
5.4395151 2.3038037 0.49090129
5.4325957 2.3052311 0.50504619
5.4267302 2.3260231 0.48915404
5.4119911 2.3316491 0.48660034
5.4135056 2.3328221 0.50040585
5.4073472 2.344682 0.49150604
5.419157 2.3507633 0.50547266
5.4133468 2.3623195 0.49461147
5.3950882 2.3740528 0.49158302
5.4009976 2.3680382 0.49998996
5.399786 2.3755462 0.48787877
5.4008269 2.3793409 0.48963043
5.3960023 2.4004872 0.50461382
5.3952751 2.4101217 0.49766764
5.391984 2.4045084 0.50434327
5.3824873 2.4159853 0.49533227
5.3840804 2.4225307 0.50486052
5.3796301 2.4265351 0.4984076
5.3643079 2.4355612 0.49615505
5.3659468 2.4537871 0.50035959
5.3559823 2.4541023 0.50454855
5.3538961 2.45877 0.50501311
5.3535514 2.461935 0.49910957
5.3481793 2.4877052 0.49533066
5.3558507 2.4935269 0.49843329
5.3501873 2.4932053 0.50551248
5.3355026 2.4978406 0.49164122
5.3303356 2.5014 0.49428359
5.3387051 2.5130215 0.4984656
5.1584949 2.451133 0.57193738
5.1689057 2.4609976 0.57970226
5.1634955 2.4521918 0.5846628
5.1585398 2.4664679 0.56532121
5.1476703 2.4788086 0.58428723
5.1530123 2.4822683 0.58161724
5.1414466 2.4835222 0.57117277
5.13695 2.4935594 0.57791585
5.1385722 2.5019081 0.58077502
5.142827 2.5021155 0.56781757
5.1312537 2.5119288 0.58408248
5.1345968 2.5155528 0.5830155
5.1256943 2.5371764 0.56595141
5.1217427 2.5372641 0.57597637
5.1184397 2.5499122 0.5711602
5.1140928 2.5513418 0.5826264
5.1070657 2.5646558 0.56817412
5.1095843 2.5569329 0.57659155
5.0988359 2.5743024 0.56619495
5.0909371 2.5794063 0.56884789
5.0900707 2.5964265 0.57416129
5.0854592 2.6002896 0.57595062
5.079771 2.5987601 0.57222033
5.0770087 2.6167989 0.58143932
5.0842614 2.6150641 0.57617319
5.0866885 2.6325219 0.56520832
5.0805717 2.6265023 0.58043391
5.0799923 2.6465607 0.58081836
5.067821 2.6394401 0.5714587
5.0652428 2.6479998 0.58009434
5.0653081 2.6592822 0.57864684
5.0506768 2.6695523 0.57396388
5.0578251 2.6777432 0.58065814
5.0412331 2.6867907 0.5783028
5.0538502 2.6867197 0.56712943
4.8789096 2.6061394 0.64488113
4.8753972 2.6094387 0.65099454
4.8671007 2.6158175 0.65009826
4.8591795 2.6336932 0.65501851
4.8618889 2.6326692 0.66144073
4.8532248 2.6353984 0.65209281
4.8631034 2.6471941 0.6459676
4.84829 2.6498456 0.66099101
4.8401613 2.6596227 0.65802479
4.8496675 2.6657443 0.64795566
4.8479915 2.6829443 0.65685433
4.8455119 2.6802578 0.66225743
4.8291364 2.6929102 0.64724964
4.8318548 2.7012863 0.66333276
4.8194847 2.6960261 0.65161216
4.8135271 2.7057655 0.65584618
4.818212 2.7090569 0.64510649
4.8167624 2.7212172 0.65025407
4.8103271 2.7289405 0.65841961
4.8009162 2.729872 0.64595282
4.8014264 2.7328379 0.64393729
4.7908263 2.7570446 0.65249163
4.8056202 2.7486053 0.6469602
4.7853966 2.766624 0.66307169
4.7812467 2.7760203 0.64719516
4.785367 2.7832172 0.65433526
4.7737122 2.7788663 0.65804929
4.7713084 2.7968423 0.64721149
4.7740426 2.7921689 0.65739042
4.7649331 2.8018796 0.66179919
4.7633481 2.8159056 0.66247773
4.7597375 2.8231452 0.66067201
4.7646723 2.8290017 0.64374149
4.7440667 2.8384671 0.6581493
4.759563 2.8276248 0.6552788
4.7391734 2.844754 0.65293562
4.7459149 2.8540885 0.65957737
4.7363615 2.8648891 0.65753663
4.735961 2.8623033 0.64416909
4.7257299 2.874496 0.65386462
4.5627022 2.7735028 0.72948915
4.5576735 2.788085 0.72717083
4.5708303 2.7915184 0.72407764
4.5670476 2.7982714 0.7238239
4.5576639 2.8044558 0.72610742
4.5454011 2.8141944 0.73890507
4.550786 2.8146279 0.73442811
4.5428038 2.8294702 0.73414779
4.5327721 2.827883 0.72468305
4.5293641 2.8400459 0.74081844
4.5356426 2.8503673 0.7248717
4.5189915 2.8395259 0.73714489
4.5200133 2.8457158 0.72649467
4.5179329 2.8520064 0.73624611
4.5155902 2.8728058 0.72583568
4.5155225 2.8652434 0.73882353
4.5082431 2.8869758 0.72590971
4.4964781 2.8846447 0.74150848
4.5044246 2.8962097 0.72919619
4.5028968 2.908303 0.72272819
4.4974961 2.9106202 0.74026847
4.47614 2.9202402 0.74065977
4.4870481 2.9148448 0.74093884
4.4872975 2.9313407 0.74121219
4.4772892 2.9294741 0.73599392
4.4768624 2.9315288 0.73692775
4.4694142 2.9503024 0.73331416
4.4690437 2.9413176 0.74109542
4.4642634 2.9642942 0.73417306
4.4471622 2.9697673 0.73308104
4.443584 2.9738729 0.7280488
4.4375377 2.9806635 0.72638494
4.4318738 2.9824126 0.73307967
4.4264808 2.9884701 0.73002994
4.4413519 2.9885871 0.73887908
4.4309964 2.9923537 0.7235539
4.4215665 3.0127571 0.7407788
4.428514 3.0168839 0.72280139
4.5751448 3.1240327 0.66304326
4.5627894 3.1347032 0.66109788
4.5493326 3.1259151 0.65705752
4.5508351 3.1352088 0.65361333
4.5506649 3.1429756 0.64572948
4.5371799 3.1494944 0.65772009
4.540637 3.1550388 0.64365065
4.5329342 3.1743901 0.64717621
4.5298977 3.1684825 0.64493972
4.5240769 3.1737022 0.66067016
4.5202699 3.1778307 0.65369546
4.5152416 3.1939454 0.65103126
4.658411 3.3071852 0.57467955
4.6672311 3.3002656 0.5798192
4.6525979 3.317544 0.5663839
4.6500716 3.3257148 0.57313186
4.6395268 3.3217287 0.57909465
4.6349034 3.3344345 0.57808548
4.6337967 3.3485069 0.5848515
4.6304445 3.3411713 0.5705263
4.6228142 3.3544497 0.57402462
4.6281996 3.3671298 0.56733894
4.6109118 3.3772662 0.5813697
4.7643118 3.4893427 0.50343961
4.7541881 3.4830739 0.49484399
4.7506199 3.4988925 0.48793638
4.7537899 3.5087895 0.49056607
4.7429137 3.5186951 0.49943155
4.7310195 3.512135 0.49590605
4.7258816 3.5268726 0.49858779
4.7264094 3.5386386 0.48809755
4.7304268 3.5404577 0.50384343
4.7277489 3.5496664 0.50328827
4.866066 3.659045 0.42130899
4.857861 3.6727645 0.42497474
4.8410516 3.6677709 0.41783437
4.8373246 3.6708126 0.41397288
4.8362184 3.6878521 0.41340584
4.8439679 3.6978805 0.41967428
4.8281827 3.7076633 0.41408285
4.8150697 3.7028759 0.41366655
4.8114572 3.707016 0.40848574
4.8235812 3.7133985 0.42593655
4.9605556 3.8486819 0.33706337
4.9485145 3.8484282 0.3336868
4.9401298 3.856467 0.33855563
4.9445944 3.8658905 0.33971214
4.9251885 3.8593285 0.33116132
4.9252057 3.8656464 0.34589905
4.9314818 3.8813186 0.34368724
4.9121571 3.8890269 0.32996255
4.9124064 3.8982811 0.33366001
5.0514536 4.0192738 0.25848341
5.0437937 4.0227571 0.25780386
5.0457964 4.0395432 0.26997134
5.0244126 4.0332975 0.26328573
5.0278883 4.0368795 0.25913921
5.0125103 4.0464282 0.26155376
5.0085721 4.0613761 0.26341683
5.0193615 4.0679917 0.25409034
5.1506305 4.1967316 0.18707247
5.1453018 4.1952825 0.18100761
5.1436605 4.1943126 0.17464958
5.1253781 4.2112727 0.18474257
5.1264067 4.2158341 0.18459693
5.1195922 4.2246218 0.19118874
5.1060824 4.2225032 0.17435376
5.1084161 4.2306356 0.18006627
5.2409773 4.3645697 0.10848547
5.2380676 4.3852625 0.10749753
5.2092085 4.3918486 0.10015613
5.2053728 4.404808 0.11222771
5.2116203 4.404655 0.10171701
5.1977119 4.4035573 0.11285771
-0.089319274 4.0558949 1.2784151
-0.083096012 4.0627465 1.2862734
-0.087200269 4.058517 1.2900321
-0.11044178 4.060111 1.2784625
-0.10227307 4.0608926 1.2733438
-0.10640814 4.0539026 1.2820646
-0.12526132 4.0633216 1.2874155
-0.12935527 4.0499544 1.2867115
-0.13694273 4.0632591 1.2827337
-0.14518473 4.0454731 1.2830635
-0.13331127 4.051795 1.2736124
-0.15254088 4.0499802 1.2911507
-0.14391188 4.0497017 1.2846047
-0.15152377 4.0518208 1.2798063
-0.17070505 4.047749 1.2759511
-0.17500463 4.0451808 1.2852756
-0.17058308 4.0493989 1.2841958
-0.18081035 4.055162 1.289934
-0.19174121 4.0589762 1.2891698
-0.18664946 4.0601869 1.2908204
-0.20122747 4.0589085 1.2790015
-0.20525624 4.0440388 1.2855848
-0.21174632 4.0434356 1.2721137
-0.22478192 4.0408573 1.2809945
-0.22261547 4.0447345 1.2860434
-0.22430369 4.0499487 1.2887727
-0.23666708 4.0452209 1.2759759
-0.23010984 4.0559011 1.2892061
-0.23781383 4.041286 1.2865223
-0.24628147 4.0573974 1.2853285
-0.25309813 4.0445657 1.2831444
-0.25173306 4.0533395 1.2863857
-0.26378426 4.0412564 1.2893269
-0.26930597 4.0417719 1.2900012
-0.28594631 4.050086 1.2748718
-0.27753714 4.0423446 1.2852836
-0.28639823 4.0478721 1.2913021
-0.28805542 4.045588 1.2883435
-0.29648185 4.0412312 1.2911205
-0.30759153 4.0540371 1.2903675
-0.31989434 4.0456562 1.2771488
-0.31438071 4.04427 1.2730781
-0.32562509 4.0364618 1.2773067
-0.33392757 4.0487604 1.2824402
-0.34155515 4.0500464 1.2762859
-0.34431142 4.0453687 1.2827958
-0.3366552 4.037457 1.2752465
-0.34297985 4.033514 1.2858346
-0.35226229 4.0467706 1.2724949
-0.35876709 4.0345421 1.2723982
-0.3660242 4.0356355 1.2843659
-0.36649916 4.0478663 1.2754003
-0.37104413 4.0344758 1.2790869
-0.39135978 4.0384049 1.2755407
-0.38654116 4.0403285 1.2737569
-0.38787606 4.0451169 1.2877798
-0.40270022 4.0431824 1.2743832
-0.4050729 4.0405426 1.2775437
-0.41685671 4.0342393 1.2744684
-0.42197934 4.02705 1.2796806
-0.42719781 4.0382209 1.2865096
-0.42044777 4.034534 1.2861007
-0.44266251 4.031918 1.2728405
-0.44118965 4.0346022 1.2840568
-0.44326219 4.027719 1.2777516
-0.44711766 4.025115 1.2767978
-0.45694926 4.0332999 1.2744797
-0.46017662 4.0247245 1.2901006
-0.46024257 4.0299768 1.2800047
-0.48338276 4.035717 1.2833136
-0.48130986 4.0218487 1.2783955
-0.49240696 4.020339 1.2904003
-0.48391202 4.0222225 1.280407
-0.48867637 4.0311866 1.273723
-0.50222343 4.023684 1.2807896
-0.50207472 4.0179319 1.2858936
-0.52287877 4.0279527 1.2798315
-0.52599984 4.0203495 1.285851
-0.533499 4.0182829 1.2777873
-0.531093 4.0186782 1.2761364
-0.54537714 4.0267472 1.2812974
-0.54457825 4.0093193 1.2856371
-0.55177355 4.0259848 1.2725568
-0.54896116 4.0234842 1.2891442
-0.55283153 4.0130334 1.2789409
-0.5696342 4.008327 1.2837049
-0.56133181 4.0084119 1.279217
-0.5790903 4.0109696 1.2878611
-0.59082818 4.011621 1.2751819
-0.59062856 4.0202703 1.2836488
-0.59207869 4.020226 1.2809434
-0.58836663 4.0065708 1.2815764
-0.60031366 4.0113087 1.2796491
-0.60533994 4.0044465 1.2760035
-0.61377764 3.9993005 1.2826967
-0.61241728 4.0029373 1.2854817
-0.62629175 4.0004606 1.2891569
-0.62465292 4.0058088 1.2762032
-0.63436872 4.0050011 1.2847219
-0.63676244 4.0099735 1.2827188
-0.65068793 3.9990761 1.2815084
-0.64731759 3.9974689 1.2874873
-0.66331297 4.0094919 1.2790563
-0.66123426 4.0020652 1.2846235
-0.66279995 3.9917753 1.2859126
-0.67767102 3.9884198 1.2917143
-0.68975586 3.996762 1.2759229
-0.67816406 3.9923146 1.286371
-0.69952476 4.0037212 1.2769103
-0.69236529 3.9983029 1.2733293
-0.70720744 3.9845266 1.2797652
-0.70325857 3.999687 1.2855165
-0.71332955 3.9844167 1.2842211
-0.71183002 3.9967887 1.2764368
-0.72476196 3.9931576 1.2793086
-0.73640329 3.9802163 1.2797784
-0.74224156 3.9807496 1.2895517
-0.74386972 3.9784331 1.2758468
-0.75504833 3.9803128 1.2745255
-0.7556861 3.9749076 1.2887706
-0.75990343 3.9802146 1.2902317
-0.75768334 3.975023 1.2878534
-0.76971048 3.985312 1.2912127
-0.78303152 3.9826503 1.2879599
-0.78413528 3.9726055 1.2820995
-0.78236568 3.9764664 1.2843288
-0.80012482 3.9800346 1.2881305
-0.78810894 3.967519 1.2906626
-0.80979645 3.9693677 1.276129
-0.81280375 3.9761198 1.2772523
-0.82156438 3.9641945 1.2847526
-0.82886225 3.9800274 1.288139
-0.81853688 3.9693701 1.2828999
-0.82485044 3.970927 1.2760924
-0.83441514 3.9769139 1.2803409
-0.84983867 3.9702027 1.2895591
-0.84303123 3.9712629 1.283462
-0.85242033 3.9698682 1.2859735
-0.8592757 3.9523134 1.2914656
-0.860663 3.9572773 1.2848493
-0.86092526 3.9590049 1.287455
-0.87368554 3.9589574 1.2870488
-0.88305771 3.9547565 1.277148
-0.87766725 3.9497616 1.2899746
-0.89908248 3.9607198 1.2899663
-0.89624745 3.9617708 1.2844328
-0.90419245 3.9551435 1.2811531
-0.91823274 3.9446402 1.2776799
-0.90975976 3.9527929 1.2778612
-0.91579294 3.9450674 1.2842232
-0.92844057 3.9425879 1.2735373
-0.93848068 3.9528539 1.284036
-0.92892522 3.9392524 1.2915738
-0.9492687 3.9365439 1.275364
-0.93678373 3.937921 1.2913678
-0.94430512 3.9476323 1.2896854
-0.95735824 3.934896 1.2826465
-0.95368916 3.9336152 1.2863826
-0.97349125 3.946301 1.2795572
-0.97311026 3.9384456 1.2863003
-0.98636532 3.943433 1.291865
-0.99030441 3.9238684 1.2890049
-0.75632572 3.0482533 1.6665875
-0.76098043 3.0291905 1.6700584
-0.76184338 3.0280972 1.6762384
-0.76670098 3.0449655 1.6734695
-0.77323949 3.0342615 1.6793118
-0.7868154 3.0327053 1.665228
-0.79665363 3.0368245 1.6651928
-0.79331565 3.0267997 1.6786727
-0.80323309 3.0289929 1.6785178
-0.80758417 3.0327187 1.6801841
-0.81479377 3.0284753 1.6787214
-0.81714672 3.0238008 1.6792785
-0.81602728 3.0224855 1.6798308
-0.80872613 3.0205328 1.6783456
-0.82419223 3.0162606 1.6672565
-0.8338145 3.02263 1.6757177
-0.83751893 3.0233769 1.6694099
-0.84125686 3.0116763 1.6741952
-0.83151329 3.014271 1.6822977
-0.84192288 3.0167258 1.6752555
-0.8506645 3.0161805 1.6651058
-0.86086714 3.0174901 1.671423
-0.85051113 3.0241258 1.677572
-0.85960108 3.0222676 1.6829218
-0.87017459 3.0091462 1.6651585
-0.87183541 3.0106041 1.6749295
-0.86503333 3.0125577 1.6666185
-0.88453734 3.0149717 1.6677835
-0.87925434 3.0113258 1.6727258
-0.88586706 3.0014656 1.6813112
-0.87952018 3.007057 1.6705457
-0.90332133 3.0066373 1.6822902
-0.90080357 3.0007637 1.6818764
-0.89213496 3.0099885 1.6808163
-0.89811486 2.9928265 1.6678525
-0.90185624 2.9981885 1.6775705
-0.91582477 2.9945357 1.6704714
-0.9181025 2.9955606 1.6670216
-0.91921341 2.9860482 1.6811672
-0.93538028 2.994101 1.6666995
-0.92295986 2.9926772 1.679076
-0.94130307 2.9916267 1.6722914
-0.94789994 2.9972668 1.6808978
-0.93490869 2.9957464 1.6799995
-0.94297588 2.9924154 1.6832151
-0.94400489 2.9895105 1.6730748
