# .PCD v0.7 - Point Cloud Data file format
VERSION 0.7
FIELDS x y z
SIZE 4 4 4
TYPE F F F
COUNT 1 1 1
WIDTH 1503
HEIGHT 1
VIEWPOINT 0 0 0 1 0 0 0
POINTS 1503
DATA ascii
-4.0997066 -4.5108991 1.9686061
-4.0894861 -4.5224476 1.9572632
-4.0770068 -4.5210614 1.9530183
-4.0723972 -4.546144 1.9538059
-4.0627828 -4.543004 1.9605166
-4.0554471 -4.5447526 1.962929
-4.0515914 -4.5480056 1.9550332
-4.0383482 -4.5612941 1.9646271
-4.0386806 -4.5736752 1.970426
-4.0331163 -4.5663042 1.9717032
-4.0221648 -4.5694599 1.9701781
-4.0198812 -4.5887141 1.9628276
-4.0089326 -4.5818162 1.9625775
-4.0022216 -4.5966434 1.9629502
-3.9947145 -4.6081991 1.9721596
-4.0004892 -4.5987701 1.9653082
-3.9838436 -4.6118445 1.9608829
-3.9750862 -4.618042 1.9688389
-3.976727 -4.6309471 1.9700749
-3.9725611 -4.62467 1.9643341
-4.0953083 -4.7835784 1.9272979
-4.0911655 -4.7970338 1.9304245
-4.0743651 -4.7859468 1.9260741
-4.0778074 -4.7945619 1.9325129
-4.0608687 -4.8020916 1.9330033
-4.0547128 -4.801825 1.928521
-4.0553999 -4.8113499 1.936554
-4.0405049 -4.8185625 1.9239696
-4.0376458 -4.8338685 1.9240515
-4.0335426 -4.8314691 1.9359728
-4.0151725 -4.8300867 1.9242857
-4.0200477 -4.8512468 1.9248662
-4.0017886 -4.8422999 1.9222478
-4.0078721 -4.8634963 1.9367186
-4.0075092 -4.8544631 1.9293548
-3.9866476 -4.8659902 1.9279431
-3.9902608 -4.8649297 1.9226825
-3.9858332 -4.8757071 1.9358763
-3.9739821 -4.8903656 1.9194214
-5.9690313 -3.0357208 1.9145753
-5.9589591 -3.0554338 1.9117184
-5.951458 -3.0577688 1.903546
-5.9451532 -3.0560093 1.9169213
-5.9462838 -3.0673685 1.9023918
-5.7792687 -2.9837747 1.9430002
-5.7583218 -3.0043781 1.9374337
-5.7647114 -3.0141585 1.9399339
-5.7606277 -3.0194705 1.9341276
-5.7531648 -3.0272171 1.936416
-5.7508945 -3.0269933 1.9507366
-5.7524619 -3.0409558 1.9336871
-5.7368751 -3.051687 1.9426394
-5.7294493 -3.0603955 1.9416817
-5.7286367 -3.0545278 1.9376897
-5.7223425 -3.0811219 1.934678
-5.7277703 -3.0709584 1.939131
-5.5451293 -2.9975309 1.9742075
-5.5337319 -2.9978437 1.979687
-5.5281305 -3.0149171 1.9654703
-5.5402293 -3.0139546 1.9795221
-5.5379972 -3.018805 1.9676503
-5.5328035 -3.0323253 1.97308
-5.5186467 -3.0426879 1.977828
-5.5254369 -3.0565174 1.9764646
-5.5162086 -3.0483432 1.9765218
-5.5099812 -3.0698984 1.9747515
-5.4992895 -3.0667496 1.980557
-5.5058522 -3.0763962 1.9738041
-5.4869251 -3.0846448 1.9777266
-5.3103108 -2.9922168 2.0026956
-5.3116627 -2.9985318 1.9982096
-5.3048754 -3.0038891 2.0079343
-5.3126483 -3.0193367 2.0150213
-5.2956629 -3.0258324 2.0159979
-5.3000302 -3.0273678 2.0128617
-5.2843304 -3.0469549 2.0158772
-5.2903905 -3.0401404 2.0097427
-5.2906346 -3.0641892 2.0016568
-5.2776213 -3.053622 2.013011
-5.2806749 -3.0626554 2.0074863
-5.271091 -3.0772374 2.0030839
-5.2659826 -3.0892401 2.0007551
-5.2711396 -3.0932333 2.0104041
-5.2491989 -3.1044693 2.0009768
-5.2462711 -3.1043115 1.9974276
-5.24647 -3.1127026 2.001699
-5.2436428 -3.131413 2.0001862
-5.2469397 -3.1346369 2.0020204
-5.2383122 -3.1291277 2.0018113
-5.2383204 -3.1509626 1.9999523
-5.2238431 -3.1475139 2.0108893
-5.233758 -3.1632674 2.0171952
-5.2259912 -3.168499 2.0068734
-5.2085657 -3.176121 2.012675
-5.2005572 -3.1851571 2.0059881
-5.1960874 -3.1787436 1.9982574
-5.2073364 -3.1938651 1.9991578
-5.200088 -3.1966555 2.0041692
-5.1909952 -3.2152011 2.0020192
-5.1821012 -3.2181478 2.0053573
-5.175056 -3.23102 1.9994607
-5.1770639 -3.2382202 2.0051212
-5.1727562 -3.2420769 2.0128548
-5.1787596 -3.2529416 2.0002644
-5.1589513 -3.2602413 2.0059299
-5.1658201 -3.2675252 2.005295
-5.1604095 -3.2705221 2.0168183
-5.154088 -3.2707446 2.0128243
-5.142745 -3.2863586 1.9975518
-5.1335425 -3.2975731 2.0065935
-5.1409917 -3.306247 2.0100174
-5.1343274 -3.3014436 2.0134897
-5.1219926 -3.3168566 2.0003469
-5.1219144 -3.322808 2.0035748
-5.1144161 -3.3334963 2.0067327
-5.1212425 -3.335608 2.0098293
-5.1086941 -3.336874 2.0171454
-5.1046119 -3.3563941 2.0114491
-5.1045141 -3.3491564 2.0173428
-5.099679 -3.357311 1.9992191
-5.0857921 -3.3775203 1.9996123
-5.0884709 -3.3756804 2.0119934
-5.0876679 -3.386131 2.0161395
-5.0799975 -3.3811386 2.0015056
-5.0690894 -3.3932931 2.0033484
-5.0750136 -3.3969293 2.0102377
-5.0578313 -3.4126821 2.0030131
-5.0533233 -3.4090283 2.0034139
-5.0545011 -3.4299617 1.9981914
-5.0497756 -3.4307547 2.0119464
-5.0431643 -3.4423656 2.0126181
-5.0361495 -3.441371 2.0022485
-5.0367436 -3.4442978 2.0085411
-5.0331821 -3.4642894 2.006932
-5.0242443 -3.4581175 2.0002677
-5.0134544 -3.4826245 2.01706
-5.0157652 -3.4747136 2.0051856
-5.0052905 -3.4870687 2.0040443
-5.0144057 -3.4853859 2.0090423
-5.0087333 -3.503772 2.0003133
-4.9892964 -3.5003502 2.0070324
-4.9891777 -3.5147274 2.0017991
-4.9794192 -3.5145223 2.0006845
-4.9833584 -3.5355892 2.0066173
-4.9688964 -3.532562 2.0057545
-4.9610891 -3.5435975 2.00741
-4.95648 -3.5418067 2.0039954
-4.9637356 -3.5544138 2.0152376
-4.9521232 -3.5610182 2.0151675
-4.9555025 -3.5668426 2.0037098
-4.9476013 -3.5781317 2.0026653
-4.9329715 -3.594214 2.0142281
-4.9435654 -3.585459 2.0129735
-4.9352641 -3.6055741 1.9976228
-4.9210205 -3.6161683 2.0122635
-4.9276304 -3.6039059 2.0028255
-4.9125743 -3.6119943 2.0021284
-4.9009237 -3.6323082 2.0157673
-4.8980212 -3.6259892 2.009738
-4.8951793 -3.6480389 2.0048132
-4.9037857 -3.6471863 2.0155218
-4.8934269 -3.6567123 2.0170631
-4.8914962 -3.6618502 2.0142677
-4.87081 -3.6637149 1.9982584
-4.8654647 -3.676373 1.998549
-4.8654699 -3.6806879 1.9979892
-4.8549032 -3.6950037 2.016221
-4.8650241 -3.7027352 2.0010116
-4.8614964 -3.6926398 1.9989873
-4.8439889 -3.7047877 2.0017722
-4.8513966 -3.7106371 2.0122612
-4.8280864 -3.7312322 2.0000687
-4.823225 -3.7350099 2.0095756
-4.8211498 -3.7432253 2.0040481
-4.8150749 -3.7512286 2.0126853
-4.8086996 -3.7443795 2.0038235
-4.8028746 -3.7521157 2.0074546
-4.7988086 -3.7551343 2.0101559
-4.8099422 -3.7597964 2.0097468
-4.803091 -3.7721314 2.0039763
-4.7934456 -3.7770641 1.9991366
-4.7933021 -3.7838857 2.0004742
-4.7853413 -3.791055 2.0047991
-4.7678642 -3.8013675 2.0076668
-4.7759056 -3.8108323 2.0092816
-4.7553005 -3.8191588 2.0044887
-4.7635474 -3.8269069 1.9986957
-4.7481542 -3.8358448 2.0166128
-4.7500505 -3.8411818 2.0165889
-4.752347 -3.8449421 2.0109439
-4.7404041 -3.8443408 2.0070729
-4.7332921 -3.8488891 2.0030792
-4.724833 -3.8707795 1.9986079
-4.7120395 -3.8605049 2.0105085
-4.7163696 -3.8835928 1.9996212
-4.7190752 -3.8914061 2.0070767
-4.7065649 -3.8928065 2.0134461
-4.6998382 -3.9041626 1.997532
-4.6951852 -3.9027736 2.002928
-4.690547 -3.9090486 2.0112033
-4.6915445 -3.9087574 2.0067115
-4.676404 -3.9267404 2.0042961
-4.6652479 -3.9216599 2.0066071
-4.6585546 -3.9291906 2.0058022
-4.6599512 -3.946465 2.0085108
-4.6522255 -3.9518685 2.0100007
-4.6570358 -3.9501936 2.0166769
-4.6354675 -3.9672334 1.9985757
-4.6298041 -3.965071 2.0084352
-4.6387358 -3.9837298 1.9985836
-4.6193833 -3.9888551 2.015579
-4.6245131 -3.984318 2.0011401
-4.6120496 -3.9941123 1.9983225
-4.6172657 -4.0027089 2.0145075
-4.6032782 -3.9982076 1.9999434
-4.6065731 -4.0114956 2.0064936
-4.5883689 -4.0151172 2.0012288
-4.5834794 -4.0227027 2.0054264
-4.5766821 -4.0301671 1.9982812
-4.5800166 -4.0321136 1.9989638
-4.5731936 -4.040267 2.0010002
-4.5693665 -4.0591192 2.014045
-4.5599689 -4.0510859 2.0037591
-4.5533805 -4.0738554 2.011332
-4.5505977 -4.0682335 2.0098543
-4.5423703 -4.0715108 2.0015287
-4.5275841 -4.0821977 2.0160139
-4.5380535 -4.0936179 2.0093372
-4.5243168 -4.1038728 2.0016131
-4.5177164 -4.1031022 1.998351
-4.5104241 -4.1011586 2.0133359
-4.5010867 -4.1210461 2.0158615
-4.4986959 -4.1172037 2.0128052
-4.5065823 -4.1324492 2.0133564
-4.486887 -4.1305966 2.0058987
-4.4886603 -4.1462116 2.0015244
-4.4787507 -4.1527424 2.0128167
-4.4743471 -4.1554546 1.9990337
-4.4766116 -4.1501508 2.001333
-4.4665914 -4.1639757 2.0107317
-4.4598246 -4.1762466 2.008395
-4.4580641 -4.1849275 2.0124838
-4.4537692 -4.1769733 2.0067201
-4.4325218 -4.1826701 2.012008
-4.4307146 -4.1944447 2.0054371
-4.436357 -4.1937752 2.0095325
-4.4263644 -4.2089868 2.0133693
-4.4250712 -4.205595 2.0007584
-4.417552 -4.2302756 1.9997082
-4.4077253 -4.2307529 2.0110815
-4.3884912 -4.2302895 2.0164237
-4.3915854 -4.2338996 1.9993174
-4.3905821 -4.2390585 2.0163891
-4.3753338 -4.2488217 2.0139797
-4.3747888 -4.2626386 2.0060031
-4.3608065 -4.2679667 2.0048957
-4.3627205 -4.2691798 2.0147676
-4.3607888 -4.2749863 2.0142145
-4.3514595 -4.2791691 2.0151556
-4.3431716 -4.2794285 2.0017855
-4.3435025 -4.286366 2.0150373
-4.3384824 -4.3023186 2.0108285
-4.3305602 -4.3031969 2.0076027
-4.3255582 -4.3147655 2.000747
-4.3229566 -4.3117352 2.0061991
-4.3083234 -4.3206778 2.0124402
-4.2947893 -4.3374977 2.0035763
-4.2913747 -4.3383579 2.0150056
-4.2885051 -4.3358698 2.0083442
-4.2846856 -4.3510828 2.0075064
-4.2742281 -4.3526244 2.005806
-4.2705107 -4.3551517 2.0142198
-4.2709932 -4.3757715 2.007813
-4.2546935 -4.3774114 2.0158877
-4.2452412 -4.3824816 2.0130336
-4.2503281 -4.3789582 2.0072701
-4.249166 -4.387949 2.0107107
-4.2368593 -4.3995814 1.999307
-4.2331152 -4.3944092 2.0163991
-4.2160244 -4.4114909 2.004277
-4.2197628 -4.4241972 2.0166039
-4.205193 -4.4192758 2.0123854
-4.2022018 -4.4209352 2.0135205
-4.2056093 -4.4324012 1.9989805
-4.2009335 -4.4405298 2.0053265
-4.1791039 -4.4398694 2.0011439
-4.1830297 -4.4441776 2.0139098
-4.163506 -4.4623194 2.0009737
-4.1753783 -4.4628649 1.999132
-4.1501503 -4.472476 2.0061219
-4.1570368 -4.4719901 2.0063105
-4.1515875 -4.4831076 2.0173171
-4.1503491 -4.4774146 2.0125518
-4.1279674 -4.4813185 2.0021992
-4.1201177 -4.4867439 2.009588
-4.1259136 -4.4965453 2.0034993
-4.1158843 -4.5164857 1.9989549
-4.1130805 -4.5231252 2.0021129
-4.1032052 -4.5278664 2.010561
-4.0951638 -4.5336185 2.0152247
-4.1001244 -4.5325027 2.0061927
-4.084888 -4.5321922 2.0118525
-4.0786376 -4.5369058 2.0090055
-4.0771441 -4.5455084 2.0080469
-4.0659957 -4.5525398 2.0074458
-4.06745 -4.5516534 2.0028176
-4.0549855 -4.5670328 2.0040143
-4.0470576 -4.5659118 2.0043285
-4.0359635 -4.5812259 2.0056491
-4.0364132 -4.5748172 2.0069566
-4.0321918 -4.5796957 2.0151103
-4.0169945 -4.5956736 2.0092955
-4.016129 -4.591743 2.0044794
-3.9981031 -4.6126699 2.0167646
-4.0010276 -4.6088071 2.0077133
-4.0045457 -4.6127653 2.0052338
-3.9926841 -4.6306338 2.0130517
-3.9796181 -4.6269565 2.007659
-3.9662299 -4.6385751 2.0126112
-4.0998688 -4.7869725 1.9772806
-4.0836272 -4.7878027 1.9750539
-4.0792246 -4.7998495 1.982482
-4.0806284 -4.7974524 1.9794637
-4.0668406 -4.8034587 1.9811326
-4.0607595 -4.8188272 1.9722697
-4.0637217 -4.8241582 1.9850446
-4.0491557 -4.8240805 1.9655384
-4.0467639 -4.8373976 1.9752878
-4.0297565 -4.8437943 1.9789876
-4.0277896 -4.8419509 1.9697803
-4.0288033 -4.8505597 1.9654728
-4.0120363 -4.8614674 1.9748393
-4.0078335 -4.8604875 1.972314
-4.0066409 -4.8724375 1.9694846
-4.0037718 -4.8650312 1.9769794
-3.9897578 -4.8873205 1.9848262
-3.9829609 -4.8817844 1.9784244
-3.9756625 -4.8806057 1.9843702
-5.9607592 -3.0685456 1.9614993
-5.9588861 -3.0625546 1.9682611
-5.9474916 -3.0827351 1.9515928
-5.7857513 -2.9943216 1.9987719
-5.7817159 -2.9944677 1.9992098
-5.7785044 -3.013685 1.9811432
-5.7677808 -3.0132234 1.9840482
-5.7657347 -3.0313892 1.9910167
-5.7590923 -3.0249026 1.9888185
-5.7530847 -3.0418589 1.9881916
-5.7510486 -3.0549126 1.9899578
-5.734736 -3.0503793 1.9860554
-5.7316508 -3.0587502 1.9903069
-5.7252221 -3.0650682 2.0002615
-5.7225018 -3.0915449 1.998148
-5.7193317 -3.0990155 1.9848887
-5.7142172 -3.0999796 2.0001571
-5.7261868 -3.1031256 1.9853196
-5.7111764 -3.1238682 1.9850228
-5.7183533 -3.1228535 1.9958178
-5.7061458 -3.1240649 1.9816014
-5.6921611 -3.1332366 1.9999543
-5.7020679 -3.1436069 1.9979668
-5.6877117 -3.1518443 1.9976852
-5.6833897 -3.1616671 1.9989452
-5.6811705 -3.1726379 1.9807469
-5.6721992 -3.1828232 1.9895904
-5.6679487 -3.1893179 1.9832882
-5.6785245 -3.1851535 1.9842374
-5.6693859 -3.192528 1.994189
-5.6694412 -3.2120686 1.9909111
-5.663702 -3.2220089 1.9864372
-5.6595988 -3.2262516 1.9995624
-5.6374722 -3.2405448 1.992414
-5.6356158 -3.2349341 1.9833997
-5.6324887 -3.251533 1.9913658
-5.6275487 -3.2636008 1.9970913
-5.6337543 -3.2558689 1.9842609
-5.6262512 -3.2831748 1.9835273
-5.6177878 -3.2858155 1.9833453
-5.6193619 -3.2929957 1.9915426
-5.6042027 -3.2989321 1.9977131
-5.6135068 -3.3052716 1.9875484
-5.6096745 -3.3140016 1.9909912
-5.5929799 -3.3254039 1.9879395
-5.585288 -3.3382182 1.9961772
-5.5896196 -3.3306432 2.0002294
-5.5882149 -3.3538351 1.9998888
-5.5796299 -3.3540959 2.0001116
-5.5717673 -3.350477 1.9855565
-5.5640755 -3.3730259 1.9916775
-5.5681758 -3.3850212 1.9997121
-5.5660949 -3.3909366 1.9892509
-5.5541677 -3.3976469 1.9978967
-5.5587869 -3.3923004 1.9829707
-5.5464468 -3.4039114 1.9830545
-5.5458584 -3.4045136 1.998531
-5.5412073 -3.4283819 1.9986267
-5.5368853 -3.4283464 1.9862659
-5.53233 -3.4451408 1.9853222
-5.5223193 -3.438947 1.9896209
-5.5061765 -3.4615679 1.9897091
-5.5019884 -3.4668326 1.9916601
-5.5082507 -3.464906 1.9946727
-5.505856 -3.4723456 1.9907966
-5.4983773 -3.4922025 1.983068
-5.4908037 -3.4962392 1.9824886
-5.4877429 -3.5004039 1.9857862
-5.4845757 -3.5050366 1.9968575
-5.4737587 -3.5099151 1.998866
-5.4638743 -3.5295939 1.9947932
-5.4696808 -3.5379524 1.9958177
-5.4553885 -3.5469556 1.9992888
-5.4591346 -3.547065 1.9923911
-5.4598575 -3.5496345 1.9857519
-5.4444456 -3.5695901 1.9869466
-5.4367518 -3.5668483 1.9917889
-5.4296265 -3.5659323 2.000144
-5.4391932 -3.5867465 1.9915367
-5.4176779 -3.5816517 1.985715
-5.4141436 -3.5915914 1.9878712
-5.4146714 -3.612267 1.9893188
-5.4141645 -3.6035903 1.9894063
-5.4101753 -3.6236103 1.9970207
-5.3930736 -3.6293144 1.9896948
-5.4026008 -3.6445789 1.9900355
-5.3909225 -3.6371322 1.9807334
-5.3943911 -3.6475534 1.9999557
-5.3894944 -3.6525452 1.9859651
-5.3731947 -3.6610363 1.9846638
-5.3627057 -3.6710179 1.9810102
-5.3700504 -3.686563 1.9842612
-5.355937 -3.6866472 1.983762
-5.3617253 -3.6877992 1.9908091
-5.359889 -3.6969168 1.9997112
-5.3453679 -3.7206392 1.9809008
-5.3304958 -3.7177715 1.9970821
-5.3249154 -3.7234716 1.99038
-5.3201027 -3.7293844 1.9862168
-5.3292694 -3.7441168 1.981086
-5.3197274 -3.7534909 1.9934899
-5.3138289 -3.7553504 1.9978578
-5.3046684 -3.7682476 1.9896435
-5.2959971 -3.772095 1.9877719
-5.3002687 -3.779278 1.9842702
-5.2956271 -3.7771227 1.9845265
-5.2897863 -3.7852883 1.9951235
-5.2877531 -3.7930772 1.9874861
-5.2724123 -3.8012667 1.9813946
-5.2612243 -3.8238475 1.9880219
-5.2751565 -3.8221209 1.9927188
-5.2566748 -3.8197405 1.9829929
-5.2538147 -3.8334553 1.987799
-5.2591591 -3.8437645 1.9961796
-5.2463646 -3.843621 1.9847916
-5.237061 -3.8641226 1.9829661
-5.2274914 -3.86408 1.9803745
-5.2273145 -3.8673112 1.9973865
-5.2147651 -3.8805189 1.9935937
-5.2082963 -3.8878663 1.9945977
-5.2151904 -3.8944836 1.9846981
-5.1973777 -3.9079673 1.9845414
-5.2092805 -3.9039497 1.9980249
-5.1963668 -3.9106448 1.9885467
-5.1950626 -3.9299242 1.9865521
-5.1851363 -3.9252896 1.9913882
-5.1770253 -3.9364848 1.9835922
-5.1714959 -3.9529126 1.999882
-5.1689444 -3.9622104 1.990274
-5.1701751 -3.9704695 1.980621
-5.1503921 -3.9710631 1.9916452
-5.1604986 -3.9792941 1.9964726
-5.1507521 -3.9848881 1.9925971
-5.1475115 -3.9830391 1.9892983
-5.133739 -4.0053668 1.9939842
-5.1219516 -4.0032587 1.990561
-5.1253176 -4.0185404 1.9831914
-5.1164699 -4.013804 1.9866351
-5.1113224 -4.0320373 1.9880142
-5.1157727 -4.0370326 1.9883597
-5.1098661 -4.0477867 1.9953295
-5.0929255 -4.0541983 1.9812787
-5.0911474 -4.0564241 1.9888361
-5.093235 -4.0609818 1.9854368
-5.0786114 -4.0773478 1.9868969
-5.0792918 -4.0675182 1.9976439
-5.0633855 -4.0866561 2.0002801
-5.0548391 -4.0825577 1.9948159
-5.062839 -4.0989332 1.9982741
-5.0494504 -4.1053905 1.9838842
-5.035706 -4.1115828 1.9858804
-5.0349817 -4.1264853 1.9885964
-5.0282989 -4.1252713 1.9962103
-5.0340486 -4.1318164 1.986383
-5.0231876 -4.1294184 1.9872972
-5.0108571 -4.1533923 1.9851412
-5.0077696 -4.147161 1.9909395
-5.0020361 -4.1580939 1.9879203
-5.0017567 -4.1627474 1.9956018
-4.9980097 -4.1797423 1.983894
-4.9886427 -4.1887336 1.9930542
-4.9772701 -4.1827512 1.9943635
-4.9831715 -4.1958451 1.9839308
-4.9614491 -4.2004595 1.9939893
-4.9695449 -4.1999922 1.9934735
-4.9567165 -4.2129836 1.9960036
-4.9460344 -4.2286868 1.9917768
-4.949544 -4.2244658 1.9836208
-4.9360638 -4.2457843 1.9978065
-4.9348917 -4.2491841 1.9819844
-4.9254184 -4.2490554 1.9841503
-4.926775 -4.263402 1.9992698
-4.9068127 -4.2695079 1.9882579
-4.9172735 -4.2797585 1.9995865
-4.897666 -4.2839818 1.9983286
-4.8985648 -4.2812638 1.9910172
-4.896924 -4.2937598 1.9949327
-4.8795009 -4.2956719 1.9899909
-4.8702235 -4.3100195 1.9906441
-4.8667512 -4.3091202 1.9948025
-4.8590918 -4.3246827 1.9859865
-4.8692565 -4.3275461 1.9897124
-4.8642926 -4.3364015 1.994213
-4.8503308 -4.3416815 1.9953345
-4.8450313 -4.3533278 1.9990962
-4.8409801 -4.3518558 1.9924313
-4.8242307 -4.3547354 2.0001171
-4.8235564 -4.3661938 1.9927289
-4.8278146 -4.3743863 1.9978237
-4.81141 -4.385128 1.9906392
-4.8108377 -4.3942404 1.9947054
-4.7990723 -4.3995581 1.9827129
-4.7835712 -4.4059606 1.9886611
-4.7835603 -4.4044614 1.9961171
-4.7824183 -4.4037304 1.9987065
-4.7775059 -4.4250264 1.9895387
-4.7592483 -4.4356604 1.9842535
-4.7532964 -4.4317169 1.994264
-4.7547226 -4.4381375 1.9828272
-4.7510452 -4.4542694 1.9873855
-4.7345428 -4.4559541 1.9895595
-4.7339649 -4.4520073 1.9931357
-4.7253704 -4.458703 1.99702
-4.7308183 -4.4715414 1.9891063
-4.7288013 -4.4894004 1.9886173
-4.7041855 -4.4885178 1.9935175
-4.7087283 -4.4955597 1.9944605
-4.6985469 -4.5028396 1.9860147
-4.6983457 -4.497745 1.9978076
-4.6895723 -4.5151825 2.0001192
-4.6762319 -4.5223355 1.987388
-4.6807079 -4.5351381 1.985237
-4.6615987 -4.5255828 1.9830143
-4.658596 -4.5477214 1.9945693
-4.6634979 -4.5540981 1.9948723
-4.6488795 -4.5421233 1.982656
-4.6493521 -4.5609646 1.9899876
-4.6288729 -4.5559077 1.9966202
-4.6368299 -4.5769415 1.9949188
-4.6329851 -4.5755029 1.9823434
-4.6268201 -4.5870342 1.9891695
-4.6133766 -4.5893602 1.9897383
-4.6020756 -4.598906 1.9863991
-4.592988 -4.6117864 1.987449
-4.5923367 -4.6159153 1.9886413
-4.591373 -4.6117821 1.9883184
-4.5826168 -4.6144862 1.9956552
-4.5665202 -4.6230845 1.9945413
-4.5637822 -4.6260233 1.9988768
-4.5627365 -4.6515088 1.9911251
-4.5542569 -4.6572304 1.9983078
-4.5389428 -4.6559186 1.9896208
-4.5430512 -4.6697245 1.9978356
-4.5304894 -4.660871 1.9996085
-4.5168691 -4.6778026 1.983682
-4.522048 -4.6802168 1.9983094
-4.5075402 -4.6803298 1.9966443
-4.5056872 -4.6908102 1.9927832
-4.5049396 -4.7050247 1.992377
-4.4998474 -4.7046752 1.9928696
-4.4824982 -4.7023368 1.9940161
-4.4779572 -4.711184 1.9828407
-4.4820948 -4.7306471 1.9842163
-4.4580088 -4.7240658 1.9807937
-4.4521408 -4.7303905 1.9867781
-4.4621911 -4.7484279 1.996678
-4.4576049 -4.758502 1.9927856
-4.4346757 -4.7532754 1.9847246
-4.4355984 -4.7538624 1.9887513
-4.4369187 -4.7759266 1.9994208
-4.417738 -4.7672205 1.9987124
-4.4174018 -4.7805614 1.9954318
-4.4082327 -4.7846355 1.9989536
-4.3976793 -4.7912292 1.9953128
-4.3905396 -4.7985682 1.9915948
-4.3974075 -4.8025799 1.9960767
-4.3743663 -4.8086367 1.9967133
-4.3752093 -4.8184037 1.9887956
-4.3641047 -4.815742 1.9865013
-4.3689647 -4.8210578 1.9883431
-4.3631468 -4.8338585 1.9850824
-4.3380289 -4.8329973 1.994663
-4.3361831 -4.8496504 1.986342
-4.3308072 -4.8624411 1.9975909
-4.3290629 -4.8547926 1.9876548
-4.311029 -4.8607202 1.9998515
-4.3085041 -4.8703246 1.9921267
-4.3053346 -4.8874974 1.9807606
-4.2900743 -4.8803 1.9981726
-4.2970996 -4.8847055 1.9963758
-4.2822752 -4.8900447 1.9878761
-4.2707028 -4.8970261 1.9863254
-4.2695413 -4.9089293 1.9942007
-4.2566929 -4.9222336 1.9953543
-4.2525868 -4.9205794 1.9902161
-4.258409 -4.9276848 1.9852004
-4.2520261 -4.9390674 1.9966214
-4.2333593 -4.9340911 1.9969004
-4.2260504 -4.9406734 1.9903988
-4.2213216 -4.9411082 1.9855036
-4.2183809 -4.9535546 1.9812717
-4.2039318 -4.9612727 1.9960518
-4.2110257 -4.9746819 1.9849118
-4.1902356 -4.9821033 1.9864413
-4.1882834 -4.9722877 1.9955894
-4.1914616 -4.975172 1.9835869
19.403992 0.013111078 0.12632395
19.401428 0.039819252 0.13160756
19.403807 0.057020467 0.11670366
19.397966 0.082018778 0.12885512
19.394896 0.12263753 0.12109708
19.387701 0.14366245 0.11390284
19.387272 0.17251007 0.11641233
19.403625 0.20700797 0.12188543
19.393965 0.22046375 0.12828808
19.404711 0.25306711 0.12540074
19.389126 0.2778236 0.11851182
19.401459 0.3000347 0.13126349
19.39904 0.34468073 0.11414886
19.401678 0.36358023 0.11496513
19.396429 0.37954006 0.12933289
19.383385 0.40847442 0.11765853
19.383108 0.43718725 0.127765
19.385305 0.46249744 0.12530291
19.392935 0.4984313 0.1292305
19.38693 0.5254302 0.11869577
19.398003 0.55720216 0.12585232
19.382147 0.58170384 0.12815531
19.379004 0.60421878 0.12804022
19.37871 0.62984306 0.11976118
19.379192 0.65072799 0.12037919
19.394007 0.67911553 0.12286952
19.37711 0.70781142 0.12701146
19.39028 0.73932505 0.1294032
19.380951 0.75912952 0.12066927
19.375511 0.79362732 0.13187569
19.379499 0.81993115 0.12779655
19.370605 0.85115206 0.12116259
19.383978 0.88004154 0.12998818
19.377197 0.90948504 0.11738378
19.382099 0.92029876 0.11861131
19.367582 0.96685034 0.12117466
19.375517 0.97746539 0.12538345
-5.9752116 -3.069834 2.016372
-5.9561372 -3.0823715 2.0052993
-5.9507966 -3.083154 2.0004244
-5.9544187 -3.0994792 2.0121846
-5.9487081 -3.1013896 2.0120192
-5.9459219 -3.1213849 1.9988536
-5.9382224 -3.1144452 2.0161476
-5.9361696 -3.1370561 2.0010669
-5.940104 -3.1411757 2.0032547
-5.9220138 -3.1502118 2.0144105
-5.9242573 -3.1555927 2.0066648
-5.9220538 -3.1662018 2.0147252
-5.9109111 -3.1757851 2.0103412
-5.9046316 -3.1733165 2.0179634
-5.9065809 -3.1894753 2.0120008
-5.9086838 -3.1871972 2.0143626
-5.9039412 -3.2015803 2.0119774
-5.9018927 -3.2182834 2.0152888
-5.8949132 -3.223305 2.0027816
-5.8857346 -3.2346323 2.0095339
-5.8853889 -3.2326102 1.9991941
-5.8727775 -3.2528033 2.0065279
-5.8720937 -3.2462845 2.0125551
-5.875783 -3.2579279 2.0093215
-5.8518381 -3.275974 2.0181932
-5.8538446 -3.2805884 2.0176008
-5.853478 -3.2849362 2.0108769
-5.855485 -3.2917235 2.0156956
-5.8341694 -3.296031 2.0037317
-5.8453493 -3.315671 2.0086734
-5.8297653 -3.3194873 2.0038638
-5.8245101 -3.3352263 2.007081
-5.8319097 -3.3348269 2.0050313
-5.8132706 -3.3426733 1.9995455
-5.8178539 -3.3511434 2.0042145
-5.8135543 -3.3661997 2.012464
-5.8098354 -3.3654802 2.0045543
-5.792829 -3.3713703 2.018039
-5.7909927 -3.3805587 2.0153918
-5.8011088 -3.3855522 2.0012734
-5.786272 -3.3995988 2.0115011
-5.7762337 -3.413038 2.0141459
-5.7829671 -3.4185364 2.0053396
-5.7717385 -3.4300663 2.01683
-5.7659845 -3.4308619 2.0079865
-5.7555504 -3.4320509 2.0122168
-5.7568555 -3.454226 2.0052898
-5.7460589 -3.4641111 2.0005896
-5.7417665 -3.4568872 2.014811
-5.7401099 -3.4645183 2.0121424
-5.7325606 -3.4820628 2.0035243
-5.7347727 -3.4943302 2.009557
-5.7343283 -3.4981034 2.0181749
-5.7226791 -3.5154319 2.0033398
-5.7195287 -3.5118015 2.0157793
-5.7052102 -3.5225434 2.0150933
-5.7066507 -3.539408 2.0002887
-5.6950064 -3.5303047 2.0036495
-5.7080517 -3.541749 2.0022771
-5.6868644 -3.5563884 2.0013101
-5.6883345 -3.568341 2.0108285
-5.6784115 -3.567379 2.0161023
-5.6824446 -3.5708575 2.005619
-5.6778493 -3.5875831 2.0058165
-5.6680775 -3.5860653 2.0176463
-5.6658554 -3.5951476 2.0067301
-5.6643081 -3.6105993 2.0069377
-5.6575541 -3.6193478 2.0042305
-5.6474285 -3.6260931 2.0180535
-5.6386642 -3.6366138 2.0052052
-5.630856 -3.6335785 2.0083652
-5.6335182 -3.6456056 2.0004411
-5.6308956 -3.646662 2.0169854
-5.6187458 -3.6681299 2.0047441
-5.6263871 -3.6648445 2.0019536
-5.6221876 -3.6843662 2.0180068
-5.6088934 -3.687381 2.0065272
-5.5953803 -3.6886933 2.0142109
-5.6045642 -3.7049425 2.0030541
-5.5999136 -3.7175009 2.0092742
-5.5881004 -3.7273355 2.0064201
-5.5731168 -3.7249277 1.9994226
-5.5860457 -3.7250037 1.9992449
-5.5624199 -3.7380471 2.0054686
-5.5710244 -3.7438605 2.0028398
-5.5624089 -3.7506137 2.008544
-5.5577288 -3.769223 1.999081
-5.5445175 -3.7794807 2.0161462
-5.543612 -3.7840941 2.0047956
-5.5338521 -3.7892401 2.0087123
-5.5378613 -3.7877669 2.0106134
-5.524714 -3.796515 2.0027339
-5.5185537 -3.8034079 2.0025823
-5.5125599 -3.8119016 2.0171843
-5.5203314 -3.8342373 2.0137622
-5.5107212 -3.8332055 2.0113695
-5.4953961 -3.8527529 2.0181422
-5.4895234 -3.8443594 2.002425
-5.4865742 -3.8603408 2.0098543
-5.4949656 -3.8718543 1.9998904
-5.4794292 -3.8726797 1.999145
-5.4819808 -3.8856709 2.0173895
-5.4724011 -3.8978255 2.0164716
-5.4629626 -3.8893211 2.0147829
-5.4589114 -3.913934 2.0184743
-5.458272 -3.9142931 2.0109055
-5.4400139 -3.9246943 2.0114899
-5.4349732 -3.9346004 2.0081608
-5.4456387 -3.9269459 2.016536
-5.4288645 -3.9330821 2.0010755
-5.4220433 -3.9490917 2.0124605
-5.415957 -3.9530737 2.0185168
-5.4116158 -3.9729075 2.0000739
-5.4081817 -3.9687448 2.0177832
-5.406426 -3.9859834 2.0185194
-5.4009681 -3.9880457 2.0065291
-5.3830681 -3.9973242 2.0117624
-5.3845739 -4.0070462 2.0147069
-5.3893976 -4.012929 2.0129149
-5.3858361 -4.0275435 2.0125887
-5.3777242 -4.020853 2.0038471
-5.3582172 -4.0336032 1.9987097
-5.3526435 -4.0475497 2.0013173
-5.3455019 -4.0436106 2.0156584
-5.340641 -4.0634737 2.0003238
-5.3350329 -4.0634484 2.0104825
-5.3414049 -4.0711031 1.9989101
-5.3225331 -4.0858536 2.0051553
-5.3207068 -4.0910287 2.0130496
-5.3206615 -4.0982533 2.0138538
-5.3209324 -4.1029878 2.0088644
-5.3099341 -4.1138477 1.9986333
-5.3040633 -4.1247764 2.001956
-5.2955747 -4.1142163 2.0167105
-5.2927341 -4.1244593 1.9990867
-5.2852178 -4.134768 2.0089648
-5.2875328 -4.1371331 1.9986571
-5.2814097 -4.1463213 2.0010598
-5.269031 -4.1593885 2.0057402
-5.2687478 -4.1581259 2.0106406
-5.2476501 -4.1828599 2.0182433
-5.2515316 -4.182332 2.0024149
-5.2456341 -4.1816802 2.0030789
-5.2364035 -4.1982965 2.0017154
-5.232408 -4.1978397 2.017514
-5.2260265 -4.2156448 2.0104005
-5.2297564 -4.2215524 2.0083103
-5.223784 -4.2271352 2.0044124
-5.2153983 -4.2261481 2.0148199
-5.2023225 -4.2306962 2.013854
-5.2043362 -4.2399764 2.0155106
-5.1987367 -4.2589769 2.0050423
-5.1889553 -4.2579293 2.0025659
-5.1785002 -4.2735114 2.0108047
-5.1693978 -4.270968 2.0068235
-5.1644874 -4.2879229 2.0123529
-5.1666803 -4.2944984 1.9992815
-5.1509533 -4.3010015 2.0079257
-5.1391139 -4.3050303 2.0048478
-5.136857 -4.3219047 2.0045035
-5.1355562 -4.3267231 2.0021534
-5.1325889 -4.3318834 2.0080681
-5.1200795 -4.3332138 2.0022874
-5.1100364 -4.35005 2.0081737
-5.1117449 -4.3437562 2.003844
-5.0974245 -4.3585334 2.0097916
-5.0975642 -4.361495 2.0163879
-5.090766 -4.3747315 2.0036962
-5.0953135 -4.3821402 2.0141826
-5.0829287 -4.3933144 2.0149937
-5.0708785 -4.3892198 2.0181768
-5.0611682 -4.4081993 2.003381
-5.0655336 -4.4007215 2.0144284
-5.0556703 -4.4092627 2.0158041
-5.0599103 -4.4255843 2.0106301
-5.04847 -4.4336672 2.017827
-5.0310721 -4.4279819 2.0092015
-5.0270686 -4.4416003 2.0144703
-5.0357466 -4.4458776 1.9994527
-5.0139284 -4.463892 2.0003746
-5.0112891 -4.4559875 2.0124965
-5.0054574 -4.4645147 2.0127356
-4.9944115 -4.4835587 2.0075405
-4.9923081 -4.4789004 2.0008833
-4.9888196 -4.484653 2.0049756
-4.9904952 -4.5051465 2.0080471
-4.9849644 -4.4944329 2.0038574
-4.9680495 -4.5059161 2.0130939
-4.9658556 -4.5122881 2.0050895
-4.9586701 -4.5230622 2.0060983
-4.9505525 -4.5374274 2.0020301
-4.9503036 -4.5322003 2.0164447
-4.9298062 -4.5421767 1.9988167
-4.934494 -4.5563097 2.0128398
-4.9258294 -4.5532231 2.0080941
-4.913063 -4.5580907 2.0098298
-4.9172153 -4.5637164 2.0092454
-4.9055476 -4.5787249 2.0041351
-4.904634 -4.577848 1.9996017
-4.891715 -4.5961027 2.011234
-4.8777781 -4.5925674 2.0154324
-4.8878994 -4.6151204 2.0117795
-4.8835969 -4.6235223 2.0050638
-4.8769126 -4.6229682 2.0111194
-4.8561959 -4.6201158 2.0071571
-4.8602152 -4.6308718 2.0052135
-4.8424897 -4.6321654 2.0045221
-4.8453388 -4.6481862 2.0156908
-4.8332887 -4.6496973 2.0145962
-4.8257627 -4.6647034 2.0020976
-4.8265948 -4.6721959 1.999976
-4.8232193 -4.6762424 2.0021346
-4.8034868 -4.6824288 2.0027151
-4.8104615 -4.6883831 2.0106645
-4.7913709 -4.7000813 2.0082724
-4.7962327 -4.7022705 2.0019209
-4.7830291 -4.7132144 2.0010636
-4.7705078 -4.7134972 2.0109642
-4.7668085 -4.7282286 2.0061231
-4.764194 -4.7219429 2.0130365
-4.7540689 -4.7430077 1.9992088
-4.7460561 -4.7472239 2.0080767
-4.7358756 -4.7582455 2.0174913
-4.7451057 -4.7627869 2.0076759
-4.7263765 -4.7547936 2.0128765
-4.7300305 -4.7782278 2.0025935
-4.7200265 -4.7750325 2.0080636
-4.7108707 -4.7858996 1.9999381
-4.7118053 -4.7796602 2.0037591
-4.6975718 -4.7974086 2.0005345
-4.6964154 -4.7916436 2.0029049
-4.6890779 -4.8044868 2.0077093
-4.672863 -4.8137798 2.0081334
-4.6672244 -4.8189416 2.0106473
-4.6713924 -4.8320236 2.0077772
-4.6503506 -4.8354168 2.008086
-4.6395822 -4.8354735 2.018194
-4.6433353 -4.8530507 2.0040295
-4.6352043 -4.8582478 2.0026898
-4.6232438 -4.8559055 2.0101776
-4.6144986 -4.8591113 2.0099967
-4.6233735 -4.8816919 2.0035295
-4.6074357 -4.8747802 2.0143175
-4.6110644 -4.8889608 2.0064816
-4.5921702 -4.8940496 2.0120931
-4.5961375 -4.9048462 2.0008307
-4.5797868 -4.911633 2.0160213
-4.573319 -4.9089408 2.0001357
-4.561007 -4.9248939 2.0055437
-4.5700254 -4.9156718 1.9997756
-4.5515475 -4.9244995 2.0172741
-4.5532413 -4.9290061 1.9986544
-4.5413933 -4.944387 2.0133996
-4.5387487 -4.9502187 2.0004077
-4.5239315 -4.9639869 2.0087607
-4.5234933 -4.9685621 2.0127418
-4.5143094 -4.9636345 2.016351
-4.5099254 -4.9790974 2.009058
-4.5014186 -4.9891143 2.0122075
-4.4874949 -4.9950252 2.0109651
19.371693 -0.97457373 0.11850452
19.364027 -0.93847221 0.13242422
19.369539 -0.9111591 0.11679811
19.378017 -0.89563113 0.11719192
19.379562 -0.85389578 0.11738784
19.387074 -0.84238207 0.13267744
19.381819 -0.81347042 0.12308253
19.373547 -0.7833786 0.11570911
19.389574 -0.74339271 0.12871806
19.384411 -0.72611457 0.13076457
19.383556 -0.68900865 0.11380149
19.389437 -0.66091347 0.12590578
19.389198 -0.6486122 0.11828728
19.393295 -0.60910332 0.11915898
19.37775 -0.58927977 0.11472652
19.382362 -0.56313926 0.11476664
19.382225 -0.54340976 0.11667555
19.392458 -0.51307142 0.1216319
19.395277 -0.4877862 0.11952819
19.391068 -0.44870734 0.12765515
19.388868 -0.4314881 0.12583914
19.389668 -0.40935668 0.1250681
19.382532 -0.36839345 0.12954672
19.387741 -0.34422457 0.12648137
19.393785 -0.31645629 0.11618552
19.395359 -0.28489271 0.12497495
19.396933 -0.27424431 0.12643753
19.400379 -0.23410608 0.13118105
19.388744 -0.21185145 0.11415134
19.394968 -0.17447153 0.12914114
19.38928 -0.15991986 0.11428987
19.401739 -0.12515958 0.1145089
19.393389 -0.098086432 0.12862921
19.389481 -0.066318996 0.11985573
19.402468 -0.048985619 0.13178717
19.405123 -0.030518809 0.12821817
19.417105 0.012713916 0.26999068
19.409931 0.0354653 0.26307857
19.407461 0.066255331 0.27135548
19.407925 0.082980245 0.26994628
19.42334 0.11376694 0.25602233
19.423866 0.13679937 0.2697919
19.424574 0.17130642 0.26356763
19.419365 0.20176667 0.26204351
19.425343 0.2251147 0.27078539
19.423216 0.25105464 0.27092659
19.417482 0.28837585 0.26364049
19.411724 0.29854089 0.27200949
19.419016 0.32629314 0.26407227
19.414549 0.35460293 0.26576382
19.408632 0.39845997 0.27114606
19.408756 0.42301294 0.27246493
19.402611 0.44848081 0.26119539
19.410204 0.46898383 0.27329087
19.416233 0.49574849 0.26163957
19.410969 0.52070618 0.26883382
19.405806 0.56028783 0.26625535
19.413321 0.57450819 0.26674849
19.409166 0.5964551 0.26790109
19.397036 0.63440537 0.2702713
19.406561 0.66694987 0.26940703
19.401428 0.68016452 0.26600498
19.397577 0.70781881 0.26098084
19.40242 0.74368846 0.26937059
19.399321 0.7662493 0.25743675
19.404531 0.80424315 0.26337337
19.396898 0.81781113 0.26180533
19.406649 0.85966718 0.26737246
19.396854 0.87818015 0.26780236
19.388176 0.90541273 0.25909966
19.401829 0.92305654 0.2558597
19.394581 0.95649368 0.2587539
19.383892 0.98704302 0.2622233
-5.9628377 -3.8786099 2.0111544
-5.9671803 -3.8856251 1.9985676
-5.9644842 -3.8884356 2.0037072
-5.9563012 -3.9100795 1.9936893
-5.9426112 -3.9146371 1.9921693
-5.9357214 -3.9192526 2.0046618
-5.9297009 -3.9349189 2.0078053
-5.9340529 -3.9337249 1.9981854
-5.9270763 -3.9346781 1.9963206
-5.9128904 -3.9507542 1.9954245
-5.920825 -3.9652193 2.0030954
-5.915884 -3.9694512 1.9920917
-5.9035187 -3.9764233 2.0066111
-5.8860021 -3.9806592 2.007812
-5.8984919 -3.9966648 1.9927737
-5.8924904 -3.9912508 2.00143
-5.8739848 -4.0052986 2.0027232
-5.872324 -4.009192 1.9935055
-5.8602719 -4.0316138 2.011622
-5.8700728 -4.0253673 2.0019422
-5.8607588 -4.0325837 2.0060689
-5.8437624 -4.0403991 1.9942284
-5.8377581 -4.0614004 2.0036721
-5.8372231 -4.0704484 1.9971288
-5.8354754 -4.0775609 2.002821
-5.8287554 -4.0842576 2.0021603
-5.8133669 -4.0980458 1.995677
-5.8166742 -4.0957823 1.993518
-5.8091879 -4.1070871 1.9971464
-5.8035741 -4.1138253 1.9952234
-5.8076282 -4.1168919 1.9942781
-5.7875447 -4.1286168 1.9937031
-5.7792902 -4.1400037 2.0003049
-5.7815804 -4.1565328 2.0060289
-5.7704024 -4.1570034 1.9928029
-5.7735214 -4.1564536 2.0010345
-5.7572899 -4.1662273 2.003624
-5.7675304 -4.1850314 1.9966149
-5.7599187 -4.1820831 2.0064316
-5.7486672 -4.1992669 1.9976325
-5.7393274 -4.2062616 1.9938809
-5.7309217 -4.2189407 2.0065105
-5.7230802 -4.2291451 1.9958515
-5.7286253 -4.2274303 1.9967533
-5.7084351 -4.2403398 2.0052664
-5.7014599 -4.2421818 2.002403
-5.7062421 -4.2536168 1.9978316
-5.7084236 -4.2611279 2.0025136
-5.6976032 -4.2668748 1.9981929
-5.6969552 -4.2672281 2.00473
-5.6850948 -4.284111 1.992305
-5.6769748 -4.2984691 1.9952258
-5.6762142 -4.2908773 1.9959587
-5.6661015 -4.314734 2.0064147
-5.655076 -4.3243146 1.991961
-5.6555262 -4.3328452 2.0036569
-5.6388288 -4.3320947 1.9919013
-5.6466923 -4.3394737 2.0006094
-5.6298623 -4.3419905 2.011538
-5.617342 -4.3498292 2.0100718
-5.6182737 -4.371788 1.9996724
-5.6116195 -4.3716192 2.0028567
-5.6020336 -4.3766932 2.0015659
-5.6117039 -4.3776684 2.0043437
-5.5909071 -4.3936429 2.0054576
-5.5845528 -4.3961043 2.0059485
-5.5864921 -4.4079156 1.9950895
-5.5801759 -4.4136481 2.0047429
-5.5651407 -4.4286199 1.9997621
-5.559166 -4.4371519 1.994817
-5.5546465 -4.4327068 1.9957784
-5.5605159 -4.4477096 2.0047657
-5.54319 -4.4592395 1.9965281
-5.5471439 -4.4665632 1.9951553
-5.5283093 -4.4792252 2.0056391
-5.5283499 -4.4716792 2.0014846
-5.5278893 -4.492229 1.9933332
-5.5182762 -4.4926305 2.0072551
-5.4989991 -4.5041752 1.9940021
-5.5046926 -4.5159345 2.0000057
-5.4953198 -4.5093746 1.998234
-5.4849753 -4.5348954 2.0092309
-5.4856324 -4.5293121 1.9964601
-5.4745169 -4.5339155 2.0041192
-5.4647632 -4.545928 2.0068612
-5.4645147 -4.5642352 2.0048852
-5.4484105 -4.568347 2.010087
-5.4604468 -4.5691214 2.0026062
-5.4385505 -4.5769057 2.0112908
-5.4298968 -4.5966806 1.9959168
-5.4352288 -4.5933909 1.9947951
-5.4223223 -4.6060758 1.995836
-5.4184079 -4.6057472 2.0101349
-5.4072533 -4.6206427 2.0074961
-5.4084296 -4.6321359 2.0005019
-5.4068532 -4.6297426 2.0028481
-5.3872423 -4.6376166 2.0087223
-5.3824186 -4.6439104 2.0014517
-5.3850656 -4.6547012 1.9940184
-5.3790178 -4.6632423 1.9944224
-5.3683329 -4.6635303 2.0057194
-5.3587594 -4.6773372 1.9919263
-5.348135 -4.693665 2.006047
-5.3432007 -4.6852856 1.9928484
-5.3408952 -4.7045393 1.995724
-5.325573 -4.708684 2.0085516
-5.3278942 -4.719696 2.001054
-5.3243313 -4.7323732 1.9948032
-5.3080277 -4.7341967 2.0052927
-5.2991481 -4.7364812 1.9947629
-5.3098536 -4.7546015 2.0114579
-5.2892513 -4.7496791 2.0018501
-5.2824326 -4.760673 2.0034089
-5.2814822 -4.773284 2.0008328
-5.2737203 -4.7701516 2.0064793
-5.2630725 -4.7782693 1.9954482
-5.2595868 -4.7952909 2.0008631
-5.2635889 -4.7953429 2.0010495
-5.2538309 -4.8056951 2.0068524
-5.2335734 -4.8137813 1.9978007
-5.2438354 -4.8191967 1.9980497
-5.2373924 -4.8306451 2.010633
-5.2205467 -4.8419194 1.9996251
-5.2221322 -4.8388987 2.0033991
-5.2062836 -4.8547816 1.9976897
-5.2047782 -4.8466926 2.0112369
-5.194294 -4.8618045 1.9951276
-5.1783843 -4.8676138 2.0063221
-5.1822782 -4.8703723 1.9945111
-5.1803594 -4.87959 2.0019512
-5.1674819 -4.885797 2.0113032
-5.154345 -4.8922982 1.9965252
-5.1486154 -4.9087014 1.9977818
-5.1538835 -4.9134474 2.0093584
-5.1353669 -4.9291124 1.9923422
-5.1425505 -4.9300504 2.0106955
-5.1161761 -4.9272923 2.0012078
-5.1259017 -4.9354224 1.9931723
-5.1044226 -4.9542551 2.0096302
-5.1147442 -4.9579873 2.0041127
-5.0976157 -4.9556708 1.9996214
-5.0911255 -4.9670563 1.9958522
-5.0794034 -4.9795604 2.0028939
-5.0864148 -4.9841914 1.9923936
19.391525 -0.96840984 0.26539296
19.39851 -0.93604803 0.26453111
19.388268 -0.9204554 0.27495757
19.389366 -0.88426536 0.26827884
19.392368 -0.8506065 0.25873718
19.407581 -0.84214532 0.26789653
19.404421 -0.81338274 0.26967078
19.401274 -0.77137464 0.27526516
19.396603 -0.75449908 0.25619003
19.407618 -0.73071504 0.26068971
19.407867 -0.69429946 0.27092817
19.39888 -0.67224473 0.26646566
19.408991 -0.64174026 0.27053112
19.409492 -0.61140901 0.26372015
19.403276 -0.59930682 0.26349986
19.40748 -0.55318773 0.26467085
19.400806 -0.53138632 0.26753291
19.415869 -0.51385158 0.26532999
19.416489 -0.48207042 0.27292791
19.417995 -0.46031916 0.25723374
19.403963 -0.41932279 0.27087754
19.420132 -0.40828347 0.25949717
19.4118 -0.36806318 0.27154091
19.407495 -0.34823549 0.26683441
19.416344 -0.31547916 0.26714727
19.404932 -0.29933593 0.26649529
19.414654 -0.27064645 0.26055962
19.4072 -0.22763659 0.26507255
19.417505 -0.204712 0.27427956
19.415373 -0.18094784 0.25814971
19.417505 -0.1518445 0.25592721
19.413246 -0.12716357 0.25765416
19.417566 -0.11136764 0.27251077
19.413895 -0.08039128 0.26010364
19.425478 -0.04104552 0.27336076
19.417336 -0.013550706 0.2556684
19.428045 0.0068603493 0.40147644
19.433235 0.03588447 0.4012962
19.4429 0.054887615 0.4169462
19.441732 0.091467641 0.40926561
19.444399 0.10993034 0.40359321
19.444805 0.14391944 0.41550624
19.426901 0.18205453 0.41611946
19.443813 0.19637933 0.4006131
19.428284 0.22218725 0.39735636
19.42597 0.25979111 0.41449818
19.425928 0.28853887 0.40135852
19.429752 0.30249479 0.41011941
19.433357 0.32617182 0.4107599
19.432575 0.36877683 0.400857
19.424074 0.39417994 0.4022935
19.429863 0.42015862 0.41059607
19.427526 0.44843981 0.40991092
19.425766 0.47387996 0.41642812
19.428461 0.50407195 0.40163109
19.427862 0.53227288 0.39731628
19.424368 0.56079024 0.41462797
19.427694 0.57352781 0.39877495
19.419744 0.61030525 0.39947882
19.432398 0.62677252 0.41566825
19.435108 0.655249 0.410142
19.41922 0.69006217 0.40347645
19.431595 0.72312504 0.39797479
19.423248 0.7350508 0.41079688
19.421379 0.77033299 0.40669551
19.424677 0.80571485 0.40368047
19.42362 0.81833816 0.4020693
19.419838 0.85506314 0.40608323
19.420166 0.88465077 0.3997632
19.421158 0.90774131 0.4028002
19.418304 0.93443191 0.40720469
19.409883 0.96615905 0.39931458
19.414762 0.99122512 0.39738098
-5.960485 -4.5808549 2.0019741
-5.9561229 -4.5779557 1.9950716
-5.9447269 -4.5881839 1.9921137
-5.9463949 -4.5924072 1.9967061
-5.9353805 -4.6094317 1.9940122
-5.9248438 -4.6151314 1.9972042
-5.9357319 -4.6176481 2.0052695
-5.9189672 -4.6307769 1.9968882
-5.9060402 -4.6450729 2.0106812
-5.9110565 -4.6485643 1.9942019
-5.9064059 -4.6623068 2.0003762
-5.8886786 -4.6780877 1.9977882
-5.8778415 -4.6688862 1.9933007
-5.8899512 -4.687777 1.9929098
-5.8774567 -4.7020893 2.0038054
-5.8676448 -4.6923122 1.9973037
-5.8546295 -4.6998825 1.9965783
-5.8535376 -4.7171597 1.9910079
-5.8408155 -4.7279916 1.9994164
-5.8342886 -4.7303333 1.9925992
-5.8442302 -4.7345304 2.0002966
-5.8279858 -4.7475166 2.0004604
-5.8143177 -4.7561941 1.9980645
-5.8051262 -4.7635212 2.0050073
-5.8163142 -4.7649055 2.0058579
-5.7965951 -4.78304 2.0046964
-5.8033662 -4.794734 2.0041666
-5.7908516 -4.7919216 1.9945525
-5.783896 -4.8029838 2.0022898
-5.7685208 -4.8141279 1.9958596
-5.7599516 -4.8218331 1.9933974
-5.7636733 -4.8399248 2.0061045
-5.7472205 -4.8309917 1.9982806
-5.7531519 -4.8395209 1.9912668
-5.7321296 -4.8459034 1.9909968
-5.7302451 -4.8592429 2.0007105
-5.7295113 -4.8660421 2.0068395
-5.7292962 -4.8870258 2.0038807
-5.7186837 -4.8877645 1.9979503
-5.7003226 -4.8998494 2.0089567
-5.7083812 -4.9100981 2.0003295
-5.6988902 -4.9108129 2.0016725
-5.6766815 -4.9218302 2.0000014
-5.6822853 -4.9255462 1.9978447
-5.6748915 -4.9350171 1.9973395
-5.667757 -4.9493933 1.9915187
-5.650898 -4.9498358 2.0069139
-5.6478987 -4.9568744 2.009331
-5.6478467 -4.9601235 1.9990051
-5.6337147 -4.9718451 2.0045805
-5.6285653 -4.9784703 2.0078838
19.408756 -0.97098643 0.41547811
19.410635 -0.93333668 0.41146663
19.417372 -0.91637594 0.40051919
19.42515 -0.8798309 0.40508094
19.41128 -0.86039132 0.4052496
19.427794 -0.83016318 0.41341701
19.427666 -0.80084038 0.3999474
19.410715 -0.77593666 0.40918031
19.425232 -0.75602472 0.41719642
19.429531 -0.72105134 0.4116919
19.425081 -0.70689166 0.40033913
19.424274 -0.67220205 0.39954609
19.419418 -0.65208387 0.40862191
19.423578 -0.62545985 0.40714905
19.432261 -0.59394056 0.39802033
19.421074 -0.56710416 0.41202259
19.438017 -0.54155475 0.40824887
19.421452 -0.51407647 0.40227848
19.434082 -0.47316438 0.40911812
19.434692 -0.44899771 0.40382773
19.429758 -0.43028858 0.40559217
19.433434 -0.39335573 0.41494
19.436279 -0.38221064 0.39729843
19.428162 -0.34780082 0.39917207
19.438534 -0.32556459 0.40545496
19.439739 -0.29533333 0.41146302
19.43491 -0.26893967 0.41590816
19.426268 -0.23985332 0.40071815
19.431618 -0.21884139 0.39932582
19.443771 -0.1778878 0.41498482
19.430593 -0.16249716 0.40223661
19.439144 -0.12402227 0.39930415
19.437004 -0.10325622 0.40039885
19.437185 -0.071123242 0.40878466
19.439201 -0.049096279 0.41228735
19.427464 -0.026304077 0.39890128
19.460199 0.01485541 0.54683155
19.458832 0.043434534 0.55468374
19.462238 0.057036869 0.55642623
19.464214 0.082502015 0.55200028
19.461811 0.11453951 0.55584252
19.446623 0.15491375 0.55103689
19.448463 0.17297253 0.53987432
19.451361 0.19107421 0.55372143
19.462605 0.23109236 0.54247212
19.457315 0.25930986 0.54689151
19.458601 0.28173473 0.54174691
19.445736 0.30281198 0.55803204
19.460686 0.32735163 0.54077011
19.45734 0.35396123 0.54182404
19.44953 0.39829972 0.54776639
19.445524 0.40761891 0.54693413
19.456675 0.43898624 0.55701196
19.456625 0.47349638 0.55804318
19.450384 0.49953502 0.55194461
19.452858 0.52060485 0.54691607
19.439711 0.54331976 0.55716527
19.441381 0.57356668 0.5413453
19.439301 0.59919763 0.54291898
19.43992 0.64195514 0.543957
19.441555 0.65741324 0.54218888
19.449095 0.68941396 0.5425961
19.435762 0.71315181 0.54722762
19.432472 0.73746407 0.55922699
19.430174 0.77619773 0.55012369
19.44174 0.79810357 0.55494988
19.42824 0.82760084 0.55535161
19.444952 0.85954487 0.55886197
19.425804 0.87022072 0.54086602
19.428194 0.90236646 0.55849159
19.431581 0.93703598 0.54444045
19.433165 0.96017158 0.55525649
19.435118 0.99094087 0.54267812
19.432421 -0.9744373 0.54495233
19.424625 -0.94865942 0.55077827
19.423214 -0.90989441 0.55630231
19.435188 -0.88748264 0.54492825
19.435312 -0.87172735 0.54630589
19.435026 -0.83008987 0.54343015
19.444088 -0.81629652 0.546655
19.44034 -0.78120905 0.55177426
19.436703 -0.76082993 0.53937382
19.433214 -0.72467315 0.55304259
19.438433 -0.70530236 0.55917203
19.445059 -0.67507571 0.54396349
19.437471 -0.64757288 0.54040229
19.435371 -0.60936821 0.55213332
19.441858 -0.59227484 0.5524984
19.449686 -0.55666506 0.547378
19.454599 -0.53315264 0.54892635
19.442699 -0.51451111 0.55843598
19.455883 -0.48058966 0.54119706
19.456625 -0.4512035 0.55298561
19.451 -0.43760684 0.55701435
19.451466 -0.39835551 0.54413766
19.456686 -0.36762369 0.55163044
19.458307 -0.33988732 0.55019319
19.45162 -0.32652056 0.55871344
19.445261 -0.28614578 0.5557065
19.453743 -0.26163879 0.54907382
19.443737 -0.22977482 0.55394334
19.463202 -0.20543462 0.54559416
19.445389 -0.1810187 0.53948987
19.459328 -0.16285832 0.53984016
19.457256 -0.12482411 0.55229884
19.462271 -0.10212465 0.54834557
19.454741 -0.078321189 0.54498416
19.445736 -0.041682761 0.54784429
19.445213 -0.011844341 0.54393339
19.479109 0.0096768998 0.69955778
19.468864 0.037247073 0.6977244
19.463453 0.063954651 0.69308376
19.469654 0.092560634 0.68571115
19.469713 0.11485354 0.68935066
19.470083 0.15486202 0.6838758
19.462875 0.17970935 0.69395155
19.471676 0.19688824 0.70068163
19.477076 0.22496143 0.6969009
19.4653 0.25244913 0.6958093
19.469574 0.2763443 0.6854862
19.46726 0.31001425 0.69555944
19.463076 0.33832839 0.68516654
19.474211 0.37293753 0.69620597
19.477938 0.3877373 0.68236482
19.465263 0.42307803 0.70135885
19.467079 0.45141825 0.69802725
19.458931 0.46880466 0.6847018
19.457476 0.49187583 0.69227725
19.4722 0.5234918 0.70016843
19.465797 0.55974162 0.68478346
19.469032 0.5740748 0.69589746
19.462303 0.60465801 0.68815535
19.465143 0.62685049 0.68785268
19.458984 0.65327966 0.69518083
19.458946 0.68758488 0.6906814
19.457865 0.72429127 0.6873548
19.453413 0.75347459 0.69424796
19.455599 0.76186472 0.69704664
19.465322 0.80568111 0.68429649
19.462898 0.82383192 0.70063245
19.445051 0.84599406 0.68413889
19.458281 0.88224071 0.69106698
19.443729 0.902179 0.6930272
19.448839 0.93684816 0.69425732
19.441238 0.95240712 0.68263477
19.4491 0.98784983 0.70056206
19.457472 -0.97690058 0.69481146
19.44149 -0.94278961 0.7013101
19.4524 -0.92517966 0.69484872
19.460838 -0.89751351 0.68221563
19.456118 -0.86148357 0.68822414
19.462526 -0.83454555 0.69696993
19.462389 -0.8076278 0.68780559
19.453375 -0.77392155 0.69987673
19.461031 -0.75673509 0.68843842
19.461489 -0.72486287 0.69084597
19.459412 -0.69785959 0.69539279
19.453722 -0.66818726 0.68691039
19.454493 -0.64891803 0.68889588
19.468765 -0.62248498 0.69140369
19.470366 -0.58200848 0.68279576
19.457937 -0.55632228 0.69397861
19.474216 -0.53193444 0.68493021
19.461294 -0.51768208 0.68243748
19.460403 -0.47685969 0.68997914
19.468039 -0.45662737 0.68223941
19.458042 -0.41948122 0.69434798
19.472553 -0.40899605 0.68897247
19.478546 -0.37867323 0.69570839
19.466486 -0.35497424 0.68171835
19.476896 -0.31053221 0.70104462
19.478659 -0.29933867 0.69889563
19.471569 -0.27264789 0.69397193
19.475391 -0.23962426 0.69613701
19.476683 -0.20819674 0.69195992
19.465477 -0.18980363 0.70084947
19.466496 -0.16203746 0.69971877
19.479584 -0.12035147 0.68190587
19.467258 -0.093228124 0.68724763
19.481632 -0.078681961 0.68911952
19.481977 -0.054205246 0.68826383
19.481609 -0.028405912 0.69143146
19.296719 0.013505307 0.85862404
19.289198 0.035012338 0.84716392
19.283806 0.057483524 0.85995948
19.294197 0.088460468 0.86397588
19.293442 0.1202034 0.84858578
19.291519 0.14482081 0.8477087
19.291744 0.1769371 0.84678173
19.297276 0.2032882 0.85322744
19.284639 0.22988398 0.85697627
19.291111 0.25605068 0.85935068
19.280712 0.27963924 0.85285598
19.292963 0.31572595 0.8609491
19.293716 0.32647583 0.86459422
19.287228 0.36771169 0.85229725
19.284718 0.3883231 0.8648243
19.4855 0.41134167 0.83284366
19.486641 0.45090705 0.82826728
19.486818 0.47624591 0.84312385
19.473404 0.50923014 0.83765846
19.4837 0.52900392 0.83144248
19.476332 0.55873489 0.84189814
19.482431 0.58111054 0.84152424
19.476585 0.60467076 0.82498443
19.474346 0.64221096 0.84276539
19.479773 0.65774751 0.83424324
19.47769 0.69589031 0.83766353
19.485792 0.71576214 0.83345884
19.469282 0.73643607 0.82740343
19.46759 0.76435775 0.82714367
19.480394 0.80327594 0.83946997
19.466946 0.83556497 0.83434057
19.463915 0.85473013 0.82440126
19.46047 0.88886446 0.83083767
19.460449 0.90161306 0.82763094
19.458172 0.94067889 0.83277863
19.467333 0.9585889 0.8288883
19.459877 0.98556882 0.83769035
25.702934 2.8175495 0.1331483
25.501184 2.8265412 0.14766382
25.291592 2.8403065 0.16518252
25.289396 2.8791943 0.15910526
25.288731 2.9078679 0.16823897
25.287121 2.942126 0.17127723
25.286795 2.9940886 0.17131908
25.279114 3.0160558 0.17717494
25.260916 3.0495145 0.17514382
25.261587 3.090255 0.17468229
25.249973 3.1222897 0.16376027
25.245577 3.1540692 0.16784863
25.253439 3.1977413 0.17227823
25.256565 3.2431958 0.16029729
25.233566 3.272011 0.1616974
25.239651 3.303293 0.16206886
25.228724 3.3383746 0.15912187
25.237789 3.3699505 0.1628667
25.429644 3.4341137 0.14259425
25.422398 3.4769349 0.15000516
25.414642 3.5124636 0.15419327
25.395916 3.547967 0.15490937
