# .PCD v0.7 - Point Cloud Data file format
VERSION 0.7
FIELDS x y z
SIZE 4 4 4
TYPE F F F
COUNT 1 1 1
WIDTH 1472
HEIGHT 1
VIEWPOINT 0 0 0 1 0 0 0
POINTS 1472
DATA ascii
-5.366601 -3.0411999 0.19838226
-5.3724194 -3.0594521 0.19992036
-5.3633237 -3.0666776 0.20162547
-5.3727269 -3.0804493 0.21025605
-5.3594193 -3.0775001 0.19338562
-5.1973844 -2.996243 0.2785069
-5.1954279 -2.9945624 0.28884596
-5.1900444 -3.0177274 0.29381531
-5.1765623 -3.0203838 0.28115344
-5.1790519 -3.0187309 0.28073263
-5.1800079 -3.0269382 0.27823159
-5.1703682 -3.0452337 0.28499487
-5.1591806 -3.0387142 0.2920433
-5.1662779 -3.0458884 0.29282454
-5.1647339 -3.0640566 0.28405356
-5.1600509 -3.0622709 0.29296702
-5.1527953 -3.0827236 0.29082742
-5.1551905 -3.0819976 0.29278317
-4.9765162 -2.9980912 0.36189601
-4.9867148 -2.9945955 0.37735164
-4.977325 -3.0162914 0.37184271
-4.9704266 -3.0125935 0.37527502
-4.9767547 -3.0219636 0.37245774
-4.9560251 -3.0226965 0.36969107
-4.9545045 -3.0461619 0.37597513
-4.9617453 -3.0492299 0.3712579
-4.9600625 -3.0493386 0.37329507
-4.9405098 -3.0561483 0.36325908
-4.938992 -3.0646901 0.37041059
-4.9309106 -3.067626 0.36802888
-4.9273639 -3.0853763 0.37091646
-4.929316 -3.0804424 0.36446127
-4.773602 -2.9891138 0.45814839
-4.7750554 -2.9980211 0.45549098
-4.7592669 -3.0096509 0.4563098
-4.7571845 -3.0127749 0.4409962
-4.75981 -3.0184791 0.45250371
-4.7403893 -3.0289032 0.44412509
-4.7509952 -3.0420916 0.45412228
-4.7344403 -3.0514903 0.4480955
-4.7402582 -3.0416436 0.45122403
-4.7231789 -3.0580606 0.44618624
-4.7325454 -3.0573089 0.4424237
-4.7307749 -3.0622058 0.45642638
-4.7116523 -3.0755177 0.44546559
-4.7117019 -3.090961 0.45804158
-4.7070556 -3.0932524 0.4515681
-4.558732 -3.0001998 0.52387822
-4.5510783 -3.0019372 0.52708393
-4.5534191 -3.0113704 0.52752781
-4.5417776 -3.0108814 0.52444935
-4.5469985 -3.0175822 0.5315789
-4.5372481 -3.0179279 0.5260793
-4.5312519 -3.0407908 0.54229593
-4.5312438 -3.0488281 0.5318076
-4.5221877 -3.0412207 0.53247714
-4.5205469 -3.0532825 0.53745019
-4.5053711 -3.0535059 0.54190958
-4.5004349 -3.0702696 0.5310021
-4.5122843 -3.0735762 0.53702599
-4.5036807 -3.0694525 0.52989793
-4.498147 -3.0747702 0.54242206
-4.4854751 -3.0945668 0.54094732
-4.3284082 -2.9890757 0.6255098
-4.3251467 -2.9911435 0.60581136
-4.3323646 -3.0084112 0.62004936
-4.3189044 -3.0083025 0.60854882
-4.3204632 -3.0172911 0.62314212
-4.317554 -3.0256259 0.60728317
-4.3055434 -3.0301013 0.61442292
-4.3075008 -3.030273 0.61198562
-4.2965779 -3.0492198 0.610524
-4.2931223 -3.0398118 0.61555308
-4.2911334 -3.0475492 0.60882527
-4.2871323 -3.0562148 0.60609573
-4.2828217 -3.0562971 0.61215866
-4.2842641 -3.0671263 0.62438446
-4.2771988 -3.0837297 0.61366999
-4.2755322 -3.0816479 0.62066317
-4.2697158 -3.0917881 0.6092177
-4.2567515 -3.0881264 0.62363106
-4.1189795 -2.9905279 0.70768136
-4.1100473 -3.0007892 0.7045992
-4.0960779 -3.0133276 0.69979274
-4.1088285 -3.0061398 0.6923275
-4.104301 -3.0189238 0.69078094
-4.0937018 -3.0174417 0.70439976
-4.0908694 -3.0331943 0.70740408
-4.078743 -3.0315881 0.69847316
-4.0796156 -3.0484819 0.70537883
-4.0719261 -3.0367362 0.70191693
-4.0698147 -3.0587881 0.69475502
-4.0662045 -3.0560994 0.70308501
-4.0656681 -3.0636406 0.70462388
-4.0499306 -3.06814 0.69909215
-4.0616503 -3.0723269 0.70651197
-4.0549083 -3.0701385 0.70114338
-4.0345402 -3.0893486 0.70574605
-4.0311594 -3.080672 0.69767272
-4.0367017 -3.0971155 0.69841743
-3.8909907 -2.9989939 0.77917278
-3.8732288 -2.9939535 0.78101718
-3.8826213 -3.0095742 0.77124441
-3.8836761 -3.0089381 0.77961826
-3.8631845 -3.0168517 0.78917485
-3.868217 -3.0207801 0.78022057
-3.8658223 -3.02227 0.77912486
-3.8487885 -3.0277023 0.7844829
-3.8471446 -3.0340729 0.78417546
-3.8535664 -3.0303125 0.77307647
-3.839236 -3.049516 0.77461439
-3.8467016 -3.0551445 0.78663099
-3.8323154 -3.0543604 0.78845936
-3.8276947 -3.0588334 0.77635044
-3.8346925 -3.0670249 0.78174877
-3.8321261 -3.0644665 0.78863364
-3.8185065 -3.0837383 0.77943766
-3.8059754 -3.090209 0.79021239
-3.8080785 -3.0792758 0.78001368
-3.8104818 -3.0990124 0.77896643
-3.8039765 -3.0886734 0.78410119
-3.7959261 -3.1100631 0.78898668
-3.6549928 -2.9858251 0.8625887
-3.6532438 -2.9965589 0.85452598
-3.6435966 -2.9985757 0.86363316
-3.6485441 -3.0023191 0.86065418
-3.6265996 -3.0167432 0.8637526
-3.6338437 -3.0229437 0.86572379
-3.630306 -3.0155628 0.86396539
-3.61696 -3.0349078 0.86780196
-3.6246543 -3.0320776 0.86730266
-3.6072068 -3.0455341 0.87073302
-3.6048665 -3.0432611 0.86820298
-3.6114764 -3.0434301 0.86004972
-3.6061418 -3.0581498 0.85498422
-3.5916929 -3.062022 0.87127417
-3.6002162 -3.0681617 0.85823286
-3.5856338 -3.0657651 0.86407793
-3.5890734 -3.0840573 0.86238492
-3.5742643 -3.0732369 0.86642212
-3.5756116 -3.0943515 0.8583588
-3.5774512 -3.0822659 0.86190212
-3.5758533 -3.0920949 0.87277579
-3.5567787 -3.0927956 0.86853206
-3.5658505 -3.1124301 0.85461402
-3.5599806 -3.1018918 0.86186326
-3.4209044 -3.0039937 0.95056522
-3.4119399 -2.9957778 0.94413227
-3.3971238 -2.9952986 0.94442862
-3.4039941 -3.0043144 0.9405607
-3.3868203 -3.0189884 0.94058776
-3.3977034 -3.01982 0.93770373
-3.3850365 -3.0233791 0.94998801
-3.3814893 -3.0321953 0.94656307
-3.3821793 -3.0344222 0.94848871
-3.3767805 -3.0351253 0.94593185
-3.364126 -3.0380142 0.94608051
-3.3653219 -3.0561306 0.93922096
-3.3529444 -3.0436296 0.93761081
-3.3602636 -3.0622039 0.95174921
-3.3514445 -3.067816 0.95597196
-3.3425915 -3.0685298 0.94411546
-3.336616 -3.0608017 0.95344657
-3.3383501 -3.0737581 0.93870199
-3.343502 -3.0716424 0.94646519
-3.3267221 -3.0883732 0.9382543
-3.3324926 -3.0967007 0.95187706
-3.3181078 -3.0904822 0.95210034
-3.310576 -3.0961506 0.94953567
-3.3046479 -3.0934098 0.95310175
-3.304575 -3.1061273 0.95575452
-3.3002729 -3.1142759 0.94238657
-3.1753626 -2.9956846 1.0239928
-3.1737475 -2.9879954 1.0347646
-3.1668711 -3.009762 1.0323272
-3.152225 -2.9990597 1.037828
-3.1457839 -3.0184445 1.0196642
-3.1457136 -3.0077684 1.0323757
-3.1454141 -3.0138905 1.0240695
-3.1476729 -3.0184212 1.0231493
-3.1263597 -3.0272222 1.0341502
-3.1223874 -3.0360701 1.0216351
-3.131777 -3.0368221 1.0272822
-3.1221132 -3.0401468 1.0250546
-3.1216717 -3.0407887 1.0254897
-3.1236613 -3.0509846 1.0210514
-3.1001441 -3.0589457 1.0216461
-3.1147847 -3.0510488 1.0373292
-3.0967076 -3.0670707 1.0312964
-3.0869308 -3.0695765 1.0251333
-3.098068 -3.0749996 1.0345637
-3.0981982 -3.0806873 1.0195346
-3.0908375 -3.0800076 1.0281361
-3.0778236 -3.0739133 1.0377897
-3.0670314 -3.0916326 1.031172
-3.075798 -3.095603 1.0187232
-3.0689969 -3.1003234 1.0226723
-3.0615952 -3.1039579 1.0188711
-3.0585043 -3.113795 1.0233947
-3.0614402 -3.1181407 1.0297536
-3.0505335 -3.1179152 1.0350242
-3.0501902 -3.1221175 1.018936
-3.0448701 -3.1232629 1.0278503
-3.0309427 -3.135704 1.0271755
-3.0273554 -3.1216688 1.0330924
-3.03038 -3.140722 1.0193437
-3.0258474 -3.1373019 1.0251733
-3.01736 -3.1508138 1.031661
-3.0126679 -3.1455746 1.0325984
-3.0034461 -3.1476169 1.0334705
-3.0078597 -3.1631041 1.0188427
-3.0069966 -3.1626058 1.0242808
-3.1274869 -3.2934053 0.95027685
-3.1136014 -3.302567 0.95064682
-3.1203847 -3.3125167 0.94930202
-3.1012447 -3.3098724 0.95314795
-3.0958476 -3.3070822 0.94465184
-3.1046145 -3.3201976 0.94687551
-3.0868878 -3.3130195 0.93856394
-3.088218 -3.3210244 0.95242935
-3.0886695 -3.3378537 0.95502073
-3.0837431 -3.3382361 0.94231743
-3.0733726 -3.3382604 0.95526987
-3.074441 -3.3490121 0.94343001
-3.0751333 -3.351166 0.94600326
-3.0571644 -3.3588049 0.95557755
-3.0553436 -3.3656781 0.95229197
-3.0420132 -3.3659554 0.94023454
-3.046453 -3.3731492 0.93969226
-3.0391982 -3.3663223 0.95547557
-3.0380721 -3.3646026 0.93875384
-3.034349 -3.3826177 0.94596714
-3.0233231 -3.3749297 0.93746716
-3.0193386 -3.3929834 0.94251996
-3.0271883 -3.3964088 0.94971693
-3.0124588 -3.3865509 0.95356625
-3.0081491 -3.3995636 0.95482755
-3.0071192 -3.4039431 0.94008982
-2.9981406 -3.4174654 0.94243002
-3.1098959 -3.5453243 0.87330317
-3.1054735 -3.5600584 0.87271369
-3.0977666 -3.5557897 0.85836095
-3.1028404 -3.5652223 0.85594159
-3.0964084 -3.575403 0.85970736
-3.0849171 -3.578172 0.86427969
-3.0862231 -3.5709558 0.86293548
-3.0836735 -3.5841804 0.87279737
-3.0798566 -3.5811312 0.86249202
-3.0707717 -3.5938659 0.86286974
-3.0593405 -3.5829263 0.85646927
-3.054471 -3.5925293 0.85969478
-3.050185 -3.5993967 0.87154168
-3.040246 -3.5963151 0.8583023
-3.0527201 -3.6117847 0.85922116
-3.0414226 -3.6207523 0.8617031
-3.0255468 -3.6160212 0.85572618
-3.0310094 -3.6137419 0.86084282
-3.0266042 -3.6326532 0.87331969
-3.0124981 -3.6274929 0.85736614
-3.0180087 -3.6359205 0.85664922
-3.0099137 -3.6445043 0.8706193
-2.9985874 -3.6338334 0.86200505
-2.9954083 -3.6382608 0.86074835
-3.1010067 -3.8010375 0.78573215
-3.1099396 -3.7968953 0.78856921
-3.0963845 -3.8019321 0.78039217
-3.0888004 -3.7974923 0.77874219
-3.0960934 -3.813714 0.78242159
-3.0909038 -3.8209023 0.77549487
-3.0816615 -3.8186798 0.78436685
-3.0731301 -3.8134465 0.78887457
-3.0706227 -3.8219774 0.78826529
-3.0567234 -3.8324254 0.78743386
-3.064075 -3.8380299 0.78885567
-3.0438776 -3.8378718 0.77877176
-3.0408373 -3.8494694 0.78799564
-3.0459681 -3.8387995 0.7859965
-3.032743 -3.8607454 0.77210552
-3.0358324 -3.8628304 0.77534848
-3.0258427 -3.8610079 0.78512895
-3.0269752 -3.8559949 0.78444993
-3.0035939 -3.8738215 0.77954
-3.0008159 -3.8831015 0.78847462
-2.9988637 -3.885092 0.77608985
-2.9954836 -3.8922498 0.78814065
-3.0933459 -4.026052 0.69030476
-3.0906126 -4.0262032 0.6899603
-3.0898724 -4.0385108 0.69192475
-3.0830171 -4.0392966 0.6960516
-3.0729129 -4.0554872 0.70624077
-3.0730221 -4.0582099 0.70567518
-3.0738044 -4.0629573 0.69150794
-3.0594907 -4.0703387 0.69227785
-3.0562363 -4.0611854 0.69526696
-3.0453606 -4.0740762 0.69530028
-3.0424283 -4.0790939 0.69003969
-3.0347667 -4.0870156 0.68897015
-3.0274439 -4.0798402 0.69992673
-3.0381505 -4.0914583 0.69442368
-3.0247245 -4.0986276 0.6970486
-3.0211031 -4.0915666 0.70126116
-3.0180416 -4.0909553 0.70502871
-3.0091414 -4.1017032 0.70570922
-2.9994657 -4.1148758 0.69982946
-3.0940919 -4.2500691 0.62277877
-3.101176 -4.2609591 0.60753971
-3.0935149 -4.2698846 0.60864162
-3.0869172 -4.2771893 0.62117386
-3.0693569 -4.2809091 0.60633463
-3.0772936 -4.2769175 0.60856521
-3.0625994 -4.2950249 0.6220873
-3.0636866 -4.2957969 0.62044358
-3.0610003 -4.2934008 0.61226672
-3.0576274 -4.3070669 0.61512423
-3.0401285 -4.2938056 0.61419857
-3.0371153 -4.3135839 0.60672325
-3.0293353 -4.3116627 0.61465478
-3.0204473 -4.3091106 0.61960518
-3.0190213 -4.3149719 0.62515098
-3.0124283 -4.3147492 0.61899555
-3.0035992 -4.3258176 0.61903131
-3.0012419 -4.3239651 0.6225853
-3.1040864 -4.495285 0.53025824
-3.0913289 -4.4995184 0.53109765
-3.0757074 -4.4922619 0.52946329
-3.0810058 -4.5080066 0.53230727
-3.0737736 -4.5019927 0.54132098
-3.0586038 -4.5131173 0.53712642
-3.0584774 -4.5088482 0.53130192
-3.0527995 -4.5240254 0.52992302
-3.0532708 -4.5164175 0.54169005
-3.0337005 -4.5325031 0.53951591
-3.0305703 -4.5339251 0.54008096
-3.0372021 -4.528861 0.54074633
-3.0229888 -4.5344529 0.53299314
-3.0104036 -4.5316272 0.53381091
-3.0149689 -4.5478578 0.52495015
-3.0105143 -4.5552144 0.52926314
-3.0904391 -4.7008839 0.45957553
-3.0957794 -4.7151847 0.4415507
-3.0824928 -4.71627 0.45540562
-3.0774329 -4.7241039 0.45743835
-3.0745411 -4.7151327 0.44230318
-3.0710783 -4.7191243 0.45647761
-3.0469441 -4.7352395 0.44929656
-3.0505574 -4.7451119 0.44916943
-3.0333467 -4.7458987 0.45703018
-3.0449908 -4.7485847 0.44174436
-3.032316 -4.7573662 0.4571279
-3.0267639 -4.7580662 0.44254255
-3.0192308 -4.7520642 0.45119458
-3.0178368 -4.7675929 0.45632607
-2.9944041 -4.7668271 0.45473307
-3.1030834 -4.9234033 0.37088457
-3.0803845 -4.9283872 0.37776592
-3.0848603 -4.9235983 0.3590512
-3.0694575 -4.9282193 0.36381742
-3.0661879 -4.9511108 0.3701553
-3.0581982 -4.9479599 0.37196097
-3.0548189 -4.9458947 0.37730613
-3.0460188 -4.9629407 0.37288356
-3.0285609 -4.9652424 0.37715304
-3.0259657 -4.9707675 0.36640018
-3.0249572 -4.9746509 0.37747574
-3.0252326 -4.9627185 0.36789578
-3.0186205 -4.982151 0.36742321
-3.0107174 -4.9730754 0.36663869
-5.6416936 -2.983077 0.16475846
-5.6295714 -2.9954603 0.16122741
-5.6394701 -3.0048943 0.1677372
-5.6192255 -3.0197997 0.17633155
-5.6282849 -3.0272272 0.15820804
-5.6218286 -3.0409534 0.16258757
-5.6076803 -3.0403326 0.17481199
-5.6163096 -3.0489702 0.16455394
-5.6021929 -3.0636895 0.16533281
-5.5926518 -3.0532093 0.15830736
-5.6032748 -3.0744469 0.15770164
-5.4312744 -2.999501 0.25382143
-5.4229608 -3.0066857 0.24715917
-5.4281263 -2.9978402 0.25346312
-5.4246874 -3.0222783 0.24020536
-5.4193611 -3.0244958 0.24108094
-5.4096446 -3.0368116 0.25043124
-5.4076934 -3.0420146 0.23899178
-5.3959894 -3.0373693 0.24067505
-5.4034963 -3.0474625 0.24067454
-5.3980179 -3.052469 0.24726637
-5.3931351 -3.0698195 0.24837482
-5.3933468 -3.083045 0.24989294
-5.2216687 -2.9947135 0.32907093
-5.2223449 -2.9978538 0.3301681
-5.216269 -2.9998887 0.33662462
-5.2093072 -3.0164385 0.33833635
-5.2129846 -3.0152786 0.3224104
-5.2080917 -3.0266676 0.33868891
-5.2015052 -3.0298259 0.33242735
-5.1949096 -3.0317795 0.32870647
-5.1817112 -3.053134 0.33517635
-5.1873946 -3.058995 0.33595598
-5.1715498 -3.0560246 0.32167411
-5.1777425 -3.077919 0.33155391
-5.1628275 -3.0779359 0.32669505
-5.0045805 -2.981415 0.41380209
-5.0016084 -3.0063565 0.40812773
-4.9945526 -3.0106344 0.41834295
-4.9912086 -3.0125649 0.41267216
-4.9941158 -3.0121491 0.41231433
-4.9807348 -3.022795 0.41786265
-4.9808736 -3.0233939 0.40480474
-4.9802237 -3.0324278 0.4019658
-4.9738455 -3.051944 0.40447512
-4.9775777 -3.0608459 0.41420424
-4.9661593 -3.0526762 0.41390014
-4.9688492 -3.0657239 0.41566023
-4.9572043 -3.0759141 0.42014238
-4.9553342 -3.0869691 0.40968782
-4.8041229 -2.988317 0.48786265
-4.7883973 -2.9971285 0.5011484
-4.7871141 -3.0103171 0.50081146
-4.7788796 -3.007103 0.49841091
-4.7734747 -3.0217683 0.48345834
-4.7655511 -3.0244334 0.48656246
-4.767889 -3.0399566 0.48478854
-4.7705221 -3.0424569 0.49691355
-4.7513852 -3.0376081 0.48578858
-4.7477574 -3.0551953 0.49054316
-4.7545743 -3.060889 0.48404527
-4.7444329 -3.0750475 0.495442
-4.7409968 -3.0721221 0.50035042
-4.7378879 -3.0851707 0.49516708
-4.7371702 -3.0770323 0.50200671
-4.5784554 -2.9851401 0.57408947
-4.5697074 -2.9996665 0.57609993
-4.5627251 -3.0010717 0.58228099
-4.5636082 -3.0075958 0.57997543
-4.5556078 -3.0147562 0.56674147
-4.5628433 -3.0330079 0.57446641
-4.5565686 -3.0254014 0.57467973
-4.5388875 -3.0386508 0.56445932
-4.5362897 -3.033093 0.56782508
-4.538866 -3.0511289 0.5659579
-4.5345941 -3.0477107 0.5825482
-4.5394559 -3.0597341 0.57101524
-4.5222983 -3.0689735 0.56447446
-4.5189505 -3.0833037 0.57780117
-4.5179 -3.0738497 0.57035297
-4.5100741 -3.0958567 0.57103282
-4.3638473 -2.9923735 0.64691859
-4.3482103 -2.9986916 0.6546973
-4.3427854 -3.0066636 0.65439564
-4.3539863 -3.0014729 0.66241419
-4.3470454 -3.0162799 0.66020101
-4.3435063 -3.0202274 0.65230829
-4.3314915 -3.0313048 0.66151422
-4.3260088 -3.0233312 0.66272205
-4.3271909 -3.0386119 0.65971005
-4.3158131 -3.0503809 0.6610111
-4.3237467 -3.0509136 0.64866006
-4.3170118 -3.0599961 0.65608877
-4.3024893 -3.0678489 0.66163725
-4.3082604 -3.0711067 0.65846235
-4.3060045 -3.0716364 0.64656037
-4.2859535 -3.0728476 0.65678507
-4.293787 -3.0862732 0.66200066
-4.2924056 -3.098454 0.66125226
-4.141788 -2.9888611 0.73250502
-4.1223445 -2.9991405 0.73681372
-4.1215916 -3.0016172 0.72663438
-4.1131811 -3.0016308 0.73341107
-4.1173344 -3.0114024 0.73836732
-4.115931 -3.0112336 0.72609234
-4.1176949 -3.0331061 0.73930842
-4.1113524 -3.039233 0.73732781
-4.0947771 -3.0375068 0.72793013
-4.0929785 -3.0387218 0.73235399
-4.0919199 -3.0416698 0.74516481
-4.0808263 -3.0493634 0.73347986
-4.0854158 -3.0605009 0.74509621
-4.0801768 -3.0674336 0.7424711
-4.0681534 -3.0627329 0.73584056
-4.0711656 -3.0808501 0.73513907
-4.0664444 -3.0849602 0.7383194
-4.0684996 -3.0869653 0.74112141
-4.0525274 -3.0966403 0.73139215
-4.0459452 -3.1087699 0.72618455
-3.9099612 -2.9928091 0.82498485
-3.9062839 -3.0011148 0.82059103
-3.8942838 -2.9982879 0.81077826
-3.8906596 -3.0145073 0.81974542
-3.8896532 -3.0229967 0.81912011
-3.8752694 -3.0187993 0.8260783
-3.8815796 -3.0341907 0.81462103
-3.864702 -3.0359542 0.82684749
-3.8650148 -3.0460708 0.81508142
-3.8750494 -3.0339382 0.81686234
-3.8702838 -3.0551324 0.80898112
-3.8479359 -3.0568423 0.8182562
-3.8499744 -3.0507534 0.81581444
-3.8418181 -3.0652487 0.82260358
-3.844687 -3.0629537 0.82634795
-3.8481736 -3.0704989 0.81972814
-3.8446949 -3.0885859 0.8231498
-3.8326657 -3.094034 0.81023455
-3.8284025 -3.0840416 0.8126235
-3.8158979 -3.0883374 0.81256002
-3.8216052 -3.1121294 0.81671137
-3.6735415 -3.002347 0.90578115
-3.6780012 -2.9941778 0.90511155
-3.6648955 -3.0021367 0.89533752
-3.6649935 -3.0172565 0.89324343
-3.66134 -3.0201623 0.88898307
-3.6442993 -3.0238965 0.89200884
-3.6438296 -3.0199156 0.89495343
-3.6362679 -3.0359936 0.89325148
-3.6463103 -3.0238965 0.89260846
-3.6364093 -3.0418432 0.8935222
-3.6223495 -3.0377152 0.89406532
-3.6204383 -3.042237 0.90791667
-3.6191897 -3.0578508 0.89894235
-3.607708 -3.0577674 0.89997548
-3.6183133 -3.0582421 0.90322411
-3.6131721 -3.0658948 0.90785426
-3.6049979 -3.0773041 0.90157479
-3.5938721 -3.0853848 0.90432101
-3.6044412 -3.0877485 0.90426213
-3.5956461 -3.0844581 0.8913483
-3.5859306 -3.0913627 0.90764844
-3.5756648 -3.1006176 0.90450656
-3.5715406 -3.1128926 0.89082485
-3.5763838 -3.1179616 0.90229464
-3.4224913 -2.9977424 0.97957724
-3.4232068 -2.9966559 0.9730376
-3.4192853 -3.0116923 0.98013872
-3.4216366 -2.9999073 0.98420298
-3.4212351 -3.0230024 0.97094166
-3.4208856 -3.0216208 0.98600256
-3.4134433 -3.0148487 0.97918493
-3.4096944 -3.0221431 0.98813212
-3.3890805 -3.0296526 0.96981823
-3.4021418 -3.0463517 0.971443
-3.3837266 -3.0512066 0.97811222
-3.3892477 -3.0409694 0.97067136
-3.3813016 -3.0510097 0.97299153
-3.3862481 -3.0476067 0.97188854
-3.3671236 -3.0680146 0.97247624
-3.3612537 -3.0722921 0.97922534
-3.3603165 -3.0733526 0.97752047
-3.3661904 -3.0748966 0.97328919
-3.3631103 -3.0800657 0.9863106
-3.3583376 -3.0825415 0.98738927
-3.3519337 -3.0908544 0.98836309
-3.3388541 -3.0889471 0.98431849
-3.3332086 -3.1033592 0.97497201
-3.3252366 -3.1069896 0.97376078
-3.3383608 -3.1157744 0.97686815
-3.3308909 -3.1029742 0.98041862
-3.1834223 -2.9884341 1.0688484
-3.1910701 -2.9889748 1.059217
-3.1829429 -3.0107405 1.0691191
-3.1817882 -3.0120456 1.0612417
-3.1795483 -3.0112648 1.069742
-3.1763287 -3.021729 1.0648338
-3.1571472 -3.010879 1.0701917
-3.1673062 -3.0163949 1.0565914
-3.1586702 -3.0193794 1.0588725
-3.1469207 -3.0392449 1.0586137
-3.1516144 -3.029242 1.0524544
-3.1490979 -3.0310762 1.0702162
-3.1362066 -3.0489783 1.0506684
-3.1334069 -3.049927 1.0542657
-3.1384785 -3.0528436 1.0630883
-3.1150439 -3.0567544 1.0658851
-3.1165111 -3.0657039 1.0639644
-3.1126146 -3.0690384 1.0609546
-3.1023121 -3.0679693 1.0593809
-3.1097226 -3.0793893 1.0623567
-3.0973856 -3.0797477 1.059744
-3.091202 -3.0818405 1.0597003
-3.0872505 -3.0952988 1.0661514
-3.0828409 -3.0902205 1.0560448
-3.0948277 -3.0944829 1.0674067
-3.077986 -3.099586 1.059237
-3.0783412 -3.1104381 1.066491
-3.0806115 -3.1016808 1.0547775
-3.0658853 -3.1069148 1.0684942
-3.072727 -3.1238587 1.0551461
-3.0565867 -3.1327715 1.0657887
-3.0630531 -3.1198125 1.0586817
-3.0495574 -3.1272199 1.0624535
-3.0496047 -3.1345413 1.0556345
-3.0397525 -3.1381798 1.0688779
-3.0385325 -3.1493123 1.0613372
-3.0254762 -3.1451421 1.0672574
-3.0251601 -3.1475902 1.0662416
-3.0165515 -3.1596661 1.0642927
-3.0142202 -3.1629434 1.0696943
-3.0252311 -3.1744466 1.0704715
-3.0055933 -3.1767881 1.0684901
-3.013057 -3.170012 1.0633777
-2.996743 -3.1876667 1.0552138
-3.0072417 -3.1798592 1.0676757
-3.1096172 -3.3284416 0.97203743
-3.1142156 -3.3153298 0.98604649
-3.1128876 -3.326309 0.98185307
-3.1125696 -3.3330929 0.96982312
-3.0941944 -3.3419647 0.97874892
-3.0904114 -3.3462725 0.98039865
-3.0858452 -3.3553736 0.98392761
-3.0832543 -3.3563752 0.9784475
-3.0857697 -3.3455052 0.97952098
-3.0764432 -3.3495829 0.97260422
-3.0746486 -3.3553646 0.97451526
-3.0672607 -3.3703911 0.9739024
-3.0658581 -3.3687422 0.98666805
-3.0486426 -3.3714337 0.97700107
-3.0434513 -3.3804145 0.9828071
-3.0493281 -3.3902831 0.98864365
-3.0335493 -3.3802621 0.96971089
-3.0342355 -3.392333 0.97410178
-3.040396 -3.3916082 0.97368133
-3.0254769 -3.4062514 0.9734953
-3.0174689 -3.403801 0.97183305
-3.0275438 -3.4186695 0.97944331
-3.0182257 -3.4168479 0.97299474
-3.0161359 -3.4225299 0.98814046
-3.0037072 -3.4277453 0.97858453
-3.0054667 -3.4235682 0.98343253
-3.121592 -3.5660164 0.90134203
-3.1162438 -3.5763936 0.89266539
-3.1064985 -3.5776794 0.88896626
-3.0971675 -3.5888004 0.89486986
-3.0880165 -3.5966733 0.90746337
-3.0805218 -3.5993872 0.88942105
-3.0854106 -3.5975547 0.89742619
-3.0767419 -3.5984101 0.90396875
-3.0729218 -3.6116209 0.88950866
-3.0786512 -3.6113803 0.90343177
-3.0595269 -3.6118524 0.89677358
-3.0612614 -3.6119697 0.90409845
-3.0516667 -3.6273413 0.8944909
-3.0457654 -3.6183877 0.8981086
-3.0539541 -3.6252947 0.8981927
-3.0495436 -3.629725 0.89989531
-3.0431693 -3.6440678 0.90775561
-3.028784 -3.6347718 0.89907861
-3.0278502 -3.6466913 0.90150213
-3.0213706 -3.6493826 0.88847023
-3.020962 -3.6579971 0.89926332
-3.0072057 -3.6534002 0.89422917
-3.0061185 -3.6642685 0.89810646
-2.9946332 -3.6743009 0.89521331
-3.1150527 -3.819212 0.80845642
-3.0996561 -3.8233333 0.82275659
-3.1025505 -3.8261638 0.80696857
-3.0975788 -3.8196983 0.82472396
-3.0812778 -3.8373945 0.81480008
-3.0825474 -3.8337121 0.82641828
-3.0768428 -3.834728 0.81364805
-3.0803392 -3.8471005 0.80969363
-3.0688636 -3.8435047 0.81908286
-3.0535049 -3.8535483 0.82264411
-3.0610332 -3.8536131 0.80710977
-3.0540872 -3.8636158 0.81180549
-3.0528347 -3.8618529 0.81801456
-3.0473645 -3.8604646 0.81502563
-3.024133 -3.8681278 0.81866974
-3.0308192 -3.8824191 0.81031781
-3.0258815 -3.8763702 0.8252641
-3.0137081 -3.8791881 0.8121444
-3.0054832 -3.8959067 0.80691952
-3.007863 -3.9026492 0.81594265
-3.0066757 -3.9023082 0.80918479
-3.1123443 -4.0453591 0.73547542
-3.1017814 -4.0477695 0.72902322
-3.1050036 -4.0501161 0.7282207
-3.0912085 -4.0546422 0.74400866
-3.0937634 -4.0712733 0.72975171
-3.0846639 -4.0683899 0.72578233
-3.0806124 -4.078763 0.74322617
-3.0696745 -4.0863461 0.72817469
-3.0639553 -4.0817513 0.73059678
-3.0492072 -4.0814161 0.73756808
-3.0412109 -4.1008759 0.73063266
-3.0456924 -4.0954337 0.74563509
-3.0366204 -4.0988817 0.74263161
-3.0283449 -4.1142077 0.73943406
-3.0242755 -4.1177688 0.74393022
-3.014457 -4.1179156 0.73562622
-3.0086021 -4.1197028 0.74125791
-3.0052974 -4.11625 0.74360675
-2.9970384 -4.1327815 0.73484337
-3.0063515 -4.1202745 0.73069966
-3.0959241 -4.2734823 0.6501478
-3.0849826 -4.2890477 0.660532
-3.0790329 -4.2812676 0.65172905
-3.0760803 -4.2909455 0.65185249
-3.0763195 -4.3022933 0.65265983
-3.0720565 -4.3095675 0.65755665
-3.0560913 -4.3167377 0.64489496
-3.0544887 -4.3063598 0.65990686
-3.0505311 -4.3134856 0.66259974
-3.055331 -4.3156934 0.66200411
-3.0442686 -4.3260107 0.66039246
-3.0325265 -4.3313742 0.64755356
-3.0303946 -4.3367805 0.64682394
-3.0170593 -4.3452334 0.66073745
-3.0235951 -4.3399305 0.64761615
-3.0093174 -4.3363762 0.65152502
-3.0101368 -4.3428731 0.65255964
-3.0036125 -4.3537908 0.6482594
-3.0855541 -4.5174236 0.57988691
-3.0811026 -4.5213919 0.57480317
-3.0772407 -4.5203385 0.56366396
-3.0749843 -4.5135894 0.57141531
-3.0655611 -4.5307612 0.57800549
-3.0568614 -4.5406561 0.58037955
-3.0542421 -4.5431509 0.5722847
-3.0447381 -4.5374384 0.57196444
-3.0513194 -4.5386214 0.56935823
-3.03686 -4.539362 0.58003736
-3.026695 -4.5446477 0.58192176
-3.0236709 -4.5517864 0.56416804
-3.0257249 -4.5613732 0.57178926
-3.0189121 -4.5550199 0.57047182
-3.0043421 -4.5655656 0.57628655
-3.0031757 -4.5737395 0.57650125
-3.0997229 -4.7385459 0.49728164
-3.0840523 -4.7274103 0.4892773
-3.0886958 -4.7292018 0.48435813
-3.0759397 -4.7428856 0.4829579
-3.0724981 -4.7527618 0.50052214
-3.0671663 -4.7459779 0.49518943
-3.0595822 -4.7476172 0.48450255
-3.0443711 -4.7688193 0.48439279
-3.0304713 -4.7618322 0.4979524
-3.030751 -4.7600665 0.48754409
-3.0308099 -4.7811475 0.48944405
-3.028857 -4.77317 0.48680723
-3.0149026 -4.7764549 0.48669738
-3.0058615 -4.7936077 0.49721289
-2.9982147 -4.7939496 0.48215187
-3.0898664 -4.9505768 0.41694006
-3.0897601 -4.951417 0.41559571
-3.0803342 -4.9636936 0.41732156
-3.0710123 -4.9687252 0.41029713
-3.0681248 -4.9606957 0.40929207
-3.0556395 -4.9793916 0.41145024
-3.0412486 -4.9828062 0.40582049
-3.0494881 -4.9789438 0.40113145
-3.0378318 -4.9927244 0.40350562
-3.0356538 -4.9855471 0.40974456
-5.8613634 -2.995616 0.13683182
-5.8673577 -3.0058255 0.13118805
-5.854157 -3.0031087 0.14383668
-5.8549604 -3.0073998 0.12836289
-5.8539119 -3.0202477 0.14059463
-5.8489952 -3.0234833 0.13531429
-5.8361983 -3.0403423 0.14148928
-5.8369884 -3.0561087 0.14165349
-5.8311009 -3.0566974 0.14350127
-5.8265762 -3.0587351 0.13116644
-5.8288617 -3.0687821 0.13567199
-5.6697474 -3.0031769 0.21806166
-5.6584048 -2.99418 0.21148074
-5.6544027 -3.0101979 0.20880328
-5.6458635 -3.0093906 0.22146639
-5.6450815 -3.0279005 0.2190764
-5.6495686 -3.0378594 0.20800404
-5.6278701 -3.0328662 0.20933607
-5.6259956 -3.0462542 0.218244
-5.622263 -3.0593967 0.21327308
-5.6308541 -3.0591166 0.20640785
-5.6149287 -3.0660441 0.20745954
-5.4558082 -2.9975102 0.2853103
-5.4440632 -2.9972684 0.29516432
-5.4349847 -3.0127034 0.2937285
-5.4332328 -3.0115838 0.30167958
-5.4338598 -3.0191896 0.2875627
-5.425549 -3.029346 0.28632411
-5.4358954 -3.0418887 0.29957694
-5.4173236 -3.05497 0.28756019
-5.4237118 -3.0609245 0.30369094
-5.4169545 -3.0552468 0.30075517
-5.4091353 -3.0754349 0.28589529
-5.4033422 -3.0680695 0.29890215
-5.2485046 -2.9848351 0.36398062
-5.2343993 -2.9948328 0.3779043
-5.2323332 -3.0096812 0.37182939
-5.2243733 -3.0204532 0.38319942
-5.2176418 -3.0258167 0.36962217
-5.2176471 -3.0368633 0.3705532
-5.2096591 -3.0385644 0.37311316
-5.2055302 -3.0377853 0.36892834
-5.2043271 -3.0534737 0.37212709
-5.1979737 -3.067667 0.37025672
-5.1986027 -3.0705111 0.36818719
-5.1940312 -3.0634415 0.38345155
-5.1955256 -3.0785072 0.37119284
-5.0255828 -2.9959583 0.45536938
-5.021893 -3.0045474 0.46160862
-5.0117712 -3.0173745 0.44410884
-5.0207081 -3.0064566 0.4522098
-5.0070753 -3.0156627 0.44838595
-5.0176172 -3.0279288 0.4561635
-5.004951 -3.0381148 0.45703179
-4.9941454 -3.0332134 0.46233416
-5.0053992 -3.0480342 0.46197811
-5.0013795 -3.0486534 0.45382228
-4.9896083 -3.0611455 0.46160841
-4.9735384 -3.074141 0.44783965
-4.9712195 -3.0812168 0.4482719
-4.9663911 -3.0814421 0.44664448
-4.8178144 -2.9953291 0.54271495
-4.8088245 -3.0007007 0.53364223
-4.8120475 -3.017648 0.54138827
-4.7943935 -3.0080411 0.54103434
-4.7914271 -3.0139499 0.53285241
-4.7888079 -3.0201097 0.53103822
-4.7943349 -3.0387793 0.52371252
-4.7920661 -3.04567 0.53036624
-4.7835574 -3.0545421 0.53691292
-4.7746067 -3.0628958 0.53019714
-4.7672739 -3.0626297 0.53962356
-4.7637491 -3.0775681 0.53041184
-4.7692881 -3.0799332 0.53098053
-4.7670712 -3.0888565 0.52787781
-4.7451992 -3.079036 0.52558213
-4.5979266 -2.9906619 0.60372424
-4.5861721 -2.9920068 0.61001307
-4.5817342 -3.0153339 0.61610943
-4.5906339 -3.0144114 0.62002575
-4.5729775 -3.0288076 0.62227464
-4.5820284 -3.0201495 0.61146969
-4.5816436 -3.0322542 0.61240059
-4.5704618 -3.0341947 0.61763477
-4.5587025 -3.0382249 0.62060767
-4.5500369 -3.0446985 0.62005734
-4.5636578 -3.0617976 0.61436558
-4.5590158 -3.0713363 0.61375856
-4.5480757 -3.0806403 0.61624843
-4.5510306 -3.083056 0.60607862
-4.5300603 -3.0920365 0.60792482
-4.5268321 -3.0942976 0.60483533
-4.3831024 -2.9968419 0.69592893
-4.369875 -2.9958119 0.69158864
-4.3714051 -3.0072794 0.68960667
-4.3699541 -3.0143471 0.6875335
-4.3690448 -3.0193105 0.69473773
-4.3538184 -3.0239153 0.69877368
-4.3591909 -3.0218725 0.69987011
-4.3420649 -3.0270858 0.6849094
-4.3351002 -3.0356388 0.68732071
-4.3462806 -3.0452828 0.69381732
-4.3405423 -3.0468225 0.70053893
-4.3235893 -3.0593271 0.6944136
-4.3309684 -3.0575624 0.70293808
-4.3203206 -3.0785553 0.69050634
-4.311738 -3.0828567 0.69921666
-4.3159423 -3.0761576 0.68942189
-4.3161025 -3.0990653 0.68776363
-4.2951579 -3.0890901 0.68697989
-4.1605182 -2.9890611 0.76361257
-4.152256 -2.9916058 0.77678961
-4.1374893 -3.0126808 0.77449685
-4.135993 -3.0210798 0.76576352
-4.1406136 -3.0211434 0.76485288
-4.1367016 -3.0148537 0.76900119
-4.1252136 -3.0242834 0.77489436
-4.1250072 -3.0422287 0.77352649
-4.1145873 -3.0446534 0.77528483
-4.1058173 -3.0504611 0.77304626
-4.1178236 -3.0546124 0.76951802
-4.1130767 -3.0546961 0.76925337
-4.0951443 -3.0642157 0.77371633
-4.0994973 -3.0764494 0.77557665
-4.0925751 -3.0775225 0.76316398
-4.086556 -3.0789108 0.78282601
-4.0763803 -3.0930455 0.77883703
-4.0803032 -3.0912166 0.78267568
-4.0655866 -3.1032188 0.76985669
-3.9233556 -2.9994648 0.8568787
-3.9292583 -3.003026 0.8456167
-3.9186819 -3.0061157 0.8600201
-3.9083622 -3.0155563 0.85064703
-3.9135721 -3.0136411 0.8547774
-3.896914 -3.029103 0.8435657
-3.8926609 -3.0228529 0.856691
-3.8887382 -3.0307424 0.86140066
-3.8887968 -3.0468783 0.85365224
-3.8850091 -3.0526285 0.85960853
-3.8740327 -3.0462344 0.84377426
-3.8759146 -3.0499349 0.84987009
-3.8690507 -3.0672581 0.85836202
-3.8677759 -3.0584686 0.86289293
-3.8558667 -3.0791035 0.85481292
-3.8598194 -3.0673025 0.85673898
-3.8549764 -3.0754781 0.85037714
-3.8570006 -3.0839682 0.86158192
-3.8543074 -3.0967622 0.86210096
-3.8393552 -3.0900209 0.86231416
-3.8384392 -3.0965636 0.85435963
-3.6909263 -2.9937854 0.92802453
-3.6798952 -3.0036905 0.929905
-3.6803648 -2.996604 0.92599535
-3.6762965 -3.0018985 0.92686516
-3.6803007 -3.0154445 0.92494446
-3.6623719 -3.0084531 0.94025052
-3.6707978 -3.0277989 0.93246269
-3.6680117 -3.0287726 0.93727124
-3.6646993 -3.0391226 0.93420523
-3.6611664 -3.032892 0.92997473
-3.6455812 -3.0459158 0.93842405
-3.6562114 -3.0520978 0.94213557
-3.644954 -3.0629461 0.93809521
-3.6375992 -3.0539298 0.93391562
-3.6293676 -3.0731289 0.94133985
-3.6230495 -3.0786173 0.94089931
-3.6214182 -3.076757 0.9262507
-3.6275675 -3.0763431 0.93576044
-3.6089015 -3.0768564 0.94004643
-3.6132941 -3.0980837 0.93568289
-3.6019104 -3.0879798 0.92340982
-3.6020701 -3.092767 0.93006295
-3.5985115 -3.1105652 0.93097007
-3.5989861 -3.105284 0.92598975
-3.445158 -2.9958761 1.0067883
-3.4425418 -3.0044236 1.007295
-3.4403596 -2.9956365 1.0147405
-3.4328191 -3.017303 1.0076722
-3.4357622 -3.0046141 1.0051569
-3.4344125 -3.0206361 1.0064745
-3.4174197 -3.0295994 1.0029503
-3.412693 -3.0230546 1.0196869
-3.4213068 -3.0372903 1.0036674
-3.4090068 -3.0363467 1.0179652
-3.4016802 -3.0444036 1.0065235
-3.4134364 -3.0540364 1.0113649
-3.4046791 -3.045686 1.0098181
-3.3884695 -3.0540009 1.0114237
-3.3993218 -3.0694711 1.0105311
-3.3926826 -3.067811 1.0184236
-3.3847191 -3.0733838 1.022154
-3.3802731 -3.0784626 1.0172244
-3.3790841 -3.0763943 1.0028486
-3.373908 -3.086272 1.0141999
-3.3744276 -3.0930758 1.0222718
-3.3663821 -3.0958948 1.0054823
-3.3534887 -3.0942223 1.0218089
-3.3621354 -3.1006129 1.0145801
-3.3491702 -3.1021349 1.0166348
-3.337091 -3.1213033 1.0050973
-3.2030904 -2.9916766 1.0926163
-3.1995499 -3.0068402 1.0999044
-3.2009327 -3.0051205 1.0939904
-3.1966853 -3.002537 1.0829223
-3.1810801 -3.0047922 1.0897682
-3.177397 -3.0233276 1.0985063
-3.1904969 -3.0133014 1.0936226
-3.1672642 -3.0162609 1.0870475
-3.1712542 -3.0306003 1.0836439
-3.173183 -3.0372121 1.085759
-3.1666431 -3.0282042 1.0970581
-3.1524658 -3.0398459 1.0976816
-3.1509941 -3.0370667 1.0845071
-3.1554303 -3.0542424 1.0983922
-3.1509285 -3.0600216 1.0944928
-3.1395745 -3.0663328 1.0965226
-3.1394763 -3.0699651 1.0930371
-3.1442559 -3.0745921 1.091045
-3.1356041 -3.0674427 1.0991602
-3.1303501 -3.0864618 1.0851045
-3.1229746 -3.0831873 1.0844917
-3.124294 -3.0899875 1.0966663
-3.1049838 -3.0995743 1.0960432
-3.0988421 -3.097862 1.1026617
-3.098809 -3.0959182 1.087912
-3.1026695 -3.1068974 1.0912563
-3.1044941 -3.1020615 1.0953674
-3.089798 -3.1062942 1.0992448
-3.0770881 -3.1261702 1.0946589
-3.0762568 -3.1250935 1.095435
-3.0694752 -3.1209488 1.0838609
-3.0833006 -3.122437 1.0898558
-3.0649452 -3.1289346 1.0906268
-3.0672069 -3.1336162 1.0974675
-3.062844 -3.1425965 1.0906029
-3.053225 -3.139775 1.097104
-3.0602558 -3.143122 1.0927799
-3.0431693 -3.1561229 1.0885562
-3.0421996 -3.1607697 1.0887829
-3.0458097 -3.1689472 1.0944071
-3.0286381 -3.1747115 1.0884905
-3.0230343 -3.1786747 1.085394
-3.0314298 -3.1686628 1.1001023
-3.0190485 -3.1852984 1.0944252
-3.0198202 -3.1819634 1.0840578
-3.0074511 -3.1934073 1.1007957
-3.0085747 -3.196286 1.0984644
-2.9940166 -3.2064879 1.0874039
-3.0036764 -3.2001362 1.0959619
-3.1182585 -3.3358097 1.0207139
-3.1218684 -3.3449204 1.0038426
-3.1113889 -3.3528607 1.0072546
-3.1039996 -3.353636 1.0049194
-3.101896 -3.3664751 1.0101829
-3.0854635 -3.364537 1.0030097
-3.0993924 -3.374687 1.0086144
-3.0765774 -3.3704233 1.0155565
-3.0760875 -3.3760703 1.0165058
-3.0666521 -3.3758516 1.0080104
-3.0686529 -3.3895407 1.0220317
-3.0660079 -3.3915131 1.0113077
-3.0602281 -3.3876858 1.017002
-3.0510304 -3.4011548 1.0062733
-3.0441618 -3.397212 1.0070512
-3.0520239 -3.4015346 1.0141063
-3.0470533 -3.4044898 1.0153441
-3.0364718 -3.4093399 1.0051717
-3.0389426 -3.418416 1.0136715
-3.0204577 -3.4227786 1.0067028
-3.0304627 -3.4338701 1.0103512
-3.0264404 -3.4270501 1.0163267
-3.0131359 -3.4391906 1.0104226
-3.0141315 -3.4468794 1.0153357
-3.0058498 -3.4524515 1.0084714
-2.9967844 -3.4506435 1.0215573
-3.1208675 -3.5870759 0.93606687
-3.1033039 -3.5994172 0.9298737
-3.0959067 -3.5990045 0.93885738
-3.1000037 -3.6048884 0.92772472
-3.0910633 -3.6055644 0.92974043
-3.0984685 -3.6070113 0.94280887
-3.0798919 -3.6199529 0.92796308
-3.0872138 -3.618695 0.92964822
-3.0696163 -3.6339662 0.92997402
-3.0788772 -3.6249888 0.93631399
-3.0550458 -3.6247075 0.92886811
-3.0568116 -3.6318843 0.93344134
-3.0447645 -3.636692 0.94278049
-3.0437279 -3.6506307 0.93058199
-3.0538177 -3.6406689 0.94204664
-3.0418861 -3.6631584 0.93639666
-3.03688 -3.6521235 0.94213009
-3.0267138 -3.6534684 0.93343943
-3.0148566 -3.6622798 0.93378842
-3.0226674 -3.6654224 0.92741877
-3.0041325 -3.6698101 0.92562723
-3.0130377 -3.6810453 0.94094843
-2.9973636 -3.6853218 0.9357444
-2.9923446 -3.6936557 0.94087732
-3.1150217 -3.8395765 0.86035269
-3.1105258 -3.8364356 0.86148751
-3.0916739 -3.8534002 0.85791123
-3.0870826 -3.8453164 0.85723698
-3.0911758 -3.8504984 0.85199088
-3.0749137 -3.8486211 0.84783477
-3.0850155 -3.853344 0.84351647
-3.0769029 -3.8721132 0.85218096
-3.073463 -3.8603556 0.86077994
-3.0552211 -3.8687315 0.845249
-3.0518405 -3.8694401 0.85039085
-3.0490906 -3.8910162 0.863024
-3.0452001 -3.8791099 0.84303546
-3.0448799 -3.8879881 0.85546643
-3.0252283 -3.8863409 0.8470431
-3.0308163 -3.8938198 0.84481764
-3.0205548 -3.8967941 0.86218214
-3.0146058 -3.9170554 0.84508282
-3.0199862 -3.9192827 0.84403902
-2.9967618 -3.9086797 0.85890937
-3.0090625 -3.9201138 0.85735399
-3.1074948 -4.0799437 0.77860993
-3.1018052 -4.0757461 0.77592719
-3.0960979 -4.0766635 0.76862627
-3.0979538 -4.0833702 0.76722473
-3.088227 -4.0811124 0.78258914
-3.0807195 -4.0940461 0.77921623
-3.0758417 -4.0864902 0.77981144
-3.0680571 -4.1097789 0.7824012
-3.0613101 -4.095314 0.77980804
-3.0596869 -4.1186266 0.76998729
-3.0396132 -4.1145744 0.77025741
-3.0383899 -4.1105247 0.77907157
-3.0398433 -4.1264658 0.77130669
-3.0285919 -4.1299667 0.78116548
-3.0187359 -4.1294508 0.77760452
-3.0135098 -4.1271429 0.76542425
-3.0116506 -4.14568 0.76510698
-3.0091901 -4.1421599 0.76579928
-3.0041342 -4.1376271 0.76524681
-3.1090403 -4.3058333 0.68577665
-3.096179 -4.3112397 0.69452053
-3.0830414 -4.3011742 0.69158065
-3.0810835 -4.3183193 0.69695812
-3.0868845 -4.3099771 0.70308512
-3.0828209 -4.3175478 0.69397032
-3.0623121 -4.3256683 0.69139719
-3.0539775 -4.3377104 0.6945135
-3.0459542 -4.3330793 0.68536776
-3.0572326 -4.329185 0.68496466
-3.0490575 -4.3486209 0.6891793
-3.0404592 -4.341208 0.69233131
-3.0231109 -4.3466759 0.68988389
-3.0286965 -4.3562102 0.69461757
-3.0288987 -4.3575759 0.69201195
-3.0029681 -4.3609147 0.68614513
-3.0061464 -4.3697867 0.69645941
-2.9918921 -4.3763728 0.6990245
-3.0981216 -4.5322638 0.61061746
-3.0896735 -4.5343647 0.61026806
-3.0816224 -4.5343561 0.61475009
-3.0693507 -4.5318217 0.6109041
-3.073921 -4.5380163 0.60584086
-3.0609329 -4.555881 0.61548519
-3.0632048 -4.5600371 0.60799712
-3.0480764 -4.5643587 0.62139541
-3.0388088 -4.55796 0.61013788
-3.039221 -4.5634146 0.61650211
-3.0370624 -4.5776057 0.62244838
-3.023417 -4.5696788 0.61062932
-3.0301151 -4.5800376 0.62314498
-3.0123255 -4.5844674 0.62251294
-3.0183756 -4.5798159 0.6199947
-3.0094833 -4.5885305 0.60391188
-3.0911422 -4.759428 0.52807587
-3.0798674 -4.7481532 0.53208804
-3.0751882 -4.7539825 0.52677196
-3.0817604 -4.766603 0.5402658
-3.0619626 -4.7634482 0.52382392
-3.0562124 -4.7730384 0.53955501
-3.0622754 -4.7757225 0.52916473
-3.0558167 -4.7870183 0.53857327
-3.049984 -4.7907724 0.53685284
-3.0266638 -4.7920475 0.53062832
-3.0394201 -4.8011999 0.53125817
-3.0281191 -4.805717 0.52749532
-3.0128002 -4.7922006 0.54222584
-3.0027912 -4.8119087 0.52865005
-2.9992826 -4.8184767 0.5425334
-3.0891736 -4.9615731 0.45123422
-3.0861466 -4.9819226 0.46142444
-3.073504 -4.9824886 0.4445951
-3.0714467 -4.9839039 0.44827884
-3.0711038 -4.9886861 0.45494512
-6.0957017 -3.0076036 0.10398859
-6.0811734 -3.0096309 0.10311457
-6.080339 -3.0114589 0.1024181
-6.0811105 -3.0271921 0.10942904
-5.8894157 -2.9949555 0.17637731
-5.8941312 -2.9944313 0.17703228
-5.8797517 -3.0035789 0.18418022
-5.8862343 -3.0161042 0.17801459
-5.8734021 -3.0336251 0.18462411
-5.8735476 -3.0318413 0.18040191
-5.8642902 -3.0433059 0.19234498
-5.8599463 -3.0513394 0.17393808
-5.8502364 -3.0619116 0.18659914
-5.8622046 -3.0663252 0.17538173
-5.8524499 -3.0816951 0.18178292
-5.6814728 -3.0000918 0.25549173
-5.6726003 -2.9939625 0.26973948
-5.676569 -3.0185297 0.25968811
-5.6666923 -3.0144894 0.26033595
-5.6701946 -3.0348308 0.25098205
-5.6579084 -3.0301626 0.25837192
-5.6536679 -3.0454099 0.26593077
-5.6478233 -3.055218 0.25111389
-5.6493063 -3.0612764 0.2600739
-5.6419964 -3.0618737 0.26184866
-5.6482735 -3.07845 0.26752606
-5.4780636 -3.0019829 0.34582359
-5.4750319 -3.0018339 0.34894812
-5.4620404 -3.0160263 0.34404668
-5.4683905 -3.017951 0.34673157
-5.4640837 -3.0318298 0.34200656
-5.4523764 -3.0257201 0.32995018
-5.4530997 -3.0380285 0.33599576
-5.4486289 -3.0560939 0.34388688
-5.4351878 -3.0511336 0.33907866
-5.4399614 -3.0567467 0.3455863
-5.4390469 -3.0777698 0.34807986
-5.4183698 -3.0799551 0.33837748
-5.2547474 -3.0022964 0.42067707
-5.2559533 -3.0060377 0.4101496
-5.2544641 -3.0096989 0.41338041
-5.2576895 -3.0258896 0.41035226
-5.2529612 -3.0270514 0.4226411
-5.2421765 -3.0280011 0.42448395
-5.2434912 -3.0397785 0.41890037
-5.2296033 -3.0406091 0.41531113
-5.229198 -3.0448151 0.41830036
-5.2262883 -3.0526447 0.42669985
-5.2130713 -3.0609734 0.40929011
-5.2160902 -3.0747027 0.41549945
-5.2096257 -3.0911474 0.42540225
-5.04179 -3.0010898 0.50500828
-5.055234 -3.0042515 0.49224976
-5.0363793 -3.0008643 0.50587839
-5.0356722 -3.0230377 0.49506038
-5.0405388 -3.0155797 0.49073684
-5.0289845 -3.0319824 0.48952615
-5.0344315 -3.0297527 0.48779875
-5.0114689 -3.0385926 0.50504971
-5.0259066 -3.0547481 0.49587241
-5.0141249 -3.0687466 0.49754545
-5.0124307 -3.0573575 0.50262219
-5.009666 -3.0636086 0.49159965
-4.9996505 -3.0752113 0.49102044
-4.8395963 -2.9935255 0.57386386
-4.8268857 -2.9975107 0.57266444
-4.8384891 -3.0141778 0.58210081
-4.8312941 -3.0205371 0.58079976
-4.8258166 -3.0081892 0.57768548
-4.8230791 -3.0145442 0.56543648
-4.8095093 -3.0333922 0.56620377
-4.8142567 -3.0348308 0.56536913
-4.8139186 -3.0377994 0.5652861
-4.8045931 -3.0550563 0.58059722
-4.7958379 -3.052973 0.56778777
-4.7827749 -3.0623674 0.57775956
-4.7909026 -3.0675631 0.57782501
-4.7895842 -3.0697708 0.57828587
-4.7695575 -3.0907178 0.57784337
-4.6182976 -2.9931018 0.65633452
-4.6137552 -3.0059876 0.64416909
-4.6084366 -3.0078661 0.65729618
-4.6039438 -3.0136609 0.65417999
-4.599525 -3.014394 0.66052616
-4.5997863 -3.0306451 0.65566891
-4.5928473 -3.038116 0.64812452
-4.5959282 -3.0380061 0.66208571
-4.5789347 -3.0408788 0.6605345
-4.581471 -3.0480356 0.6447255
-4.5844412 -3.0625908 0.65316427
-4.5674567 -3.056793 0.65517908
-4.5626287 -3.069875 0.6617713
-4.5646644 -3.0826714 0.64901894
-4.569808 -3.0752654 0.66197753
-4.5485959 -3.092346 0.64512342
-4.4001675 -2.983248 0.72577626
-4.3914838 -3.0047362 0.73441994
-4.3888307 -2.9934828 0.7266112
-4.3877201 -3.0090275 0.73806012
-4.38241 -3.0118124 0.74136263
-4.3886528 -3.0218923 0.73686552
-4.3728719 -3.0314319 0.72568297
-4.3704901 -3.0273049 0.72809458
-4.3608522 -3.0326269 0.72429669
-4.3582478 -3.0410519 0.72979701
-4.352488 -3.0574372 0.72729361
-4.3446131 -3.0493271 0.72945648
-4.3480859 -3.0627604 0.72902095
-4.3393588 -3.0792882 0.73918325
-4.3391743 -3.0747199 0.73269725
-4.3356786 -3.0806162 0.72226226
-4.3366718 -3.0949628 0.72841227
-4.3288388 -3.091167 0.72480834
-4.1691694 -2.9947186 0.8205409
-4.1628561 -3.0069759 0.81540996
-4.1710339 -2.9977391 0.81999475
-4.1617074 -3.0049007 0.81878477
-4.1502094 -3.0198169 0.81023055
-4.1591392 -3.0302968 0.81123155
-4.1578984 -3.0248914 0.80287808
-4.1431355 -3.0402977 0.81469929
-4.1387997 -3.0410135 0.81823915
-4.1283059 -3.0382209 0.81163388
-4.1214075 -3.0495086 0.82026732
-4.1173143 -3.0586739 0.80248195
-4.1183438 -3.0602169 0.81976593
-4.1147804 -3.0766411 0.81571496
-4.1124191 -3.0657833 0.80256838
-4.1186042 -3.0880792 0.80475676
-4.1037798 -3.0933664 0.8181597
-4.097301 -3.088131 0.8019591
-4.0989933 -3.102808 0.81083983
-3.9506183 -3.0000591 0.88684988
-3.9355152 -3.0056601 0.89881212
-3.9317708 -3.0114403 0.88738811
-3.9258041 -3.0025308 0.88019431
-3.9225457 -3.0143468 0.88234365
-3.9233308 -3.0280983 0.88111204
-3.9172547 -3.0323396 0.8833397
-3.9089825 -3.0260694 0.88602936
-3.9072998 -3.0376413 0.87969768
-3.9018099 -3.035234 0.88442618
-3.9074316 -3.0553076 0.88644654
-3.8955812 -3.0444677 0.88838655
-3.8917611 -3.0540805 0.89006096
-3.8993573 -3.0619316 0.88615358
-3.8941395 -3.0707369 0.89593303
-3.886765 -3.0645471 0.89745802
-3.8806145 -3.0765092 0.88023299
-3.8722286 -3.0844347 0.89476335
-3.8611457 -3.0949204 0.88320118
-3.8563867 -3.1041672 0.87951952
-3.8668919 -3.1032944 0.88123155
-3.7121725 -2.9994011 0.97779047
-3.7188635 -2.9911973 0.97164655
-3.7038727 -2.9948711 0.96310109
-3.6927822 -2.9976165 0.97119391
-3.6919048 -3.0172839 0.97091383
-3.6894953 -3.015105 0.96410316
-3.6843038 -3.028852 0.97479248
-3.6845744 -3.0358353 0.96041548
-3.6764002 -3.0423868 0.96220499
-3.6719003 -3.0437777 0.97027481
-3.6656811 -3.0379877 0.97220325
-3.6614416 -3.0430768 0.96753085
-3.6633387 -3.0573707 0.96437401
-3.653774 -3.0647764 0.96365559
-3.6561096 -3.0555151 0.96844751
-3.6587179 -3.0680611 0.9605903
-3.6481297 -3.0796397 0.96415192
-3.6468451 -3.0757205 0.96589029
-3.6399305 -3.0878661 0.96623135
-3.6312194 -3.0797575 0.9703297
-3.6344311 -3.0896828 0.96536028
-3.6157074 -3.0996289 0.96043807
-3.621649 -3.0957394 0.96635228
-3.6107402 -3.1065598 0.96998501
-3.4612944 -3.0038288 1.0465431
-3.4664662 -3.0079691 1.037122
-3.4594882 -3.0058174 1.0412287
-3.4489419 -3.0066848 1.0543547
-3.4566505 -3.0049477 1.0404297
-3.4440112 -3.0188167 1.0397017
-3.4472668 -3.0202222 1.0541304
-3.4354851 -3.0272357 1.0436895
-3.4286191 -3.0245295 1.0422082
-3.435832 -3.0352604 1.0549706
-3.4194055 -3.0401468 1.0553535
-3.4249594 -3.0543969 1.0364537
-3.4199281 -3.0458679 1.0445572
-3.4107833 -3.0509982 1.0366395
-3.4085059 -3.0680492 1.0552988
-3.4001467 -3.05668 1.0449231
-3.4125087 -3.0727921 1.0379699
-3.3904355 -3.0813551 1.0488257
-3.3987966 -3.087291 1.047204
-3.3886323 -3.0846858 1.0396619
-3.385699 -3.0899067 1.0520377
-3.3823762 -3.1049409 1.054962
-3.3779464 -3.0992098 1.0512079
-3.3654065 -3.1086066 1.0471102
-3.3607781 -3.1000051 1.050742
-3.3574834 -3.1073306 1.0505178
-3.2297628 -2.9861677 1.1174955
-3.2239587 -2.9921858 1.1221274
-3.2072928 -3.0108712 1.12558
-3.2122421 -3.0037053 1.1163882
-3.2047274 -3.0179253 1.1267202
-3.2048304 -3.0131485 1.1267564
-3.202003 -3.0282748 1.1172563
-3.2029233 -3.0152004 1.123086
-3.1879354 -3.0218432 1.1222373
-3.1893091 -3.0295439 1.1187775
-3.1909008 -3.0286782 1.1160456
-3.1840541 -3.0461993 1.1318094
-3.1725693 -3.0512514 1.1333959
-3.1776259 -3.0454559 1.1266506
-3.1718678 -3.0563552 1.1301817
-3.1557717 -3.0515735 1.12298
-3.1596332 -3.0681863 1.1251367
-3.1529884 -3.0699477 1.1248465
-3.1405082 -3.0809555 1.1223862
-3.1488702 -3.0775781 1.1166919
-3.140686 -3.080039 1.1163242
-3.1352274 -3.0799067 1.1228904
-3.1339991 -3.0925491 1.1288534
-3.1311779 -3.0945134 1.125055
-3.1150961 -3.0949917 1.1347942
-3.1154771 -3.1036518 1.1337464
-3.1230536 -3.1004574 1.1205109
-3.1084673 -3.1149087 1.1299331
-3.1141651 -3.1211762 1.1327604
-3.1023171 -3.1201084 1.1233724
-3.0961576 -3.135165 1.1159245
-3.0903594 -3.1290781 1.1330038
-3.0779891 -3.1260839 1.12183
-3.0796497 -3.1445956 1.1330746
-3.0851028 -3.1513586 1.1282181
-3.0808105 -3.1428421 1.1190721
-3.0775602 -3.1462474 1.1174853
-3.0675392 -3.1594179 1.1258057
-3.06809 -3.1626439 1.1322113
-3.0658076 -3.1583858 1.1240314
-3.0529072 -3.1723373 1.1251352
-3.0474489 -3.1648669 1.1166601
-3.0449049 -3.1694078 1.1155075
-3.0335293 -3.1799972 1.1201652
-3.0309026 -3.1804333 1.1223757
-3.0331271 -3.1809773 1.1174126
-3.0244913 -3.2026765 1.1333476
-3.0174363 -3.1987667 1.1204096
-3.0220551 -3.1998258 1.1285368
-3.0202625 -3.2030261 1.1252074
-3.0066438 -3.2177558 1.1322051
-3.0119154 -3.211463 1.130946
-3.0056562 -3.2270679 1.1294127
-3.1257181 -3.3505113 1.0430045
-3.1157539 -3.3611898 1.0389597
-3.1035731 -3.358552 1.0386189
-3.0963492 -3.3717437 1.0408202
-3.0931842 -3.3823514 1.0511668
-3.1029513 -3.382055 1.0446833
-3.084585 -3.3844488 1.0392222
-3.0895422 -3.3977125 1.0432481
-3.0874956 -3.4007428 1.0377771
-3.0867019 -3.4020143 1.0409049
-3.0674357 -3.4026794 1.0395535
-3.0760262 -3.3980811 1.0518895
-3.0686555 -3.4060085 1.0512228
-3.0616195 -3.4114246 1.0417173
-3.0523763 -3.4183946 1.0459502
-3.0527804 -3.4198563 1.0548191
-3.0396621 -3.4276826 1.0456274
-3.0319989 -3.4252028 1.0474982
-3.0403042 -3.4454193 1.0506588
-3.0340743 -3.4495909 1.0368611
-3.0247107 -3.4392514 1.0467044
-3.0166926 -3.4422634 1.045446
-3.0163326 -3.4626713 1.0405535
-3.0166333 -3.4608161 1.0545312
-3.0064337 -3.4544966 1.0458189
-2.9919956 -3.473366 1.0399181
-3.1088831 -3.6031289 0.97191191
-3.1145613 -3.6109722 0.96919078
-3.0983627 -3.6119227 0.97050625
-3.0989974 -3.6314521 0.97189635
-3.0934236 -3.6264317 0.96786547
-3.0980005 -3.6382136 0.9650557
-3.0838299 -3.6344614 0.9660641
-3.0745456 -3.6358421 0.97314698
-3.0712776 -3.651861 0.97076201
-3.0767159 -3.6582851 0.97371334
-3.068049 -3.6462455 0.97032171
-3.0688369 -3.6649342 0.96344686
-3.0523398 -3.6524801 0.95997411
-3.0545213 -3.6657226 0.96131808
-3.0353067 -3.6784594 0.97202092
-3.040117 -3.6808472 0.97527355
-3.0277314 -3.6741445 0.96660298
-3.0343313 -3.6832438 0.96086925
-3.0138423 -3.6941671 0.96342707
-3.0157325 -3.695627 0.96386391
-3.0146654 -3.6935244 0.96063632
-3.016984 -3.6973195 0.963009
-3.0061715 -3.7097337 0.96211761
-2.998826 -3.7094517 0.97225845
-3.1055996 -3.8582528 0.89538431
-3.1059957 -3.8539896 0.89892817
-3.1031327 -3.8624804 0.89342785
-3.0889344 -3.8627164 0.88307428
-3.0804639 -3.8676152 0.88603598
-3.0894296 -3.8795617 0.89176929
-3.0779521 -3.8756042 0.88382971
-3.0696964 -3.8791344 0.89631194
-3.0590622 -3.8970273 0.88058966
-3.0493131 -3.8927555 0.88935208
-3.0494173 -3.9049754 0.89667851
-3.0478442 -3.9029837 0.89261717
-3.0427213 -3.9035277 0.88440681
-3.0430925 -3.9152784 0.88029426
-3.0338116 -3.9239695 0.8956095
-3.0215631 -3.9270427 0.88329738
-3.0235753 -3.9240615 0.89925414
-3.013521 -3.9382534 0.89598447
-3.0109787 -3.9272456 0.89911801
-3.004153 -3.9319298 0.89081186
-2.9885588 -3.9421649 0.89456695
