# .PCD v0.7 - Point Cloud Data file format
VERSION 0.7
FIELDS x y z
SIZE 4 4 4
TYPE F F F
COUNT 1 1 1
WIDTH 1509
HEIGHT 1
VIEWPOINT 0 0 0 1 0 0 0
POINTS 1509
DATA ascii
-4.5984411 -3.0587249 1.2833011
-4.5937271 -3.0703049 1.2865658
-4.591701 -3.0713651 1.2950636
-4.5789876 -3.0719857 1.2939006
-4.5875955 -3.0797424 1.288147
-4.5815754 -3.0963352 1.2831712
-4.4083877 -2.9914052 1.3466004
-4.4090252 -3.0025637 1.3509883
-4.39923 -3.0099313 1.3478007
-4.4088931 -3.0019684 1.3385667
-4.4065943 -3.0171669 1.3508737
-4.3979621 -3.0319381 1.3580335
-4.3860569 -3.0289783 1.3505601
-4.3856449 -3.0376096 1.3488867
-4.3863878 -3.0391622 1.3458712
-4.3728757 -3.0390167 1.3526716
-4.3643308 -3.0480673 1.3435794
-4.371696 -3.0619454 1.3495045
-4.3546653 -3.0702269 1.354232
-4.3608131 -3.0723791 1.3530868
-4.3561869 -3.0764484 1.3429015
-4.3592453 -3.0761104 1.3440974
-4.355135 -3.0881002 1.3543996
-4.3384895 -3.10392 1.3422112
-4.1882014 -2.9935696 1.4139533
-4.1763835 -3.0049124 1.4126211
-4.1777573 -3.0119777 1.4083613
-4.1682148 -3.0106847 1.4163401
-4.172739 -3.0166454 1.4021482
-4.1525278 -3.0130477 1.4119091
-4.1534534 -3.0291252 1.4036993
-4.144556 -3.0325711 1.4019204
-4.1544547 -3.0362256 1.4142385
-4.1540437 -3.0475619 1.4168174
-4.1458125 -3.0482533 1.4046582
-4.1451793 -3.0613158 1.4070082
-4.1258702 -3.0599484 1.4081388
-4.1308131 -3.0732436 1.4164025
-4.127769 -3.0752766 1.4045396
-4.1189084 -3.0813193 1.4021029
-4.1202793 -3.0925171 1.4094111
-4.1098518 -3.0990555 1.3990898
-4.1011953 -3.0997384 1.4109248
-4.1002126 -3.1042635 1.4172281
-3.9444997 -2.989363 1.4679868
-3.9332426 -2.9933434 1.4721277
-3.9396279 -3.0022931 1.4634225
-3.9248748 -3.0004716 1.4672029
-3.9218504 -3.0199006 1.4747251
-3.9306812 -3.0147715 1.4619734
-3.921941 -3.0153239 1.4637865
-3.925885 -3.029767 1.4648179
-3.9201427 -3.0398803 1.4709172
-3.9025576 -3.0333455 1.458236
-3.8986616 -3.0475833 1.4707373
-3.9033475 -3.0547533 1.4647785
-3.9038849 -3.0525055 1.4753845
-3.8931198 -3.0597091 1.47332
-3.8785667 -3.0681007 1.4573294
-3.8764839 -3.0695429 1.4719642
-3.8871453 -3.0864723 1.4715377
-3.8759859 -3.0915811 1.4621526
-3.8637877 -3.0951903 1.4681332
-3.8654823 -3.1054649 1.4661218
-3.8598509 -3.0961015 1.4753393
-3.8617105 -3.11569 1.4628479
-3.7009954 -3.0000145 1.5174078
-3.6983607 -2.9977221 1.5308647
-3.6977832 -3.0051656 1.5213732
-3.6931889 -3.0148227 1.5358766
-3.6939528 -3.0194447 1.5188816
-3.6751359 -3.0172191 1.522203
-3.6856968 -3.0271142 1.5273342
-3.67027 -3.0230308 1.5276037
-3.6768472 -3.0376499 1.5226436
-3.6742001 -3.03847 1.5234959
-3.664037 -3.0514505 1.5253439
-3.6586552 -3.045985 1.5346656
-3.6598094 -3.0441382 1.5217195
-3.6504478 -3.0619004 1.5242862
-3.6465759 -3.0646369 1.5273943
-3.6396918 -3.0727744 1.5178862
-3.6294792 -3.0756977 1.523635
-3.6341283 -3.0874262 1.5186136
-3.6185007 -3.0899715 1.5241131
-3.627826 -3.0941162 1.5339266
-3.6162922 -3.0923512 1.5358881
-3.6229031 -3.0894651 1.5284374
-3.6001854 -3.1120014 1.5279499
-3.6104066 -3.1094511 1.5348107
-3.5980544 -3.107311 1.5240393
-3.4583418 -2.9973912 1.5895772
-3.4525502 -3.0065386 1.5779361
-3.4410031 -3.0046389 1.5796528
-3.4344707 -3.0114224 1.5839046
-3.4424319 -3.0118494 1.5890863
-3.440573 -3.0250671 1.5811013
-3.4167459 -3.029228 1.5810646
-3.4203629 -3.0350101 1.5835478
-3.4244606 -3.0353596 1.5936317
-3.4216909 -3.02771 1.5908997
-3.4096859 -3.0489528 1.5779408
-3.4114845 -3.0485964 1.580665
-3.4049175 -3.0608919 1.5901136
-3.3966272 -3.0508606 1.5775977
-3.3840785 -3.0530031 1.589468
-3.3863416 -3.0575058 1.5929275
-3.3765829 -3.0624073 1.5770273
-3.3868544 -3.0751581 1.5801404
-3.3746359 -3.076246 1.5876932
-3.3723271 -3.07881 1.587679
-3.3727434 -3.0936215 1.5911996
-3.3661122 -3.094491 1.5798481
-3.3567505 -3.0930593 1.5809667
-3.3579333 -3.10761 1.5768762
-3.3516254 -3.1138909 1.5953969
-3.353441 -3.1067207 1.5941625
-3.3317902 -3.1140842 1.5927682
-3.206609 -2.985486 1.642707
-3.1979148 -2.9993126 1.6369392
-3.1816616 -2.9951427 1.653331
-3.1854162 -2.9957082 1.6396289
-3.1856441 -3.0139682 1.6497688
-3.1772175 -3.0071986 1.6460458
-3.1676657 -3.0259504 1.6524717
-3.1621983 -3.0227399 1.6373099
-3.1582041 -3.0256963 1.6540055
-3.1554382 -3.0313606 1.6480188
-3.1540604 -3.0356328 1.6447732
-3.1420858 -3.0353997 1.6521754
-3.1558728 -3.0431087 1.6482161
-3.1332619 -3.0587738 1.6481539
-3.144347 -3.0588744 1.6542884
-3.1252859 -3.0547619 1.6516436
-3.1299417 -3.0653179 1.6546921
-3.1281657 -3.0746329 1.6453903
-3.1215453 -3.0641861 1.637565
-3.1182232 -3.075212 1.6485028
-3.1208816 -3.0891047 1.6395899
-3.1067796 -3.0752738 1.6353253
-3.1052692 -3.0794871 1.6477613
-3.107712 -3.0853527 1.6489358
-3.0902112 -3.1065726 1.6544073
-3.0865695 -3.0930073 1.6483827
-3.0855668 -3.1083794 1.6361876
-3.0815096 -3.1062632 1.6390573
-3.0867481 -3.1218202 1.6367474
-3.0798061 -3.1183553 1.6477791
-3.0619199 -3.1218548 1.6492797
-2.9392953 -2.9991214 1.708315
-2.9347653 -2.9954524 1.7081383
-2.9177938 -2.9985507 1.7064396
-2.919642 -3.0084784 1.7078581
-2.916013 -2.9991014 1.7071733
-2.9184029 -3.0130641 1.6954418
-2.9129822 -3.0073183 1.7101458
-2.9046862 -3.0111659 1.7136058
-2.8986945 -3.0324318 1.7048378
-2.9016652 -3.0201783 1.6968713
-2.8831296 -3.0233185 1.6994901
-2.8849015 -3.0461168 1.7098804
-2.8868444 -3.0361373 1.7012688
-2.8704803 -3.0522056 1.7068199
-2.8726921 -3.0488498 1.7058327
-2.8755832 -3.0520949 1.6949615
-2.8702002 -3.054136 1.713909
-2.8501074 -3.052103 1.713076
-2.846549 -3.0683064 1.6950381
-2.8517532 -3.0717139 1.7133087
-2.8449185 -3.0808251 1.7124884
-2.8354592 -3.075953 1.712913
-2.835604 -3.0772741 1.7073545
-2.8243549 -3.0864873 1.7097594
-2.9565487 -3.2230177 1.6401969
-2.9605277 -3.2260427 1.6507572
-2.9553723 -3.2279572 1.6432899
-2.9512637 -3.2340572 1.6418631
-2.9479823 -3.2408829 1.6482347
-2.942733 -3.2572021 1.6351942
-2.9392073 -3.2509813 1.637032
-2.9164963 -3.2596018 1.6477256
-2.9133549 -3.2526731 1.6410756
-2.9157662 -3.2588069 1.6491839
-2.9157672 -3.2724524 1.6455708
-2.9059765 -3.2745962 1.6430721
-2.9056199 -3.2761097 1.6427921
-2.8927248 -3.2780457 1.6405388
-2.9012508 -3.2812366 1.6355804
-2.8833997 -3.2837212 1.6384168
-2.8785834 -3.2872281 1.6515818
-2.8719237 -3.2925777 1.6402276
-2.8745646 -3.2993457 1.639897
-2.8638501 -3.3130906 1.6375211
-2.8650217 -3.3114071 1.6455822
-2.8698006 -3.3245099 1.6355752
-2.8570726 -3.3218381 1.6481241
-2.844619 -3.3308594 1.6428001
-2.8544133 -3.3330004 1.6383414
-2.8491602 -3.3218896 1.6354487
-2.8410652 -3.3305678 1.6530927
-2.8397999 -3.3371966 1.6494242
-2.9532793 -3.4968605 1.5836703
-2.9434838 -3.4848261 1.5875443
-2.9360585 -3.4985905 1.5771196
-2.9405663 -3.5017664 1.5776037
-2.9350755 -3.4968531 1.5847644
-2.9170301 -3.5041299 1.5869023
-2.9243028 -3.5058503 1.590891
-2.9160285 -3.526973 1.589976
-2.9106412 -3.5246613 1.5843619
-2.9076042 -3.5257506 1.5760915
-2.9082301 -3.5215948 1.5779008
-2.8952558 -3.5325243 1.575876
-2.898402 -3.5409155 1.5842117
-2.8919671 -3.5387068 1.5934891
-2.8850427 -3.5359054 1.591791
-2.8709517 -3.5399623 1.5869203
-2.8747172 -3.5562017 1.5844262
-2.8744884 -3.549082 1.5849
-2.8551691 -3.5614963 1.591769
-2.8614581 -3.5758002 1.5816253
-2.8560121 -3.5756621 1.5797074
-2.8487511 -3.567488 1.5909226
-2.8435094 -3.5874035 1.5778028
-2.8299265 -3.5858338 1.5909406
-2.8270605 -3.5822942 1.5909219
-2.9441206 -3.7396197 1.5315331
-2.947603 -3.7358468 1.5192815
-2.9335737 -3.7568166 1.5181707
-2.9390647 -3.743444 1.5286603
-2.9176812 -3.7613432 1.5288533
-2.9264352 -3.758785 1.5331848
-2.9171019 -3.7739596 1.5296838
-2.9165473 -3.7688918 1.5302536
-2.9091072 -3.7752461 1.5163728
-2.8885233 -3.7837453 1.5300039
-2.8879528 -3.776087 1.5202702
-2.8874168 -3.7771425 1.518433
-2.879127 -3.7894053 1.519742
-2.871942 -3.7924018 1.5185323
-2.8742621 -3.7992632 1.5235245
-2.8763833 -3.8001328 1.5351692
-2.8541677 -3.7969286 1.535726
-2.8554473 -3.8184357 1.5254298
-2.8561516 -3.8177736 1.5328512
-2.8507311 -3.8218045 1.5358381
-2.8316739 -3.8305471 1.5305403
-2.8423448 -3.8240421 1.5282371
-2.9484184 -3.988097 1.4583652
-2.9393921 -3.9768689 1.4688799
-2.9315696 -3.9932654 1.476561
-2.9187493 -3.9970937 1.4673926
-2.9142785 -4.0040221 1.4654409
-2.9092453 -3.9975522 1.4659877
-2.9145024 -3.9971132 1.4711944
-2.9123323 -4.0165863 1.4763606
-2.9071698 -4.0223408 1.4767669
-2.8872995 -4.0241098 1.4676538
-2.8897266 -4.0237308 1.4720098
-2.8826718 -4.0198946 1.4717128
-2.8850965 -4.0338111 1.4591304
-2.8798347 -4.0404882 1.4668229
-2.8637357 -4.0482812 1.4716824
-2.8495827 -4.036633 1.4671
-2.8548772 -4.05584 1.4670364
-2.8549595 -4.0584807 1.4715716
-2.84987 -4.0615683 1.4744167
-2.8443687 -4.0504003 1.4595493
-2.8279748 -4.0672798 1.4691094
-2.93624 -4.2195501 1.4071978
-2.9355571 -4.2232103 1.4147508
-2.9274509 -4.2272453 1.3996514
-2.9116466 -4.2408242 1.4007764
-2.9109769 -4.2458987 1.4175586
-2.8948839 -4.2419214 1.3991351
-2.8988488 -4.2436862 1.4020644
-2.898273 -4.2460265 1.4058917
-2.8948462 -4.2485361 1.4048644
-2.8862813 -4.2603283 1.4109269
-2.8681507 -4.2570467 1.4054998
-2.8725777 -4.2589884 1.4005187
-2.869446 -4.2787361 1.4155997
-2.8614082 -4.2685971 1.4011911
-2.8522401 -4.2837119 1.4057891
-2.8462839 -4.2886629 1.398437
-2.8387456 -4.2835135 1.4133846
-2.8282726 -4.2837286 1.4100478
-2.9390121 -4.4659729 1.3489007
-2.9255052 -4.4662409 1.3393493
-2.92593 -4.4743352 1.3571104
-2.9117763 -4.4728193 1.3569524
-2.9025979 -4.4741397 1.3410611
-2.8983328 -4.4733968 1.3393148
-2.8884706 -4.4894648 1.3464515
-2.8940048 -4.4855614 1.3526268
-2.8868854 -4.4801106 1.3479322
-2.8848131 -4.4901829 1.3469951
-2.8660717 -4.491951 1.3472877
-2.8691235 -4.5064421 1.3514144
-2.8617213 -4.5075941 1.3515406
-2.8565521 -4.500833 1.3572674
-2.8515356 -4.5111413 1.3457497
-2.8424046 -4.523437 1.3390425
-2.8350143 -4.5121293 1.340326
-2.9217119 -4.6945772 1.2902142
-2.9207726 -4.6943588 1.2889427
-2.9045219 -4.6983433 1.2816312
-2.9092028 -4.689867 1.2965753
-2.8935854 -4.7107286 1.2810431
-2.8938355 -4.7104802 1.2883651
-2.893954 -4.7113595 1.2864451
-2.8883398 -4.7135258 1.2982054
-2.8742378 -4.7128692 1.2816496
-2.8668375 -4.7311368 1.2803725
-2.8581479 -4.7211914 1.282567
-2.8602161 -4.7368579 1.2890739
-2.8435504 -4.7428312 1.2956817
-2.8341906 -4.7400479 1.2948416
-2.8298812 -4.7482157 1.2972066
-2.8210983 -4.7432079 1.2838777
-2.8249879 -4.7448978 1.2937175
-2.8107922 -4.7475595 1.2854306
-2.8048306 -4.7627101 1.2818298
-2.7954192 -4.7570567 1.2839824
-2.7872794 -4.7693157 1.2800919
-2.7769399 -4.7702513 1.284537
-2.7800877 -4.7811346 1.2870018
-2.7766223 -4.7692766 1.2962339
-2.7739916 -4.7797337 1.2812726
-2.7689908 -4.7880383 1.2952845
-2.7573133 -4.7868681 1.2915622
-2.7557905 -4.7981429 1.2891251
-2.7425494 -4.7901025 1.295475
-2.7329035 -4.7993031 1.2914063
-2.7210999 -4.8070211 1.2789971
-2.7131813 -4.8110628 1.289562
-2.7208126 -4.8049207 1.2931439
-2.7059734 -4.8219872 1.2924745
-2.7018969 -4.823102 1.2852296
-2.6927764 -4.8259006 1.2935522
-2.6896389 -4.8237119 1.286908
-2.6702182 -4.8266959 1.2928425
-2.6732295 -4.8431392 1.2906613
-2.6698859 -4.8366432 1.2831144
-2.6506054 -4.8450551 1.2916746
-2.6437292 -4.8522654 1.2800092
-2.6462829 -4.8538284 1.2982924
-2.6452494 -4.8472805 1.2833065
-2.6248801 -4.8633885 1.2909932
-2.6317506 -4.8571138 1.2796596
-2.6102934 -4.874445 1.2942837
-2.6154752 -4.8791041 1.2896835
-2.5947173 -4.8735285 1.2923895
-2.5961356 -4.8713675 1.2853322
-2.5850956 -4.8766909 1.2935944
-2.5854907 -4.881907 1.298368
-2.5775459 -4.8964515 1.2852905
-2.5713129 -4.8967423 1.282464
-2.5600607 -4.9034486 1.2872227
-2.5611169 -4.9038157 1.2819396
-2.5535016 -4.9095206 1.2829996
-2.5512571 -4.9072075 1.2830653
-2.533608 -4.9109416 1.2923621
-2.5332479 -4.902905 1.2874652
-2.5199401 -4.9106441 1.2808813
-2.5183651 -4.9255981 1.2927078
-2.5120118 -4.9194336 1.2936068
-2.4987309 -4.9338665 1.2978227
-2.4882717 -4.923883 1.2789303
-2.4930489 -4.9417963 1.2832595
-2.4831045 -4.93894 1.2854627
-2.4720948 -4.94069 1.2935485
-2.461015 -4.9516468 1.2814593
-2.4606333 -4.9491043 1.2809572
-2.4451439 -4.9601192 1.2962568
-2.4562335 -4.9564295 1.2801329
-2.4354918 -4.9532623 1.2936951
-2.4338462 -4.9636941 1.2963362
-2.4279799 -4.9705524 1.2924627
-2.4210014 -4.9690776 1.2941684
-2.4096889 -4.9645534 1.2822131
-2.3961687 -4.9759197 1.2919809
-2.3945577 -4.9831104 1.2942555
-2.3850315 -4.9768291 1.2825269
-2.3760023 -4.9819722 1.2832274
-2.3716693 -4.9851241 1.2910521
-5.7654696 -2.9900482 1.0482687
-5.7565522 -3.0032585 1.0363967
-5.7447648 -3.0155606 1.0326877
-5.7546487 -3.0138004 1.0374705
-5.738894 -3.03369 1.0436428
-5.7450299 -3.0331519 1.0456591
-5.7409163 -3.0537729 1.0368314
-5.7322226 -3.0625525 1.0411676
-5.7370501 -3.0557628 1.0484565
-5.7162237 -3.0763273 1.045357
-5.7161784 -3.0776069 1.0418997
-5.5448718 -3.0031407 1.0912393
-5.5339456 -2.9918866 1.0983765
-5.5467176 -3.0147367 1.0953183
-5.5346961 -3.0260632 1.1004093
-5.5364919 -3.0277681 1.0940709
-5.5162601 -3.0296133 1.0951383
-5.5248451 -3.0470297 1.0954471
-5.5090833 -3.0535495 1.0905604
-5.5060215 -3.0635302 1.093118
-5.5060487 -3.0577638 1.1023989
-5.5095224 -3.0733931 1.1031169
-5.5015969 -3.0822897 1.1028448
-5.3196797 -2.994328 1.1654235
-5.3277845 -2.9921615 1.1464688
-5.3107882 -3.0160165 1.1535472
-5.3201199 -3.0238764 1.1465127
-5.3083735 -3.0245693 1.1497883
-5.316308 -3.0337584 1.1542642
-5.3091192 -3.0441554 1.156474
-5.2993622 -3.0388594 1.1521583
-5.3003139 -3.0613277 1.1599159
-5.3005376 -3.0601718 1.1464734
-5.2810225 -3.0682542 1.1548485
-5.2768698 -3.0686333 1.1528416
-5.2716613 -3.0762181 1.1544253
-5.1142507 -3.0004997 1.2135396
-5.1091127 -2.9938745 1.2214441
-5.1006899 -2.9994173 1.2075872
-5.0877805 -3.0220149 1.2107556
-5.0926518 -3.0191095 1.206636
-5.0818286 -3.0214202 1.2074581
-5.0832381 -3.028229 1.2168404
-5.0780797 -3.039808 1.2055382
-5.0845366 -3.0515294 1.2212491
-5.0729909 -3.0623479 1.2167615
-5.0598512 -3.0651848 1.2185252
-5.0655379 -3.067075 1.2140577
-5.0633106 -3.0847425 1.2111851
-5.0549302 -3.0937119 1.2128469
-4.8801827 -2.9917169 1.2624911
-4.8728738 -3.0029576 1.2789937
-4.8847332 -2.9998486 1.2758017
-4.8672004 -3.0158317 1.2681388
-4.8609605 -3.0225325 1.2758569
-4.8590002 -3.0219576 1.2798529
-4.8615184 -3.0325234 1.2681022
-4.8622627 -3.0330665 1.2615457
-4.8474655 -3.0556819 1.2644
-4.8555312 -3.0542271 1.2653573
-4.8419256 -3.0655334 1.2753198
-4.8366175 -3.0737202 1.280874
-4.8347969 -3.0779657 1.2763642
-4.8361592 -3.0888877 1.2626917
-4.8251748 -3.0777881 1.2691333
-4.6654058 -2.9855044 1.3209096
-4.6628332 -3.0032027 1.3309724
-4.6520023 -3.0058928 1.3272892
-4.6477184 -3.0180418 1.3277817
-4.6405716 -3.0225224 1.3365141
-4.6324582 -3.0176733 1.3207197
-4.6343732 -3.0318005 1.3235115
-4.6307249 -3.0284016 1.328825
-4.6315775 -3.050669 1.329978
-4.6260934 -3.0462649 1.3289858
-4.6141586 -3.0474715 1.3235749
-4.6083894 -3.0702932 1.3269842
-4.6125488 -3.0664799 1.3342159
-4.6003819 -3.0825889 1.3358052
-4.6077137 -3.0757654 1.3394144
-4.6063042 -3.085052 1.3343678
-4.6006799 -3.1004863 1.3216827
-4.4336982 -2.9892695 1.3968304
-4.4201007 -2.9901793 1.3782371
-4.4253416 -3.0098653 1.390519
-4.4115658 -3.0018854 1.3880593
-4.4031925 -3.0124147 1.3892372
-4.4114013 -3.03139 1.3806814
-4.4123697 -3.0224946 1.3824639
-4.3917403 -3.0452361 1.3775113
-4.3874931 -3.0508819 1.389707
-4.3882842 -3.0552266 1.3928975
-4.3817511 -3.0554783 1.3864832
-4.3780131 -3.0663235 1.3853548
-4.3728595 -3.0666091 1.3907301
-4.3754158 -3.0773275 1.3902693
-4.3604231 -3.0838892 1.3854574
-4.364244 -3.0828855 1.3878424
-4.3566122 -3.0870841 1.385289
-4.3471894 -3.0948961 1.3861545
-4.2068987 -2.9915166 1.4454794
-4.190371 -3.0041659 1.4486573
-4.1906447 -2.9945509 1.4377259
-4.1773248 -3.005475 1.4420859
-4.1851249 -3.0155315 1.4522908
-4.1675415 -3.0124385 1.437902
-4.1704106 -3.0186555 1.4430697
-4.1580834 -3.033005 1.4353539
-4.1633635 -3.0440423 1.4495457
-4.1511884 -3.0499852 1.4420261
-4.1581397 -3.0557859 1.4527849
-4.1437092 -3.0492492 1.4367653
-4.1460924 -3.0671844 1.4362257
-4.1393991 -3.0760057 1.4506209
-4.1283374 -3.0768416 1.4408129
-4.1270633 -3.0843167 1.4399455
-4.1201696 -3.0788918 1.4387022
-4.1280999 -3.0853786 1.4489452
-4.1237383 -3.1013925 1.4539803
-4.1251764 -3.1094866 1.4388964
-3.9614799 -2.993293 1.50178
-3.9598246 -3.0022297 1.4990612
-3.9541807 -2.9978294 1.504213
-3.9490693 -3.0110235 1.5063432
-3.9495544 -3.0174522 1.4934313
-3.9398401 -3.0269103 1.4988321
-3.9309855 -3.0337868 1.4954395
-3.9233663 -3.0329139 1.5113356
-3.9254966 -3.0320072 1.4969875
-3.9225841 -3.0368752 1.5003089
-3.9147477 -3.0550373 1.5100788
-3.9219711 -3.0557346 1.4964505
-3.9119055 -3.054987 1.5127552
-3.8966806 -3.073334 1.5013922
-3.899318 -3.0763803 1.5091215
-3.8948593 -3.0739336 1.5129076
-3.8849926 -3.0868618 1.4953262
-3.8785107 -3.0964081 1.5041206
-3.8761251 -3.0923293 1.4993187
-3.8680799 -3.0895903 1.4951401
-3.8767059 -3.1032751 1.4982846
-3.8755543 -3.1084507 1.5062109
-3.7189965 -2.9877002 1.5583092
-3.7153215 -2.9959357 1.5595769
-3.703002 -3.0110991 1.5632597
-3.7029459 -3.0061026 1.5548444
-3.6990967 -3.0155449 1.5589502
-3.6928215 -3.022819 1.5589529
-3.6977448 -3.0320289 1.5684718
-3.6874626 -3.0375223 1.5661608
-3.6813519 -3.0359778 1.5555903
-3.6720896 -3.037626 1.565263
-3.6748939 -3.0360947 1.5609634
-3.6635432 -3.0550792 1.553627
-3.670918 -3.0459425 1.5563204
-3.6546025 -3.0609555 1.5691975
-3.6466954 -3.0563319 1.5578136
-3.6546755 -3.0696533 1.5643309
-3.6426456 -3.0721252 1.5668081
-3.6410897 -3.0885494 1.5689554
-3.6418376 -3.0831046 1.5578048
-3.6331489 -3.0926461 1.5701578
-3.6347804 -3.0892477 1.5691879
-3.6207044 -3.0987623 1.5543733
-3.6139576 -3.0999217 1.5538291
-3.6245105 -3.1090431 1.5633998
-3.4772608 -2.9894807 1.620667
-3.466481 -2.9870493 1.6117778
-3.469177 -2.996887 1.6255267
-3.4493892 -3.0094752 1.6279552
-3.4474473 -3.0071247 1.6209265
-3.4566493 -3.0204058 1.6094481
-3.4334917 -3.0196462 1.6264538
-3.4312973 -3.029145 1.6190246
-3.4439106 -3.0362391 1.6155099
-3.4370615 -3.0382347 1.627941
-3.4206347 -3.0422549 1.6199347
-3.4248853 -3.0396833 1.619213
-3.4180181 -3.0440028 1.613501
-3.4173956 -3.0527363 1.6200422
-3.4143376 -3.0637362 1.6137698
-3.3983018 -3.0681534 1.6190456
-3.3937378 -3.0736346 1.6099051
-3.3921614 -3.0811503 1.6160834
-3.3980076 -3.0855145 1.6199797
-3.3873618 -3.0872717 1.6266865
-3.3842783 -3.0968509 1.6141732
-3.3691945 -3.0949359 1.6290256
-3.3748257 -3.090416 1.6243466
-3.3661625 -3.1095424 1.6157166
-3.3709512 -3.1098862 1.6208628
-3.3620059 -3.1184762 1.6263622
-3.3477783 -3.1067908 1.6111444
-3.3426845 -3.1178246 1.6131694
-3.2114863 -2.9883766 1.6735334
-3.1964874 -3.0030262 1.6789355
-3.1947756 -2.9989078 1.6794988
-3.1855705 -3.0040276 1.6867111
-3.1815071 -3.0191073 1.6831714
-3.1821163 -3.0098593 1.6852276
-3.1913493 -3.0297418 1.671656
-3.1754296 -3.0250275 1.6742045
-3.1740046 -3.0304406 1.673142
-3.1677911 -3.0351214 1.6857435
-3.1595461 -3.032892 1.6818547
-3.1688821 -3.0398555 1.6678067
-3.1528099 -3.0493057 1.6823616
-3.156168 -3.0537555 1.6762753
-3.152308 -3.0583527 1.6795818
-3.1519814 -3.067776 1.6766033
-3.1495922 -3.0706558 1.6782032
-3.1407685 -3.0618455 1.6689723
-3.1293905 -3.075846 1.6787773
-3.1190686 -3.0878747 1.6683447
-3.1161392 -3.075907 1.6845789
-3.1170924 -3.0975294 1.6782808
-3.1120875 -3.0873399 1.686958
-3.1125216 -3.1047754 1.6756047
-3.099036 -3.1026235 1.6840675
-3.1022377 -3.104424 1.6675144
-3.088412 -3.1081204 1.6724831
-3.0929801 -3.1072845 1.6706573
-3.0867734 -3.1193678 1.6792206
-3.0907555 -3.1254327 1.6801385
-2.9508371 -2.9965036 1.7353524
-2.9491959 -2.9890301 1.7353644
-2.9338472 -3.0008738 1.7299314
-2.9298155 -2.9974799 1.7314219
-2.9371316 -3.0049345 1.7394176
-2.9159789 -3.0199311 1.72996
-2.9113736 -3.0054483 1.7411469
-2.9217942 -3.019886 1.7375048
-2.9140346 -3.0324755 1.7261083
-2.897706 -3.0334113 1.7329696
-2.900454 -3.0331264 1.7367026
-2.9059331 -3.0353861 1.7320322
-2.8913946 -3.0464888 1.7396352
-2.8822834 -3.0377574 1.7347437
-2.8916762 -3.0405452 1.7265034
-2.8730674 -3.0463891 1.727366
-2.8839109 -3.0518425 1.7268052
-2.8635616 -3.0519364 1.7358947
-2.8668487 -3.0684969 1.7364767
-2.861527 -3.0729604 1.7401989
-2.869338 -3.0644093 1.7282763
-2.8534107 -3.0855803 1.7381582
-2.8421483 -3.0764613 1.7409956
-2.8432772 -3.0824857 1.736617
-2.8492918 -3.0821629 1.7334969
-2.8435414 -3.0874968 1.7285733
-2.8369229 -3.0879455 1.742231
-2.8308594 -3.0923216 1.7398231
-2.9445953 -3.2457879 1.6869266
-2.9486518 -3.2568798 1.6715338
-2.9489803 -3.2600765 1.6687027
-2.9412255 -3.2516446 1.6687051
-2.9435833 -3.2562551 1.681825
-2.9230976 -3.2663045 1.672913
-2.9269848 -3.2666843 1.6683103
-2.9139867 -3.265635 1.6823541
-2.9259062 -3.282294 1.6799237
-2.9041624 -3.2772219 1.6770853
-2.9048207 -3.2813294 1.6862632
-2.900419 -3.2940345 1.6684852
-2.8914044 -3.291615 1.6716402
-2.8852153 -3.3059933 1.6673502
-2.8990178 -3.3072875 1.6825669
-2.8796952 -3.3126602 1.6718448
-2.8892787 -3.3064902 1.684847
-2.8834593 -3.3118975 1.6829963
-2.8635905 -3.3138053 1.6685779
-2.8661466 -3.3185565 1.6833166
-2.8715353 -3.3285587 1.6780264
-2.8677406 -3.3387575 1.6841033
-2.8617184 -3.3245459 1.6766653
-2.8525357 -3.3287544 1.6789082
-2.8476372 -3.3513813 1.6839098
-2.8475163 -3.3393061 1.667585
-2.8381121 -3.3414414 1.68147
-2.9591691 -3.508667 1.6160305
-2.9383981 -3.5145564 1.6106606
-2.9520395 -3.5076449 1.62456
-2.9309366 -3.510771 1.6124712
-2.935118 -3.5147569 1.6141911
-2.933217 -3.5173807 1.6141236
-2.9187481 -3.515487 1.6138418
-2.9220307 -3.533366 1.6149211
-2.9203057 -3.5358007 1.6120569
-2.9149001 -3.5335138 1.6110321
-2.8956037 -3.5335023 1.6130277
-2.9037902 -3.5376177 1.6132679
-2.8973413 -3.5402777 1.6245465
-2.896987 -3.5467439 1.6168193
-2.8887157 -3.5623066 1.6092194
-2.8787193 -3.5608888 1.6231024
-2.8687844 -3.5699284 1.6229788
-2.8591259 -3.5671828 1.6290689
-2.8683825 -3.5676498 1.6168098
-2.8604975 -3.5876546 1.6109167
-2.8536317 -3.5733123 1.629107
-2.8447647 -3.5921111 1.6272471
-2.8356521 -3.5894215 1.6267852
-2.8352554 -3.5913436 1.6239082
-2.8425803 -3.5899663 1.6095129
-2.9557881 -3.7540674 1.5626217
-2.9366086 -3.7628841 1.5686721
-2.9375467 -3.7670307 1.5614916
-2.9323893 -3.7654278 1.5578604
-2.9194849 -3.7609394 1.5582337
-2.912468 -3.7745905 1.5569518
-2.9072549 -3.7843852 1.5608664
-2.9038963 -3.7900836 1.551459
-2.9009938 -3.7804072 1.5641108
-2.9009628 -3.7830827 1.5621141
-2.8953211 -3.7857103 1.5704812
-2.8986144 -3.7944071 1.5541568
-2.8758514 -3.8092964 1.5578036
-2.8802633 -3.8042881 1.5671641
-2.8683007 -3.8116417 1.565116
-2.8759594 -3.8172498 1.5535128
-2.8648942 -3.8229225 1.5562032
-2.8499091 -3.8305192 1.5572765
-2.8443255 -3.8205023 1.5520999
-2.8460846 -3.8357484 1.5683141
-2.8498349 -3.8306532 1.5659595
-2.8452125 -3.8341568 1.5589596
-2.8369088 -3.8402085 1.5611145
-2.9383488 -3.990207 1.4943634
-2.9368114 -3.999506 1.5022388
-2.9173164 -4.0017915 1.5085278
-2.9294188 -4.0183449 1.5131584
-2.9188251 -4.0252528 1.4941992
-2.9071524 -4.0119214 1.5092562
-2.9006507 -4.0256996 1.5130589
-2.8979292 -4.0285835 1.5059414
-2.8975565 -4.0322065 1.4992973
-2.8841779 -4.0328932 1.5105706
-2.8886387 -4.0469956 1.5100253
-2.8818944 -4.0451546 1.5042934
-2.867269 -4.049418 1.5003811
-2.866349 -4.0513878 1.5040118
-2.8607926 -4.0483751 1.5048239
-2.8541899 -4.0593057 1.5030487
-2.8525248 -4.0693564 1.5115684
-2.8470511 -4.0623131 1.5012696
-2.8286896 -4.0805302 1.5114055
-2.8369665 -4.0710082 1.5049046
-2.9430103 -4.2289147 1.4503919
-2.9203284 -4.2485557 1.4397051
-2.9233727 -4.2392263 1.4487815
-2.9103236 -4.2546387 1.4399056
-2.9136381 -4.2501607 1.4380531
-2.8961346 -4.2647529 1.4492723
-2.9004009 -4.2633572 1.454435
-2.8961418 -4.2621713 1.4506274
-2.8821757 -4.2683129 1.4525809
-2.8780682 -4.2684259 1.4480274
-2.880456 -4.2712374 1.4468534
-2.8593998 -4.2772923 1.4501451
-2.8690248 -4.2923222 1.4468642
-2.8495679 -4.3002396 1.4522616
-2.8589811 -4.2974143 1.4462184
-2.8502414 -4.3030334 1.4496567
-2.8302772 -4.2988725 1.4385557
-2.8251445 -4.316412 1.4526974
-2.9288714 -4.4659648 1.386795
-2.9253583 -4.4775133 1.3827704
-2.9263928 -4.4774256 1.3799665
-2.9085958 -4.4822631 1.3951311
-2.9075012 -4.4827132 1.3792809
-2.9096818 -4.4896989 1.3795198
-2.8864594 -4.4920964 1.3865825
-2.8892746 -4.4917583 1.3920159
-2.8886459 -4.4974656 1.3855914
-2.8791122 -4.504055 1.3856004
-2.8754315 -4.5153346 1.3800356
-2.8596966 -4.5093503 1.3870252
-2.8479807 -4.5106564 1.3781968
-2.8590634 -4.5204263 1.388616
-2.8349755 -4.5353684 1.3826618
-2.8467324 -4.538764 1.3937895
-2.8382449 -4.5252147 1.3865787
-2.9239194 -4.7032275 1.3258052
-2.9226978 -4.7045794 1.321317
-2.9078951 -4.7026925 1.3342718
-2.9130774 -4.7234254 1.3199708
-2.9038188 -4.7147293 1.335669
-2.8875651 -4.7206287 1.3340675
-2.8801343 -4.723928 1.3266933
-2.8822784 -4.7294617 1.3283654
-2.8703713 -4.7330809 1.3306221
-2.8673306 -4.7345462 1.3303983
-2.8514953 -4.7467952 1.3385864
-2.8584771 -4.7443943 1.329517
-2.8499415 -4.753768 1.3264195
-2.8484454 -4.7549076 1.3266652
-2.8412447 -4.753377 1.3196737
-2.8183403 -4.7621875 1.33084
-2.8170319 -4.7701674 1.3227556
-2.803092 -4.7668972 1.333176
-2.8074746 -4.7783308 1.3240072
-2.8095951 -4.7733412 1.3373933
-2.791934 -4.779139 1.3225418
-2.7860792 -4.7785468 1.3340932
-2.7892883 -4.7960525 1.3202636
-2.7755897 -4.7987013 1.3292781
-2.7616398 -4.8007946 1.3237971
-2.7546761 -4.8066339 1.3334705
-2.7565405 -4.7978206 1.3391197
-2.7464843 -4.8017292 1.3319854
-2.746002 -4.8166871 1.3373541
-2.7346833 -4.8204384 1.33164
-2.7299731 -4.8132062 1.3240465
-2.720109 -4.8268027 1.3209544
-2.7186882 -4.830297 1.3242562
-2.7110918 -4.826787 1.3287991
-2.6944754 -4.8360267 1.3351296
-2.6833348 -4.8450079 1.3194925
-2.6825159 -4.8425641 1.3365304
-2.6760421 -4.8367796 1.3335127
-2.6766975 -4.857234 1.3393801
-2.6719792 -4.8530965 1.3253305
-2.6529694 -4.8509803 1.3223375
-2.6415479 -4.8657379 1.3295631
-2.6532135 -4.8658166 1.3371
-2.641572 -4.865047 1.3319433
-2.6253827 -4.874414 1.3213335
-2.6228573 -4.8793993 1.32552
-2.6159644 -4.8703289 1.3359184
-2.6120281 -4.8815536 1.3358597
-2.6111045 -4.880208 1.3390954
-2.6043081 -4.9009233 1.3302082
-2.5915565 -4.8894134 1.327167
-2.5817931 -4.8932719 1.3330892
-2.5847986 -4.8955908 1.3226434
-2.5602624 -4.9130683 1.3366688
-2.5608778 -4.9011617 1.3250191
-2.552098 -4.9135404 1.3320669
-2.5391266 -4.9258413 1.331858
-2.5357518 -4.9210267 1.3240879
-2.5324309 -4.9221144 1.3213172
-2.5258694 -4.9232368 1.3214756
-2.5281901 -4.9384432 1.3367788
-2.5135469 -4.930727 1.3318485
-2.5129766 -4.9328628 1.3282151
-2.5028474 -4.9373131 1.3307102
-2.4986877 -4.949235 1.3287084
-2.4861729 -4.9392381 1.3379148
-2.4866054 -4.9431357 1.3383976
-2.4672418 -4.9505301 1.3272626
-2.4756436 -4.9614792 1.3385983
-2.4668114 -4.9527478 1.3323601
-2.4578159 -4.9732232 1.3344545
-2.4535124 -4.9659462 1.3277941
-2.4341345 -4.9649949 1.3225178
-2.438385 -4.9808145 1.3363011
-2.4201357 -4.9793801 1.3216628
-2.4238837 -4.9923415 1.3205119
-2.4184203 -4.9926505 1.3389444
-2.4124694 -4.9805164 1.333454
-5.7696934 -3.0027387 1.0963255
-5.7683902 -2.9993901 1.0875771
-5.7652817 -3.009855 1.0963744
-5.7725377 -3.0133922 1.0907633
-5.7526493 -3.0334725 1.0918815
-5.7677512 -3.0373676 1.0867887
-5.7523165 -3.0395868 1.0847024
-5.7549443 -3.0492179 1.0834312
-5.7481041 -3.0622497 1.0852469
-5.7346344 -3.0619307 1.0898927
-5.7274919 -3.0706394 1.092237
-5.5552521 -2.9912508 1.1425601
-5.5607643 -3.0037141 1.1339419
-5.5574684 -3.0076511 1.1498544
-5.5597725 -3.0159292 1.1537489
-5.5409479 -3.02355 1.1418042
-5.547205 -3.0399876 1.1356908
-5.5355377 -3.0433159 1.1479905
-5.5251307 -3.0440784 1.1352968
-5.5328975 -3.0556569 1.1509545
-5.5160074 -3.0643892 1.1459301
-5.5167623 -3.0740771 1.1373254
-5.5237336 -3.0734692 1.1440359
-5.3519731 -2.9999619 1.1911324
-5.3317595 -3.0065446 1.2011675
-5.3276415 -2.9985271 1.1913427
-5.3354573 -3.0210021 1.1928353
-5.3293762 -3.0160558 1.1987486
-5.3309851 -3.0249596 1.1916429
-5.3252773 -3.0458975 1.2006958
-5.3239017 -3.034224 1.2087475
-5.3075395 -3.0475943 1.1948366
-5.2997723 -3.0522363 1.209253
-5.3052835 -3.0567677 1.1910839
-5.3002386 -3.0652761 1.1938057
-5.2851486 -3.0738673 1.1920128
-5.1142631 -2.997658 1.2517571
-5.1276197 -2.9961858 1.2473533
-5.1150532 -3.0005546 1.2614958
-5.1095819 -3.0034583 1.2621446
-5.1150484 -3.0292392 1.2619052
-5.1124525 -3.0229213 1.2557276
-5.1037579 -3.0331097 1.2523346
-5.100637 -3.0330937 1.2518303
-5.095675 -3.0523272 1.2502319
-5.0879817 -3.0607748 1.2474507
-5.0820708 -3.0682619 1.2514534
-5.0729561 -3.0732954 1.2640935
-5.0682354 -3.069962 1.259524
-5.0693626 -3.0853677 1.259204
-4.9061456 -2.9904134 1.3168012
-4.8869834 -2.9969108 1.3113073
-4.8939891 -2.9989538 1.3227606
-4.884378 -3.002126 1.3213598
-4.8752618 -3.024596 1.3078493
-4.8877349 -3.0236423 1.3130089
-4.8829789 -3.0410576 1.3177934
-4.8742113 -3.033648 1.3046502
-4.8727937 -3.0458176 1.3219401
-4.8559365 -3.0434234 1.310918
-4.8593893 -3.0658169 1.321892
-4.8617864 -3.0732372 1.3132216
-4.8496675 -3.0718625 1.3093557
-4.8460855 -3.0850852 1.3091594
-4.8438954 -3.0934098 1.3133286
-4.6736522 -2.9949825 1.3618318
-4.6799383 -2.9992633 1.3631929
-4.6614313 -2.9990232 1.3787816
-4.6560578 -3.001622 1.3690127
-4.6533856 -3.0116289 1.3684441
-4.6617265 -3.0293643 1.372282
-4.6590843 -3.0337813 1.3754935
-4.645103 -3.0303736 1.366868
-4.6349788 -3.0476878 1.3718017
-4.6450419 -3.0471251 1.3751869
-4.6309266 -3.0621958 1.3603171
-4.6248498 -3.06774 1.367705
-4.6174026 -3.0589736 1.3618655
-4.6143575 -3.0690393 1.3799542
-4.6210723 -3.0806479 1.3745567
-4.6083469 -3.084821 1.3779387
-4.6117744 -3.0905845 1.3634129
-4.4529281 -2.999352 1.4353482
-4.4419017 -3.0092814 1.4199159
-4.4259329 -3.0135341 1.4315377
-4.4265699 -3.007941 1.4345741
-4.4220686 -3.0205493 1.4185456
-4.4301701 -3.0299976 1.4177568
-4.4241028 -3.0206976 1.4333694
-4.4199381 -3.0424178 1.4238348
-4.4011626 -3.0357268 1.4365823
-4.3989964 -3.056787 1.4300154
-4.3913469 -3.0623865 1.4338671
-4.3883047 -3.061151 1.4340045
-4.4006853 -3.0681467 1.4360985
-4.3814363 -3.0799887 1.4299889
-4.3791418 -3.0715463 1.4174684
-4.3728671 -3.0954318 1.4216913
-4.367373 -3.0974848 1.4213998
-4.3662577 -3.0996165 1.4255681
-4.2183609 -2.9960043 1.4791512
-4.2141709 -3.0054884 1.481292
-4.1965399 -3.0115926 1.483995
-4.1950488 -3.0189323 1.4740894
-4.1934118 -3.0229397 1.4833379
-4.1896734 -3.0319924 1.4868886
-4.1920357 -3.0230548 1.4850196
-4.1869106 -3.0321548 1.4853969
-4.1775546 -3.0400815 1.4898471
-4.1684818 -3.0512221 1.4782852
-4.1752324 -3.0551114 1.4852293
-4.1649423 -3.0590019 1.4885787
-4.152503 -3.0694602 1.4917074
-4.1573529 -3.0626347 1.4733745
-4.1521001 -3.078388 1.4769062
-4.1375909 -3.0746262 1.4772509
-4.1395226 -3.0774591 1.4923936
-4.1433153 -3.0994067 1.4842905
-4.1267228 -3.0962465 1.4741088
-4.1256719 -3.1082695 1.4786289
-3.9630332 -2.9957666 1.5416464
-3.9667456 -2.9925737 1.5300534
-3.9671006 -3.0012226 1.5338266
-3.9643192 -3.0190105 1.5302435
-3.9598629 -3.0158429 1.5367197
-3.9518673 -3.0224712 1.532764
-3.9435191 -3.0353446 1.5317758
-3.9400206 -3.0363324 1.5346344
-3.9446175 -3.0450571 1.5464416
-3.9393885 -3.0370686 1.5320078
-3.9296317 -3.0439286 1.5403119
-3.9334002 -3.0586932 1.5373653
-3.9287539 -3.058013 1.5313203
-3.9203267 -3.058759 1.5330321
-3.9154749 -3.0792642 1.5434502
-3.9041393 -3.0759969 1.5327729
-3.8967516 -3.0886123 1.534749
-3.8903449 -3.0819678 1.5412585
-3.9010715 -3.0841668 1.5445582
-3.8999836 -3.1053903 1.5413556
-3.8933218 -3.1011188 1.5367962
-3.8783484 -3.1048851 1.5429693
-3.736793 -2.9880919 1.5918646
-3.7309639 -3.0071378 1.5889486
-3.7234159 -3.0056243 1.5910068
-3.7054424 -3.0170753 1.6018054
-3.7181389 -3.0254467 1.6054559
-3.7088518 -3.0117264 1.6012119
-3.6930482 -3.033056 1.6002243
-3.6939378 -3.0376282 1.6034622
-3.6980226 -3.0398769 1.5964146
-3.6866596 -3.0314977 1.5910378
-3.689116 -3.0554376 1.587695
-3.6792207 -3.0577412 1.5905226
-3.6722341 -3.0566971 1.6000741
-3.663182 -3.0618868 1.6033789
-3.6633241 -3.0639877 1.603511
-3.6598086 -3.0810239 1.6025559
-3.6605299 -3.0864856 1.6054579
-3.6622317 -3.0770731 1.5889684
-3.6606884 -3.0959892 1.5954052
-3.6461856 -3.0877934 1.5953901
-3.6370525 -3.1063118 1.5965981
-3.6312551 -3.0992005 1.6006596
-3.6426229 -3.1093748 1.5909163
-3.6244323 -3.1147766 1.6011283
-3.4775198 -2.9994757 1.650929
-3.4760528 -2.9898822 1.6522762
-3.475534 -3.0053115 1.6532887
-3.4721067 -3.0067511 1.6488348
-3.4651618 -3.0109632 1.6505798
-3.4517734 -3.0249951 1.6456299
-3.4583936 -3.0142241 1.6472641
-3.4437988 -3.0219924 1.6611068
-3.4451358 -3.0254729 1.6498661
-3.4362094 -3.0351138 1.6583081
-3.4370642 -3.0476105 1.6619979
-3.4246621 -3.0428307 1.6601508
-3.4309061 -3.0417295 1.6477382
-3.4161305 -3.0614049 1.658744
-3.4258025 -3.0583467 1.6503897
-3.4137228 -3.0661175 1.6528496
-3.4065862 -3.0647328 1.6509209
-3.3978086 -3.0729845 1.646058
-3.3951819 -3.0868111 1.6625431
-3.403789 -3.0759559 1.6542097
-3.4039476 -3.0902066 1.6581963
-3.38041 -3.0963132 1.6517733
-3.3787124 -3.0929286 1.6512562
-3.3894212 -3.0990403 1.6558621
-3.3691175 -3.0991018 1.6483191
-3.3771613 -3.1113682 1.6577921
-3.3627388 -3.1207895 1.6534303
-3.2296479 -2.9952083 1.702142
-3.2221861 -3.001632 1.7052456
-3.2182329 -3.0009747 1.703967
-3.2026067 -3.0047941 1.7131943
-3.2029879 -3.0094008 1.7010653
-3.2097855 -3.0166419 1.7170656
-3.1970942 -3.0189295 1.7116928
-3.1997907 -3.0252583 1.710991
-3.1900239 -3.0239823 1.7027491
-3.1907778 -3.0326419 1.7098061
-3.1758873 -3.0331655 1.7166351
-3.1688292 -3.050416 1.7015524
-3.1786616 -3.0479083 1.711633
-3.1697662 -3.0539761 1.7023941
-3.1716373 -3.0646322 1.7130429
-3.1656311 -3.0662999 1.7009389
-3.1636186 -3.0594962 1.7110299
-3.1469727 -3.0596154 1.7192686
-3.1510222 -3.0742004 1.7132537
-3.1433077 -3.0737782 1.7030443
-3.12853 -3.0827103 1.7167701
-3.1269171 -3.0888357 1.7176981
-3.1203809 -3.089051 1.7055806
-3.1237578 -3.0846343 1.7118366
-3.1163678 -3.1063585 1.7118714
-3.1183226 -3.1063526 1.7146676
-3.1123755 -3.1086164 1.7086903
-3.1163311 -3.1185224 1.7070109
-3.1120422 -3.1167727 1.7151576
-3.0937619 -3.111609 1.7081317
-3.085685 -3.1159744 1.7165725
-2.9490652 -2.9865556 1.7598312
-2.9465132 -2.9912155 1.7707114
-2.9560726 -3.0035779 1.7703892
-2.9393706 -3.0128818 1.7727176
-2.9426279 -3.0084782 1.7594206
-2.9430833 -3.0224707 1.7682228
-2.9295101 -3.0247691 1.7714754
-2.9176106 -3.0271342 1.7608284
-2.9175587 -3.0355809 1.7596895
-2.9245269 -3.0203185 1.7585236
-2.9230487 -3.0276215 1.7746245
-2.9148567 -3.036562 1.7702035
-2.8957784 -3.0392568 1.757552
-2.897017 -3.0494506 1.7597233
-2.8959212 -3.0471082 1.7704186
-2.8881168 -3.0494337 1.7712358
-2.8915048 -3.0624039 1.7738634
-2.8916342 -3.0676987 1.7582287
-2.8824053 -3.0571709 1.7582442
-2.8743095 -3.0778468 1.7576128
-2.8673742 -3.0812852 1.7737635
-2.8643322 -3.0807784 1.7650529
-2.8657055 -3.0854454 1.7577204
-2.8597248 -3.0956089 1.7642612
-2.8515673 -3.0889404 1.7572058
-2.8527086 -3.0987368 1.7718803
-2.8530273 -3.0961959 1.7576337
-2.8307128 -3.0980654 1.7621357
-2.8440275 -3.1149921 1.7612028
-2.8373213 -3.108115 1.7636254
-2.9602184 -3.2606094 1.7100843
-2.9577832 -3.2525353 1.71762
-2.9440532 -3.2701428 1.7045019
-2.9376495 -3.2660837 1.7052275
-2.9446993 -3.2781866 1.7166228
-2.9387989 -3.2757559 1.702217
-2.9382181 -3.2779748 1.7143409
-2.9318783 -3.2822154 1.7085785
-2.9210308 -3.2841127 1.7098664
-2.9111104 -3.2836506 1.7020025
-2.9187617 -3.3014612 1.7076187
-2.903398 -3.3013935 1.7054478
-2.9004931 -3.3121579 1.7098016
-2.8907003 -3.3010874 1.7023405
-2.9001765 -3.3216405 1.7068961
-2.8782518 -3.320873 1.7179954
-2.890727 -3.3241105 1.7109826
-2.8710728 -3.3255992 1.7038295
-2.8771753 -3.3208375 1.7188731
-2.8619845 -3.3307581 1.7184662
-2.8546517 -3.3329384 1.7043296
-2.8616972 -3.3443692 1.7143354
-2.850908 -3.3375149 1.7176449
-2.8557596 -3.3454931 1.7160867
-2.8480666 -3.3475788 1.7180306
-2.8358123 -3.3523762 1.7047905
-2.8324533 -3.3542914 1.7123554
-2.8361015 -3.3612003 1.702467
-2.9502261 -3.5258079 1.6448193
-2.9457674 -3.5131133 1.657824
-2.94171 -3.5177505 1.6526647
-2.9317832 -3.5341034 1.6600841
-2.9318449 -3.524343 1.6583612
-2.9285915 -3.5441153 1.6526564
-2.9268904 -3.5408816 1.6488563
-2.9232399 -3.550086 1.644242
-2.9128237 -3.5406296 1.6616896
-2.9148369 -3.5595248 1.6561985
-2.9067328 -3.5539246 1.657006
-2.8997204 -3.5687857 1.6546373
-2.8996975 -3.5645149 1.6517537
-2.8848286 -3.575249 1.6566325
-2.8825343 -3.5709815 1.6553805
-2.8819573 -3.5684035 1.6584578
-2.8670795 -3.5890729 1.6488636
-2.8559964 -3.5910463 1.6541526
-2.8695219 -3.587563 1.652979
-2.8455942 -3.591059 1.6569843
-2.8471518 -3.5914221 1.6506567
-2.8478966 -3.6097496 1.653528
-2.8310044 -3.6130369 1.6447231
-2.8369901 -3.6064434 1.6492304
-2.8380916 -3.6225498 1.6620442
-2.9385653 -3.7742352 1.6049176
-2.9376194 -3.7650564 1.5876971
-2.9262619 -3.7698045 1.5925217
-2.9296095 -3.7730942 1.6048404
-2.9141252 -3.7774777 1.5976675
-2.9146297 -3.7884464 1.5941285
-2.9014561 -3.7851925 1.5962521
-2.9054058 -3.7900846 1.5990714
-2.8981543 -3.8060067 1.59246
-2.88639 -3.8080795 1.5937114
-2.8818064 -3.8175554 1.5983957
-2.8777931 -3.8113568 1.5963787
-2.8709948 -3.8190782 1.5937256
-2.8793662 -3.8154306 1.5918875
-2.8754134 -3.8215871 1.5897633
-2.8586278 -3.8335428 1.6007606
-2.8653755 -3.837625 1.5990944
-2.8499942 -3.8309629 1.5966111
-2.8517878 -3.842361 1.6022737
-2.8401875 -3.847312 1.5899236
-2.8273301 -3.8530023 1.5921507
-2.8297827 -3.860008 1.6046216
-2.9476748 -4.0202627 1.5368589
-2.9345703 -4.0196738 1.5333247
-2.9232984 -4.0204768 1.5476571
-2.9141448 -4.0298452 1.5340494
-2.9139884 -4.0313177 1.5403675
-2.9154923 -4.0427709 1.5373483
-2.8994739 -4.0413852 1.5469242
-2.8977871 -4.033772 1.5355346
-2.8884449 -4.0386801 1.5424328
-2.8968699 -4.051425 1.5462959
-2.8728182 -4.0540237 1.5485806
-2.8799734 -4.0491295 1.5355681
-2.870657 -4.0585804 1.5458581
-2.8670025 -4.0645003 1.5308778
-2.8569503 -4.0758924 1.5385152
-2.8605745 -4.0744228 1.5387818
-2.8472121 -4.0825744 1.5445085
-2.8442683 -4.0746851 1.5419148
-2.8327084 -4.0831046 1.5384717
-2.834245 -4.0856061 1.5463344
-2.9409764 -4.2475381 1.4790907
-2.9361336 -4.2646255 1.4773264
-2.9242976 -4.25807 1.4901381
-2.9221656 -4.2535396 1.4810486
-2.9150083 -4.2646408 1.484578
-2.900208 -4.2650571 1.4735804
-2.9051356 -4.2778063 1.4784261
-2.8843305 -4.2733135 1.4751484
-2.8861136 -4.2829676 1.4874305
-2.8713341 -4.2798705 1.4811825
-2.8686864 -4.3001595 1.4747854
-2.8767262 -4.3015494 1.4754083
-2.8665249 -4.2970533 1.4866856
-2.8635063 -4.2963805 1.4865844
-2.8495715 -4.3145113 1.4794639
-2.8521016 -4.3038092 1.4760015
-2.845624 -4.3240066 1.4838552
-2.834295 -4.3293772 1.4802593
-2.9313014 -4.4830256 1.4345078
-2.9307327 -4.4875197 1.4324442
-2.9164064 -4.4953604 1.4341239
-2.9084713 -4.4972415 1.4184374
-2.8999078 -4.4949274 1.4312626
-2.9000611 -4.4956059 1.4287677
-2.90031 -4.5083671 1.4321404
-2.8876739 -4.5096812 1.4302057
-2.8784945 -4.5105457 1.4320554
-2.8814557 -4.5261149 1.4325076
-2.8680072 -4.5196667 1.4237872
-2.863754 -4.538919 1.4346758
-2.8615589 -4.5301194 1.4218178
-2.8576787 -4.5396657 1.431164
-2.8494794 -4.5469341 1.4269012
-2.8284492 -4.540648 1.4260274
-2.8299086 -4.5409088 1.4364518
-2.9292138 -4.7177954 1.373062
-2.9089963 -4.7289934 1.3693995
-2.9069235 -4.7294664 1.3742003
-2.9043927 -4.7228107 1.3694732
-2.8905766 -4.7382274 1.3695089
-2.8858662 -4.7377801 1.3623499
-2.8940082 -4.739789 1.3696421
-2.8727982 -4.7399406 1.373654
-2.8758457 -4.74541 1.3679315
-2.859761 -4.7586913 1.3659191
-2.8532465 -4.7564125 1.3739412
-2.8535657 -4.7605085 1.3748592
-2.8375421 -4.7691288 1.3793889
-2.8367116 -4.7618217 1.3746496
-2.8406031 -4.7673073 1.3785601
-2.9222426 -4.9397402 1.3104244
-2.9130158 -4.9420285 1.3208781
-2.916491 -4.9497328 1.3152188
-2.8959486 -4.9471154 1.3081195
-2.901123 -4.9550505 1.3117588
-2.8883042 -4.9631128 1.3216876
-2.8874576 -4.9581428 1.3115221
-2.8656874 -4.9638028 1.3167285
-2.8593819 -4.9752913 1.3132248
-2.85781 -4.9773359 1.3082089
-2.8523221 -4.9899011 1.3197675
-2.8384137 -4.9801455 1.3131289
-2.8340461 -4.9807768 1.3228678
-5.8037219 -2.9947584 1.1444458
-5.7858114 -3.0087857 1.1278141
-5.7782302 -3.0039859 1.1447468
-5.7868118 -3.0119514 1.1378216
-5.7779489 -3.0329955 1.133945
-5.7751427 -3.0345607 1.1412399
-5.7638087 -3.0518069 1.1306726
-5.7605729 -3.0511291 1.1267366
-5.7640114 -3.0510705 1.1303483
-5.7486062 -3.0562356 1.1374415
-5.7554665 -3.0824797 1.126057
-5.5823417 -2.98406 1.1838948
-5.5753384 -2.9929736 1.1994826
-5.5713916 -3.0146844 1.1951959
-5.5743594 -3.0117593 1.1979504
-5.561193 -3.0302665 1.187219
-5.5607204 -3.0216894 1.1873147
-5.5508046 -3.0341372 1.1961557
-5.5448136 -3.0542955 1.1931169
-5.5552001 -3.0633321 1.1929682
-5.5384827 -3.0635231 1.1946251
-5.5331392 -3.0642691 1.1917986
-5.5250936 -3.082202 1.1878595
-5.3536229 -2.9866173 1.2451516
-5.3543859 -2.9917493 1.2380112
-5.3523841 -3.0079372 1.240147
-5.3411031 -3.0078862 1.2386374
-5.3497157 -3.0221636 1.2524517
-5.3294768 -3.0347052 1.2538731
-5.3322668 -3.0418994 1.2540178
-5.3351946 -3.036653 1.2417251
-5.3364553 -3.0503502 1.236434
-5.3205318 -3.0603006 1.2409518
-5.3085375 -3.0709159 1.2550185
-5.3143873 -3.066483 1.2514485
-5.3073668 -3.0842476 1.2391803
-5.1321034 -2.9981387 1.3095936
-5.1445718 -3.0014329 1.2980604
-5.1232157 -3.008719 1.3014575
-5.1204281 -3.0030363 1.3051263
-5.117486 -3.024533 1.3015015
-5.1268263 -3.0315523 1.2916336
-5.121448 -3.0269208 1.2992635
-5.1115417 -3.0345776 1.3037201
-5.1075592 -3.0523772 1.3000457
-5.1071362 -3.0474601 1.3060369
-5.0989714 -3.0576906 1.3087591
-5.0955305 -3.0645783 1.2953734
-5.0836129 -3.0743086 1.3018818
-5.0882878 -3.0854604 1.3012475
-5.0892844 -3.0978889 1.3062851
-5.0738959 -3.1038868 1.2914661
-5.0683651 -3.1087453 1.3084353
-5.0751948 -3.1079464 1.3048986
-5.0575576 -3.1274233 1.2907072
-5.0635853 -3.1307461 1.3085717
-5.0436115 -3.1301832 1.3033386
-5.040906 -3.1504679 1.298345
-5.0515761 -3.1431334 1.2907418
-5.0357285 -3.1447828 1.2991018
-5.0405049 -3.151747 1.3021421
-5.0402336 -3.1676509 1.3062875
-5.0347719 -3.1823623 1.2926712
-5.012331 -3.1882515 1.3069447
-5.0134168 -3.1808619 1.3088259
-5.0086846 -3.2038677 1.2944626
-4.6822824 -3.003933 1.4180285
-4.6851888 -3.0125732 1.4180824
-4.6730795 -3.0162814 1.4125308
-4.6685648 -3.0085495 1.4123839
-4.6756806 -3.0300114 1.4123207
-4.6597466 -3.0356297 1.4033952
-4.6596589 -3.0402234 1.4067937
-4.6531777 -3.046823 1.4113322
-4.6524143 -3.0389655 1.4102834
-4.6497607 -3.0508423 1.4132457
-4.6414614 -3.0645888 1.4158086
-4.6398807 -3.0654378 1.4162836
-4.638237 -3.0783832 1.4195969
-4.6221356 -3.0910285 1.4171828
-4.6261725 -3.0950129 1.4198415
-4.6302633 -3.0872967 1.4034108
-4.4637289 -2.9964714 1.4640561
-4.4534788 -2.9904566 1.4694719
-4.4586811 -3.0079384 1.469256
-4.4449239 -3.007036 1.4636685
-4.4481955 -3.0221126 1.4708337
-4.4288955 -3.0198958 1.4636427
-4.429112 -3.0403318 1.4699934
-4.4260063 -3.0289724 1.47018
-4.4253063 -3.045964 1.4728571
-4.4219384 -3.0513704 1.4697195
-4.4149933 -3.0541165 1.4566072
-4.4025407 -3.0708041 1.475744
-4.404664 -3.0768945 1.4636273
-4.4069943 -3.0734367 1.4586356
-4.3949037 -3.0774684 1.4647838
-4.3956389 -3.0864265 1.4593595
-4.3835568 -3.0998361 1.4597039
-4.3851156 -3.0943837 1.4576067
-4.2296834 -3.0012457 1.5198574
-4.2285166 -3.0000205 1.527742
-4.2104793 -2.9961197 1.5190614
-4.2055459 -3.0040448 1.5198684
-4.2014675 -3.0183802 1.5207536
-4.2094975 -3.0193415 1.5112599
-4.2025113 -3.0325165 1.5238916
-4.1893687 -3.0307398 1.5137161
-4.1816421 -3.0412025 1.5162759
-4.1935625 -3.0375538 1.530427
-4.1875725 -3.059607 1.5126108
-4.1744704 -3.0646853 1.5219278
-4.1734753 -3.0559258 1.5210477
-4.1611528 -3.0664413 1.5181386
-4.168015 -3.0770946 1.5267845
-4.1539841 -3.0800023 1.5203536
-4.1494384 -3.0801566 1.5266261
-4.1522532 -3.0914087 1.5205479
-4.1452355 -3.0991836 1.5298737
-4.1356497 -3.1031363 1.5287088
-3.978276 -2.9897916 1.5664923
-3.9725006 -3.0029767 1.5698994
-3.9774005 -2.9994485 1.5679089
-3.9631727 -3.0078878 1.5812398
-3.9718463 -3.007488 1.5697482
-3.9718661 -3.0173633 1.5811735
-3.9583092 -3.0270076 1.5782635
-3.9584718 -3.0237894 1.5699137
-3.944705 -3.037884 1.579596
-3.9416049 -3.0467315 1.5711262
-3.9396617 -3.0561807 1.5662229
-3.9350743 -3.0640483 1.5737088
-3.927072 -3.0610168 1.5702908
-3.9210527 -3.0679667 1.5839957
-3.9216948 -3.0678065 1.583657
-3.9138207 -3.0718906 1.5789936
-3.9145136 -3.0866501 1.5702305
-3.9181089 -3.0858121 1.5702243
-3.9100463 -3.0954552 1.5816562
-3.9122937 -3.1062531 1.5697676
-3.9030035 -3.0993712 1.5739503
-3.7484343 -2.9921455 1.6309273
-3.7367139 -3.0010135 1.6412978
-3.7284043 -3.0081482 1.6302215
-3.7263823 -3.0002191 1.6248021
-3.7246919 -3.0087173 1.6407896
-3.7276573 -3.022218 1.6275026
-3.7193789 -3.0236309 1.6405324
-3.7110994 -3.0213056 1.629392
-3.7113805 -3.0255601 1.6329205
-3.7035432 -3.0448642 1.6287917
-3.7115159 -3.044121 1.6373161
-3.6976511 -3.0558448 1.6222118
-3.6934087 -3.0434537 1.6252058
-3.6802351 -3.0532424 1.6213562
-3.6924739 -3.0655499 1.6342298
-3.6887181 -3.0650392 1.6388183
-3.678242 -3.0804739 1.6272035
-3.6747289 -3.0718601 1.6231174
-3.662349 -3.0877657 1.6399747
-3.6664333 -3.0800793 1.6227198
-3.6546395 -3.0846183 1.6313939
-3.654314 -3.0995526 1.6335241
-3.6490858 -3.1145115 1.6332195
-3.6408563 -3.1005716 1.6282942
-3.6364694 -3.1231518 1.6362237
-3.4933074 -3.0010703 1.6849664
-3.4916189 -2.9977996 1.6882777
-3.4815385 -2.9953194 1.6853468
-3.4755375 -3.0047696 1.6916485
-3.4726722 -3.0226219 1.6907682
-3.4670553 -3.0130053 1.690475
-3.4727573 -3.0273952 1.6803674
-3.4563224 -3.020896 1.6804146
-3.4601853 -3.0305135 1.6795095
-3.4489665 -3.0400975 1.681126
-3.4498117 -3.0367742 1.6847249
-3.4370544 -3.0559552 1.6764805
-3.4409788 -3.0492551 1.6955965
-3.4278274 -3.0607605 1.6901362
-3.4283679 -3.0536137 1.6916919
-3.4297817 -3.0650694 1.6877266
-3.4314821 -3.0664539 1.6942278
-3.4232836 -3.0756371 1.6920788
-3.415031 -3.0729229 1.6851569
-3.4076767 -3.0832372 1.6934898
-3.3986995 -3.0986502 1.6899787
-3.4061165 -3.1055663 1.6921135
-3.4017713 -3.1006737 1.6857688
-3.3983037 -3.1069036 1.6927339
-3.3802896 -3.1179545 1.6916547
-3.380713 -3.1147065 1.6839225
-3.3850954 -3.1174526 1.6796026
-3.2418976 -2.9856968 1.7460376
-3.2220969 -3.0004029 1.7448245
-3.2292118 -3.012069 1.7380761
-3.2279875 -2.9990788 1.7406875
-3.210268 -3.017833 1.7411497
-3.2104075 -3.0165761 1.751265
-3.2168851 -3.0161924 1.739905
-3.1963916 -3.0221419 1.7422427
-3.1969709 -3.0328691 1.732571
-3.2052763 -3.0323391 1.7448894
-3.1978953 -3.0340507 1.7430899
-3.17922 -3.040153 1.7511115
-3.1817513 -3.0575678 1.7319884
-3.1710248 -3.0579622 1.7503712
-3.177681 -3.0648475 1.7345096
-3.1638687 -3.0560884 1.7444086
-3.1599348 -3.0580301 1.7391893
-3.1673546 -3.0637071 1.7325125
-3.1524305 -3.074199 1.7395946
-3.1471722 -3.0772378 1.7316868
-3.1495891 -3.0771432 1.7465416
-3.1537995 -3.0826273 1.7397624
-3.149982 -3.0949032 1.7400309
-3.1452816 -3.100719 1.7443612
-3.1421921 -3.0974636 1.7462567
-3.1349583 -3.1046748 1.7413557
-3.1178191 -3.1122372 1.7389516
-3.1258934 -3.1115108 1.7353027
-3.1206381 -3.1201577 1.7455884
-3.108295 -3.1278498 1.7372558
-2.9683738 -2.9858716 1.7885791
-2.9692619 -2.9886277 1.8036797
-2.9569232 -2.9918888 1.7909069
-2.9643104 -2.9947777 1.7967144
-2.9473615 -2.9989119 1.7901677
-2.9485114 -3.0201528 1.8007939
-2.9545562 -3.0086014 1.7882359
-2.9429998 -3.0294774 1.8007764
-2.9350863 -3.0294571 1.7890359
-2.9368813 -3.0214586 1.7939631
-2.9270031 -3.0333896 1.7888253
-2.920943 -3.0303953 1.8050898
-2.9197764 -3.0392547 1.8022462
-2.9113772 -3.0396998 1.8006603
-2.9171643 -3.0474 1.7990812
-2.9094927 -3.0604596 1.8003963
-2.9111893 -3.0637801 1.7973919
-2.9054379 -3.0597651 1.797635
-2.8871408 -3.0720637 1.8020158
-2.880578 -3.0703902 1.7985066
-2.8890827 -3.0630772 1.787172
-2.8827195 -3.0739481 1.8029313
-2.8800859 -3.0879025 1.7939248
-2.8802905 -3.077713 1.788561
-2.8620756 -3.0975723 1.7995789
-2.8654339 -3.094027 1.8016129
-2.8674715 -3.0964508 1.8043963
-2.8525081 -3.0974019 1.7952586
