# .PCD v0.7 - Point Cloud Data file format
VERSION 0.7
FIELDS x y z
SIZE 4 4 4
TYPE F F F
COUNT 1 1 1
WIDTH 1559
HEIGHT 1
VIEWPOINT 0 0 0 1 0 0 0
POINTS 1559
DATA ascii
1.4265778 -3.1400948 1.9954466
1.4298134 -3.1388314 1.9977058
1.4424598 -3.1419432 1.9843175
1.4356679 -3.1336639 1.9978878
1.4433943 -3.1340203 1.9890816
1.4491917 -3.1205983 1.9828337
1.4647622 -3.1256471 1.9826283
1.4602158 -3.1313374 1.9975499
1.470291 -3.1233704 1.9930202
1.4800743 -3.1171353 1.9821962
1.472105 -3.1101346 1.9889829
1.4698226 -3.1242843 1.9950448
1.4897965 -3.1101713 1.996001
1.4963794 -3.1072307 1.9832361
1.4965296 -3.1009419 1.9881085
1.4878706 -3.1132307 1.9843904
1.492961 -3.114321 1.9936049
1.497843 -3.1043274 1.9951044
1.5176438 -3.1086254 1.9825404
1.5129118 -3.1075039 1.9941742
1.5173529 -3.0987124 1.990766
1.5285778 -3.0965614 1.991159
1.5258617 -3.0987921 1.9836097
1.5240988 -3.0987921 1.9969397
1.5295678 -3.0829914 1.9944912
1.5399065 -3.0801964 1.9976807
1.5465239 -3.0766547 1.9977
1.542353 -3.0725718 1.9856274
1.5596787 -3.0730259 1.9871652
1.5644372 -3.0825469 1.9877269
1.5608265 -3.0719593 1.9949764
1.5738047 -3.0744755 1.9822668
1.5671726 -3.0640342 1.9852108
1.5729884 -3.0596793 1.986033
1.572131 -3.0741754 2.0005276
1.5888221 -3.06265 1.9956834
1.5886996 -3.0688214 1.9922409
1.5885934 -3.0634751 1.9907353
1.5964115 -3.0651116 1.9866233
1.6057643 -3.0462952 1.9908321
1.5956757 -3.0553913 1.9834646
1.6128335 -3.0558088 1.9914105
1.6172785 -3.0471544 1.9876215
1.6246644 -3.0369775 1.9860054
1.6128694 -3.0519483 1.9877052
1.6355659 -3.0345151 1.9987363
1.633415 -3.0414884 2.0013955
1.6278185 -3.0328488 1.9871949
1.6407132 -3.0406692 1.9891456
1.6494927 -3.0234115 1.9876949
1.6424779 -3.0205142 1.9949238
1.6480923 -3.0247276 1.9995053
1.6616493 -3.0287616 1.9905051
1.6514143 -3.0296719 1.9894398
1.6595598 -3.0266366 1.9911559
1.6694021 -3.025161 1.9880512
1.6702721 -3.0100892 1.9957135
1.6737981 -3.0048635 1.9897496
1.6831203 -3.0109901 1.9936934
1.6943898 -3.0125804 1.9926172
1.6842054 -3.0054259 1.9921551
1.7012466 -2.9968944 1.9851898
1.7028662 -2.9990394 1.9918952
1.6954821 -2.9956503 1.9953889
1.7070296 -2.988343 1.9996105
1.7202896 -2.9954178 1.9829948
1.7104418 -2.9858437 1.9991318
1.7282529 -2.9969614 1.9981693
1.8152936 -3.1495235 1.9321991
1.8313104 -3.1483421 1.9388523
1.8262476 -3.1415532 1.9303172
1.8407189 -3.1419272 1.9279653
1.8282216 -3.1448829 1.9411138
1.8424259 -3.1394205 1.9352912
1.8401204 -3.1466055 1.9344097
1.842033 -3.1447215 1.9440814
1.8473263 -3.1368732 1.9409494
1.848753 -3.1353986 1.9443161
1.8692136 -3.1262617 1.9392831
1.8602507 -3.1255181 1.9329029
1.8779374 -3.1142445 1.9307772
1.8670855 -3.1129029 1.9257367
1.8738779 -3.1284585 1.9351933
1.8938153 -3.1142058 1.9275593
1.8879262 -3.1066515 1.930181
1.9011521 -3.1015737 1.9321215
1.9040461 -3.1155882 1.9393384
1.9038044 -3.1125579 1.9454525
1.9069257 -3.0934455 1.9381196
1.9050103 -3.1076708 1.9289404
1.9167111 -3.0885804 1.9284389
1.9262823 -3.1047094 1.9266769
1.9308093 -3.0984101 1.926751
1.9247892 -3.0965335 1.9384634
1.9311314 -3.0849025 1.9351097
1.9400915 -3.0843987 1.9342074
1.9509883 -3.0853503 1.9366579
1.9490983 -3.070889 1.9395
1.9533186 -3.0776484 1.9388098
1.9502023 -3.0706613 1.9412434
1.957903 -3.076308 1.9401107
1.9650984 -3.0767145 1.9401859
1.9705279 -3.056921 1.9438915
1.9760277 -3.0674708 1.9267986
1.9732362 -3.0559983 1.9386556
1.9870871 -3.0598817 1.9283292
1.9800318 -3.0571802 1.9343584
1.9954233 -3.0606771 1.9321496
1.9936529 -3.0442584 1.9404762
1.9911884 -3.0552566 1.9330786
1.9911537 -3.0428514 1.937317
2.0099826 -3.0475442 1.9384259
2.0088825 -3.0310969 1.936599
2.0114844 -3.0334353 1.941487
2.0169892 -3.0228472 1.9351062
2.0143471 -3.0226862 1.942095
2.0213749 -3.0338545 1.9290322
2.0344279 -3.0139017 1.9297132
2.0252681 -3.0199859 1.944048
2.044431 -3.0127974 1.9446132
2.0361924 -3.009902 1.9348066
2.0521882 -3.0124331 1.9375243
2.0492887 -3.000315 1.9339004
2.0645585 -3.0098422 1.9451431
2.0647123 -2.9981077 1.9441732
2.0584812 -2.9932544 1.9405576
2.0592351 -3.005609 1.942961
2.0669219 -2.9891422 1.9424984
2.0752859 -2.9860625 1.9331273
2.1870005 -3.1458938 1.871564
2.1904767 -3.1401808 1.88661
2.2041421 -3.1426873 1.8762829
2.2005208 -3.1323047 1.8752259
2.2132714 -3.1308596 1.8817877
2.2172604 -3.1334643 1.877224
2.2202752 -3.1264994 1.8746477
2.2196698 -3.1229763 1.8768452
2.2214639 -3.1159575 1.8726324
2.222791 -3.1247621 1.8886157
2.2347426 -3.1150556 1.8797289
2.2416768 -3.1062722 1.8735077
2.2436531 -3.1082191 1.8817264
2.2552977 -3.0981786 1.8772682
2.2458808 -3.0997744 1.8711891
2.2630215 -3.1017635 1.8794334
2.255594 -3.1051164 1.8715644
2.2655859 -3.0934484 1.8841345
2.277771 -3.0843563 1.8806331
2.2657387 -3.0783024 1.8852305
2.2696853 -3.0846579 1.8764322
2.2847409 -3.0884359 1.8733083
2.2935708 -3.0745902 1.8851229
2.2906148 -3.0734479 1.8838574
2.3031962 -3.0660663 1.8778692
2.2896941 -3.0658832 1.8867589
2.3044317 -3.0574627 1.8691567
2.311296 -3.0633807 1.8800776
2.3107259 -3.06144 1.8769394
2.3066499 -3.0558534 1.876698
2.3271668 -3.0506372 1.8869379
2.3188808 -3.0546789 1.8702306
2.3274667 -3.054199 1.8841935
2.3278625 -3.0409794 1.8761176
2.346988 -3.0394778 1.8722361
2.340121 -3.0357738 1.8853444
2.3421392 -3.0416229 1.8836739
2.3465507 -3.024894 1.8728801
2.3618784 -3.0330169 1.8808157
2.3540633 -3.0294933 1.8711208
2.3660023 -3.0297256 1.8834186
2.3681767 -3.0225122 1.8884456
2.3736389 -3.010977 1.8707173
2.3730597 -3.0033054 1.8829676
2.3843999 -3.0007629 1.8734722
2.391854 -3.0093377 1.8844278
2.3924117 -3.00014 1.8862754
2.3912942 -2.990772 1.881587
2.3993785 -2.9903131 1.8855048
2.3953936 -2.9819014 1.8696696
2.5214741 -3.1356394 1.8137689
2.520292 -3.1413975 1.8183434
2.524132 -3.1259112 1.8311586
2.5302386 -3.1352177 1.8283452
2.5485904 -3.1173928 1.8247679
2.5374422 -3.1163182 1.8293039
2.5572445 -3.1188855 1.8197194
2.5588894 -3.106765 1.816179
2.5558412 -3.1107509 1.8297678
2.5567057 -3.1029072 1.8284328
2.5617299 -3.0929291 1.8198795
2.5673988 -3.0885186 1.8220536
2.5776372 -3.0846491 1.8161931
2.5806859 -3.0990484 1.8174992
2.5809162 -3.0794666 1.8130971
2.597564 -3.0753989 1.8262304
2.598743 -3.0758898 1.8132514
2.5903323 -3.0790915 1.8288412
2.5983763 -3.0696929 1.816888
2.600004 -3.0637755 1.8292148
2.6202915 -3.0571752 1.8279504
2.6120207 -3.069242 1.8275206
2.6259189 -3.0554016 1.8273789
2.6339517 -3.0628383 1.8292501
2.6232853 -3.0543661 1.8271093
2.6282117 -3.0535619 1.8254364
2.6462665 -3.0358901 1.8196666
2.6513369 -3.0309346 1.8270832
2.6519921 -3.0422363 1.8202807
2.6406889 -3.0362062 1.8157715
2.6617074 -3.0341794 1.8142327
2.6614563 -3.0247095 1.8169913
2.6607702 -3.0256217 1.8299485
2.6599374 -3.0227771 1.831821
2.6809704 -3.0148695 1.8185118
2.6798575 -3.0063007 1.8223469
2.6770663 -3.0039377 1.8201883
2.6885004 -3.0007596 1.8193133
2.687346 -3.0011764 1.823459
2.6993835 -2.9971411 1.8299512
2.6869068 -2.9963274 1.8147805
2.8210289 -3.1227629 1.7688341
2.8299608 -3.1311715 1.7748244
2.8318443 -3.1246369 1.7599519
2.8355949 -3.1212885 1.769274
2.8460305 -3.1232665 1.7634456
2.860296 -3.1122441 1.7562551
2.8523972 -3.1139913 1.7685121
2.8636177 -3.1010909 1.7566156
2.8589785 -3.1003458 1.7650117
2.860826 -3.0962656 1.770473
2.8674972 -3.0903883 1.7685082
2.8847666 -3.0799556 1.7741956
2.888021 -3.0920103 1.7624719
2.8763971 -3.0846801 1.7701454
2.8940897 -3.071274 1.7718834
2.8859484 -3.0679572 1.76068
2.8906109 -3.0768878 1.76376
2.9075248 -3.0589414 1.7757643
2.9125366 -3.0499718 1.7645319
2.9059389 -3.0634873 1.773392
2.9247966 -3.0546579 1.7641352
2.921684 -3.0528805 1.7613113
2.924253 -3.0521641 1.7624264
2.9350927 -3.0473816 1.7668597
2.9336004 -3.0292106 1.7606809
2.93384 -3.0234799 1.7737949
2.9428709 -3.0173798 1.773948
2.9549758 -3.0186532 1.7680115
2.9590793 -3.0191965 1.7670023
2.9519448 -3.0106142 1.7684299
2.9536645 -3.0074444 1.7746325
2.9661219 -3.0116522 1.7585526
2.9757495 -2.9975502 1.7591231
2.9664865 -2.9968622 1.7604042
2.9816508 -3.0019145 1.7757783
3.1055944 -3.1273026 1.7162489
3.1278727 -3.1113746 1.7152803
3.1302981 -3.1075721 1.7089427
3.1267807 -3.1038907 1.71796
3.1222484 -3.1115632 1.7114522
3.1391375 -3.1017292 1.7040008
3.1422229 -3.1036456 1.7082224
3.1492224 -3.1001363 1.7024207
3.1567864 -3.0900862 1.713176
3.1456251 -3.089062 1.7147422
3.149832 -3.0832424 1.7031109
3.1710536 -3.0795135 1.7030708
3.1713006 -3.0777223 1.7024897
3.1652038 -3.0638053 1.7012407
3.168118 -3.0587718 1.7079637
3.1845186 -3.0611939 1.7001592
3.1734614 -3.0648694 1.7060707
3.1866198 -3.0458777 1.7111179
3.19397 -3.0436487 1.7018355
3.1920695 -3.0369012 1.7091916
3.1917288 -3.0302613 1.7179754
3.1997509 -3.0267076 1.7060902
3.2077265 -3.0272093 1.7115924
3.2151146 -3.0181036 1.7066016
3.2212477 -3.0103731 1.7022287
3.2140973 -3.0105259 1.7110116
3.2191362 -3.0060132 1.7116915
3.2300806 -3.0126133 1.7069291
3.2260656 -2.9961283 1.6999558
3.2327621 -3.0058026 1.7152843
3.2468083 -3.0000701 1.7128012
3.3903685 -3.120928 1.6528636
3.4014828 -3.1074879 1.6445113
3.3980925 -3.1108935 1.6607953
3.4097047 -3.1123934 1.6603342
3.3969376 -3.1052647 1.6552391
3.4129467 -3.097312 1.6501695
4.2605705 -3.8577189 1.3147043
4.2735653 -3.8500593 1.3105274
4.2795787 -3.8598981 1.3121715
4.2809119 -3.8398788 1.3150374
4.2797542 -3.8412178 1.3228947
4.2952003 -3.8358004 1.3194731
4.3022861 -3.8381243 1.3079211
4.3056474 -3.8331804 1.3101379
4.3085394 -3.8253417 1.314746
4.3063273 -3.8058252 1.3225634
4.3190379 -3.8139508 1.3203195
4.315577 -3.7944813 1.319791
4.3279309 -3.7943895 1.3234719
4.3419199 -3.7783475 1.3212128
4.3387671 -3.7888379 1.3116477
4.3434629 -3.769248 1.3215255
4.3447285 -3.7679305 1.3230976
4.3544335 -3.7686012 1.303624
4.3663473 -3.7517209 1.3059925
4.3628607 -3.7423854 1.3218733
4.3671827 -3.7456639 1.3036165
4.3692522 -3.7377193 1.3188102
4.3907852 -3.7427285 1.3080689
4.3959899 -3.7190478 1.3073357
4.3989277 -3.7238109 1.3100706
4.3922911 -3.7091606 1.3063465
4.395524 -3.6985183 1.3178837
4.4003205 -3.7034364 1.3226867
1.4213817 -4.9782495 1.5146554
1.409972 -4.9929671 1.5296296
1.4209355 -4.9926252 1.518726
1.4326351 -4.9852476 1.523841
1.4435362 -4.9779024 1.5172615
1.4534692 -4.9731054 1.5142565
1.462624 -4.9747496 1.5175734
1.4683943 -4.9710383 1.5257144
1.4074242 -4.7940722 1.5856917
1.4211957 -4.7861032 1.5821154
1.4297727 -4.7848639 1.5815704
1.4400845 -4.7820015 1.5843456
1.4453676 -4.7751398 1.5854901
1.4397442 -4.7835402 1.5720302
1.4592332 -4.7679987 1.5839239
1.4521399 -4.7694807 1.578613
1.4059865 -4.5848665 1.6247935
1.4189427 -4.5854053 1.6375178
1.420037 -4.5798678 1.6406689
1.4259592 -4.5872464 1.6298243
1.4283022 -4.5727329 1.6382449
1.4500974 -4.5745897 1.6275445
1.4546651 -4.5778432 1.6217128
1.4603744 -4.5733962 1.6254784
1.4526209 -4.5761342 1.622774
1.4184002 -4.3894615 1.6917142
1.4169681 -4.3828149 1.6841971
1.4265672 -4.3896213 1.6941803
1.4288877 -4.3817391 1.687731
1.4343565 -4.3743386 1.6919243
1.4489778 -4.370996 1.6886432
1.4520169 -4.3722563 1.6815084
1.4443531 -4.3753438 1.6891147
1.4508547 -4.3791142 1.679153
1.4611189 -4.377028 1.6844298
1.4077659 -4.1748481 1.7463185
1.4088589 -4.1826563 1.737747
1.4224321 -4.1869912 1.7404009
1.4259856 -4.1751285 1.7489597
1.4430872 -4.1839175 1.7429333
1.4443792 -4.1642027 1.7382556
1.4423875 -4.1675634 1.7503153
1.4532582 -4.1646996 1.7372763
1.4517322 -4.1614437 1.7384471
1.4602417 -4.1740298 1.7396759
1.4740251 -4.1651621 1.7387053
1.4108443 -3.9796622 1.8031133
1.4225394 -3.9879069 1.8060713
1.4168854 -3.9784393 1.7989154
1.4197875 -3.9777081 1.8009859
1.4366605 -3.9815202 1.8007785
1.4488531 -3.9731567 1.7952096
1.4531026 -3.9597526 1.7904952
1.4443102 -3.9737012 1.7870195
1.4566858 -3.9649646 1.7889323
1.4702874 -3.968266 1.7976793
1.4629155 -3.9568634 1.7884991
1.464802 -3.9593282 1.7891134
1.4029104 -3.7727141 1.852374
1.4203416 -3.769141 1.8592426
1.4198406 -3.7742493 1.8603151
1.4191294 -3.772717 1.8477594
1.4328467 -3.7724841 1.8466084
1.4418466 -3.7665899 1.8495014
1.4473681 -3.7738636 1.859116
1.4547997 -3.7530763 1.8434066
1.4509753 -3.7651987 1.8570693
1.457968 -3.7609694 1.8462287
1.4655722 -3.7574308 1.8596637
1.4612871 -3.7617385 1.8547114
1.483868 -3.7518222 1.8426831
1.4875185 -3.747889 1.8502119
1.408366 -3.5765541 1.9111379
1.4180542 -3.5605381 1.9008214
1.4306327 -3.5642645 1.901234
1.4328231 -3.5658209 1.9004295
1.4393011 -3.5564601 1.9054905
1.4394392 -3.5653625 1.9127617
1.4487339 -3.5519135 1.9015448
1.4514608 -3.5479996 1.9039862
1.4492326 -3.546752 1.9143027
1.4549732 -3.5470984 1.9065037
1.4682399 -3.5415945 1.9090297
1.4672829 -3.5513914 1.9056069
1.4760065 -3.5535958 1.9164854
1.48514 -3.5385931 1.9038287
1.419737 -3.3645463 1.9536937
1.4128734 -3.352989 1.9575167
1.4132781 -3.3571126 1.9527887
1.4224632 -3.3634818 1.9699678
1.4340869 -3.357049 1.9663807
1.4360244 -3.3498428 1.9604263
1.4301602 -3.3543339 1.9579483
1.4468192 -3.3447435 1.9636389
1.4400524 -3.3513877 1.9650836
1.4441615 -3.3538544 1.9594824
1.4556111 -3.3529477 1.9683261
1.4617759 -3.3436069 1.9667675
1.4717609 -3.3385608 1.9591198
1.4770151 -3.3290262 1.9631305
1.4794456 -3.3325615 1.9715949
1.4782861 -3.3388507 1.9652804
1.4911693 -3.3356922 1.9524827
1.4815717 -3.3205605 1.9672768
1.4976617 -3.3368781 1.9534216
1.4951936 -3.3337667 1.955088
1.5071213 -3.3238828 1.9556429
1.5078897 -3.3125083 1.9635139
1.5070968 -3.3158205 1.9543997
1.5186532 -3.318547 1.9527824
1.5142173 -3.323509 1.9655854
1.5182428 -3.3142931 1.9700484
1.5359509 -3.3168545 1.9556124
1.5408584 -3.3136706 1.9542445
1.540557 -3.299051 1.9544884
1.5463973 -3.3115511 1.9557669
1.5539012 -3.2967718 1.9648459
1.5619569 -3.3058698 1.9632094
1.5578805 -3.3004034 1.9561644
1.5646869 -3.2880206 1.96429
1.5698731 -3.2847104 1.9653443
1.5678591 -3.2820086 1.9534986
1.5703051 -3.2862296 1.9569693
1.5783122 -3.2901714 1.961495
1.5849481 -3.2790394 1.958505
1.5918249 -3.2866893 1.9608735
1.599977 -3.2714541 1.9558729
1.5972052 -3.2727795 1.9596196
1.6127937 -3.2827942 1.9666717
1.6013341 -3.2706125 1.9639391
1.6179969 -3.2778516 1.9623425
1.6157111 -3.2717087 1.9612675
1.6215762 -3.2677207 1.9537843
1.630909 -3.2603235 1.9601663
1.6247643 -3.2708852 1.9554806
1.6356266 -3.2591619 1.9609389
1.648854 -3.263875 1.9594198
1.6570777 -3.2559457 1.9543564
1.6490449 -3.2570102 1.9570528
1.6480609 -3.2541137 1.9696993
1.6643412 -3.2391307 1.9528682
1.6590217 -3.2510066 1.9599357
1.6726239 -3.2415872 1.96874
1.6787398 -3.247402 1.9626842
1.6712345 -3.2439251 1.9638029
1.6790401 -3.2341466 1.9543748
1.6923008 -3.235698 1.9579571
1.6840391 -3.2335796 1.9671861
1.6907108 -3.2240453 1.9530612
1.7000755 -3.2200427 1.9595373
1.7020833 -3.2243044 1.9586945
1.707257 -3.2184269 1.9636675
1.7194946 -3.2234855 1.9557452
1.7205333 -3.2269628 1.9596872
1.7155128 -3.2224774 1.9647788
1.7316077 -3.2147148 1.9573152
1.7382711 -3.2182167 1.9659603
1.7285136 -3.2145019 1.9543772
1.7479817 -3.2086344 1.9699758
1.7533214 -3.1979172 1.9672183
1.7451339 -3.2097044 1.9578336
1.7561001 -3.2008269 1.9719551
1.7520359 -3.204217 1.9586401
1.7600461 -3.1910706 1.9594635
1.7719948 -3.1874435 1.9623818
1.7690318 -3.1922169 1.9706661
1.7786015 -3.194819 1.9530456
1.776813 -3.1916673 1.9567304
1.783438 -3.1735332 1.9638672
1.7856581 -3.174541 1.9592991
1.8051171 -3.1682153 1.9605157
1.7951882 -3.1753986 1.9681758
1.7993771 -3.1711178 1.970005
1.8102475 -3.1632953 1.9625337
1.8219378 -3.167989 1.9562364
1.816543 -3.1601076 1.9627063
1.8194289 -3.1671143 1.9641085
1.8246908 -3.1603644 1.9661906
1.8336339 -3.1514409 1.9639288
1.8297102 -3.1447451 1.9581748
1.8412149 -3.1430345 1.9562562
1.8539327 -3.1556938 1.9646574
1.8543071 -3.1486013 1.9548367
1.8565069 -3.1350725 1.9703293
1.8512319 -3.1342838 1.9586129
1.859656 -3.1433167 1.9522564
1.8745464 -3.1338873 1.9563655
1.8708353 -3.1236157 1.9646906
1.8692027 -3.1288173 1.9593992
1.8853047 -3.1223552 1.9582574
1.875649 -3.1287978 1.9562739
1.884071 -3.1269281 1.9590727
1.9008907 -3.1290863 1.966399
1.8878859 -3.1134429 1.9646832
1.9103701 -3.1074696 1.9611791
1.9011343 -3.1174634 1.966059
1.9055382 -3.1169543 1.957779
1.9140475 -3.1045406 1.9571754
1.9108781 -3.09814 1.9687685
1.9224136 -3.100014 1.964216
1.9328038 -3.095917 1.9706072
1.9412066 -3.0877676 1.9562482
1.9324044 -3.0871644 1.957105
1.9309247 -3.0839279 1.9709731
1.9477255 -3.082566 1.9681765
1.9410185 -3.0947948 1.9527417
1.9591875 -3.0869708 1.9551655
1.949073 -3.074985 1.9673467
1.9583508 -3.0705123 1.9632659
1.959218 -3.0788441 1.9546424
1.9755288 -3.0811219 1.9674412
1.978227 -3.0593297 1.9657087
1.9865624 -3.0706685 1.9618928
1.9757508 -3.067812 1.9586203
1.9788035 -3.0524762 1.9540111
1.9990557 -3.0481648 1.954468
2.0038693 -3.049998 1.9600379
1.9911027 -3.0462561 1.9548769
2.0105135 -3.0575426 1.9714655
2.0058396 -3.052264 1.9569932
2.0125382 -3.0349734 1.957508
2.0120316 -3.0392792 1.9570739
2.0297887 -3.0395408 1.962554
2.0237262 -3.0349009 1.9681376
2.0343871 -3.0314918 1.9662981
2.0404348 -3.0321097 1.9660048
2.0469356 -3.0321896 1.9611073
2.0390022 -3.0293078 1.9571748
2.0459039 -3.0312834 1.959173
2.0493901 -3.0221965 1.9636607
2.0584002 -3.0106714 1.9626443
2.0679209 -3.0039086 1.9545212
2.0570035 -3.0036409 1.9633298
2.0715623 -3.0136843 1.9539655
2.0717008 -2.9973111 1.9651917
2.0699956 -2.9991307 1.9529754
2.0879931 -2.9986863 1.9578485
2.0810893 -2.9904075 1.962767
2.0902488 -2.9994557 1.9628679
2.2110953 -3.1471229 1.9140602
2.206953 -3.151967 1.9090706
2.2217901 -3.1315067 1.9079837
2.2084997 -3.1461761 1.9042984
2.2240133 -3.1304948 1.9076979
2.2301586 -3.1388798 1.9045929
2.2275257 -3.1331701 1.9167846
2.2326722 -3.1336591 1.9065316
2.2426875 -3.1252446 1.9016618
2.237617 -3.1118588 1.9048425
2.2526426 -3.1115036 1.9153296
2.2540035 -3.1196911 1.8979064
2.2503703 -3.1174381 1.8978714
2.2656455 -3.1128671 1.9000883
2.2572315 -3.0971704 1.9149019
2.2722123 -3.0997114 1.8982397
2.2640839 -3.0892644 1.9041904
2.2881427 -3.0980456 1.906549
2.2819438 -3.101182 1.9142131
2.2908709 -3.0937548 1.9121478
2.2829742 -3.0756636 1.9073163
2.2855604 -3.080569 1.9111699
2.2907188 -3.0734606 1.9141431
2.2958376 -3.0754251 1.8985474
2.303169 -3.0701485 1.915503
2.3053095 -3.0742304 1.9067658
2.3107834 -3.0707765 1.9053178
2.3222034 -3.0675945 1.9119246
2.3159773 -3.0549381 1.9122252
2.3374109 -3.0576766 1.916777
2.3367746 -3.0526295 1.9162381
2.3313024 -3.0493095 1.9076056
2.3496792 -3.04514 1.9028877
2.3510246 -3.0401561 1.9130049
2.35677 -3.0321407 1.9051929
2.3594663 -3.0462804 1.9100866
2.3534207 -3.039237 1.9152163
2.3659227 -3.0250602 1.9003037
2.3650267 -3.0213914 1.9148176
2.3644271 -3.0205662 1.9033568
2.3683743 -3.0246506 1.9137011
2.3717782 -3.0184753 1.9041172
2.3865449 -3.0181873 1.9154489
2.3965893 -3.000813 1.9085046
2.3967459 -3.0019484 1.9063098
2.389086 -3.0046377 1.9067036
2.4063151 -2.997618 1.9108629
2.4086692 -3.0023377 1.9059153
2.416106 -2.9921896 1.9013468
2.4180522 -2.9868734 1.9143078
2.5489717 -3.1316814 1.8447362
2.5500009 -3.1272957 1.8531795
2.5414414 -3.1323609 1.8585974
2.5442088 -3.1315951 1.8580704
2.5600266 -3.1148813 1.8530829
2.5536451 -3.1100311 1.8420752
2.5676522 -3.1121514 1.8547504
2.5658135 -3.116112 1.8593631
2.5790222 -3.1168256 1.8507752
2.5876575 -3.0997787 1.8441494
2.5892487 -3.0964315 1.8591994
2.5964103 -3.0964398 1.855101
2.59201 -3.0893881 1.8423967
2.5930226 -3.0839438 1.8469115
2.5935032 -3.0870519 1.8445874
2.6089914 -3.0809069 1.8435545
2.6134667 -3.085115 1.8568364
2.6106122 -3.0755172 1.8425868
2.6123652 -3.0770607 1.8440461
2.6255252 -3.0743144 1.8589693
2.6320543 -3.0743172 1.8536505
2.6336286 -3.0514936 1.8447276
2.6310992 -3.0574007 1.8592554
2.6358604 -3.0466204 1.8556198
2.6451313 -3.0596797 1.8452625
2.6520729 -3.0415659 1.8574308
2.6579766 -3.043287 1.8617653
2.6571569 -3.0321679 1.8520662
2.6620824 -3.0435956 1.8571857
2.668462 -3.0261581 1.8614079
2.66976 -3.0264814 1.8419778
2.6657336 -3.0295153 1.8617156
2.6727793 -3.0193582 1.8518846
2.6743476 -3.0087144 1.8491664
2.692275 -3.0130694 1.8497155
2.6998401 -3.0147467 1.8446985
2.699568 -3.0147796 1.854275
2.7036252 -2.9998863 1.8512793
2.697978 -3.0043163 1.8531585
2.6974452 -2.9866102 1.8487718
2.7011294 -2.9918451 1.8603525
2.8341928 -3.1280477 1.7900374
2.8383732 -3.1185443 1.8013052
2.8527169 -3.1116958 1.7994895
2.8643372 -3.1111372 1.7895862
2.8565009 -3.1072259 1.7942666
2.863642 -3.1077938 1.7951694
2.8603539 -3.1085064 1.787215
2.8740647 -3.0990627 1.7910742
2.8696492 -3.0943432 1.788877
2.8808413 -3.0901256 1.7976769
2.8836086 -3.0858402 1.7892085
2.891202 -3.0817492 1.8062834
2.8900573 -3.0876837 1.8062409
2.9070916 -3.0863616 1.8027849
2.9142168 -3.077234 1.7992622
2.9060168 -3.0653179 1.7911872
2.918714 -3.0610368 1.7984093
2.9234509 -3.0673862 1.7910788
2.9120417 -3.0624874 1.8044654
2.9184294 -3.0507264 1.7980609
2.9336114 -3.0405231 1.7919271
2.9403193 -3.0470455 1.8058637
2.9440963 -3.039026 1.7898393
2.9478252 -3.03828 1.7911043
2.9480925 -3.0347111 1.7974582
2.9448311 -3.0236387 1.7916834
2.9534891 -3.0241604 1.8061392
2.9693635 -3.02423 1.7901887
2.9579017 -3.019989 1.7950745
2.9598205 -3.013634 1.7876524
2.9753292 -3.0163653 1.8063589
2.9846985 -2.9966514 1.7944624
2.9879985 -2.9974174 1.8064991
2.9952681 -2.9987059 1.7951891
2.9837971 -2.9839725 1.8033496
3.134306 -3.1329858 1.7433311
3.1435926 -3.1211402 1.7338277
3.1473289 -3.1176481 1.7401382
3.1351085 -3.1098404 1.7465677
3.1477678 -3.1043305 1.7352241
3.1529987 -3.1075225 1.7370154
3.1569302 -3.1055505 1.7343806
3.1689591 -3.0844779 1.7468342
3.1730187 -3.0803289 1.7338477
3.1657619 -3.0918388 1.7514372
3.1666594 -3.0726535 1.7320957
3.1826792 -3.0685477 1.7402411
3.1891894 -3.0650661 1.7475137
3.182004 -3.0581586 1.7382232
3.1812418 -3.0629399 1.7500658
3.1891298 -3.0668321 1.7343335
3.1988029 -3.0511284 1.736184
3.2058351 -3.0477252 1.7347122
3.2053144 -3.0445862 1.7329881
3.2118013 -3.0330212 1.735347
3.2158713 -3.0448699 1.732478
3.2205935 -3.0250039 1.7492955
3.2334549 -3.0229263 1.7451694
3.2335825 -3.012327 1.7435195
3.2244134 -3.0267763 1.732651
3.2270808 -3.0176177 1.7334472
3.2340095 -3.0030603 1.7454979
3.2427824 -3.0057387 1.7364966
3.2500772 -2.9931993 1.746173
3.2556417 -2.9984286 1.7429473
3.2635586 -2.9838369 1.7433999
3.4100003 -3.1190152 1.6840928
3.412035 -3.1151221 1.677525
4.4022799 -4.0243077 1.2910378
1.4558687 -4.9872165 1.5627413
1.4661132 -4.9886479 1.5587008
1.4025999 -4.7893891 1.6110641
1.4233216 -4.8045416 1.6046408
1.4308434 -4.7900195 1.6027797
1.4282074 -4.7946734 1.6079245
1.442124 -4.799027 1.6038963
1.446068 -4.7837234 1.6215718
1.4465611 -4.7964463 1.6044877
1.4604775 -4.7885828 1.6209987
1.4572312 -4.7906351 1.6119
1.4214859 -4.6051354 1.6730951
1.4176081 -4.6006193 1.6728176
1.4323505 -4.6020861 1.6754284
1.4406669 -4.5827322 1.6705924
1.4471194 -4.5927134 1.6591243
1.4387138 -4.5954738 1.661315
1.4462771 -4.5809832 1.6568122
1.4515132 -4.59269 1.6575801
1.4596624 -4.5771685 1.664196
1.4058406 -4.3880234 1.7204753
1.4211402 -4.3887734 1.7222046
1.4238918 -4.3998237 1.7264849
1.4263631 -4.3825512 1.7273246
1.4314424 -4.383379 1.725535
1.4516829 -4.3841686 1.7117726
1.4404525 -4.3797746 1.7132487
1.4514098 -4.3742256 1.7272054
1.4578618 -4.3698463 1.7274363
1.4650788 -4.3837209 1.7211612
1.4178728 -4.1966176 1.7721806
1.4139838 -4.1831613 1.7667453
1.4318213 -4.1930914 1.7682873
1.4339366 -4.1866865 1.7651207
1.4368887 -4.181335 1.7791367
1.4380484 -4.1818733 1.770365
1.4454428 -4.179769 1.7639805
1.4543107 -4.172832 1.7811296
1.4571323 -4.185565 1.780634
1.4601821 -4.1771998 1.7642317
1.4769539 -4.1811209 1.7701716
1.4071667 -3.9930279 1.8213443
1.4155228 -3.994803 1.8268737
1.4254181 -3.9803162 1.8368278
1.4321442 -3.9887273 1.8301446
1.4328833 -3.9818263 1.8209265
1.4448481 -3.9733756 1.8318073
1.4504255 -3.9818988 1.8276117
1.4531492 -3.9734395 1.8286617
1.4553745 -3.9677668 1.8360474
1.4611946 -3.9711556 1.8374745
1.4729519 -3.966327 1.8231876
1.4821385 -3.9587164 1.825161
1.4099804 -3.7861156 1.8733891
1.4143927 -3.7731171 1.8774854
1.4321191 -3.7849452 1.8864948
1.4206246 -3.7703722 1.881959
1.440008 -3.7757819 1.8868961
1.4351932 -3.7840259 1.8782812
1.4514256 -3.7755995 1.87332
1.4550407 -3.7669051 1.8829429
1.4600801 -3.7720025 1.8753597
1.4708301 -3.7734599 1.8733447
1.4635503 -3.7657475 1.8812143
1.4707557 -3.7589114 1.880118
1.4820545 -3.7596345 1.8852217
1.4122201 -3.5777128 1.9366598
1.4277362 -3.5812085 1.9269611
1.4281868 -3.5747967 1.9270245
1.4200196 -3.5774279 1.9335128
1.4268885 -3.5617158 1.9266871
1.4433774 -3.5662341 1.9327477
1.4522804 -3.565269 1.9353276
1.4391656 -3.5568471 1.9435891
1.4539175 -3.5664811 1.9366486
1.4675704 -3.5700746 1.9269394
1.4663242 -3.5586178 1.9376764
1.4627728 -3.5566473 1.9429559
1.46952 -3.5592253 1.9326777
1.4763275 -3.5549669 1.9377925
1.4896207 -3.5488334 1.9366361
1.4222038 -3.3732877 1.9827119
1.4144777 -3.3718445 1.9940156
1.4293288 -3.3685019 1.9917368
1.4324386 -3.3553903 1.9978131
1.4286052 -3.353606 1.9982783
1.4350597 -3.3580451 1.988175
1.4322485 -3.3510098 1.9980106
1.4547138 -3.3621993 1.9832294
1.4468985 -3.3515499 1.9906608
1.4641949 -3.3525732 1.982173
1.4603322 -3.3520951 1.9892571
1.4688021 -3.3440549 1.995821
1.4685727 -3.3458726 1.9837577
1.4660618 -3.3492868 1.9828297
1.4696243 -3.341238 1.9817029
1.4936491 -3.3314357 1.9941475
1.4875678 -3.3291426 1.9916312
1.4913192 -3.3290792 1.9959227
1.5002865 -3.3415239 1.9888544
1.4966822 -3.3413615 1.998747
1.5045872 -3.3297489 1.9870952
1.5195735 -3.3343501 1.981455
1.5211208 -3.3238621 1.9919614
1.5306017 -3.3205631 1.9970117
1.5191518 -3.3183773 1.9880619
1.5265721 -3.316839 1.9868596
1.5264341 -3.326052 1.9858887
1.5437766 -3.3161805 1.9829131
1.5454078 -3.3220055 1.9854183
1.5399677 -3.3160961 1.9860045
1.544417 -3.3069396 1.9961158
1.5572118 -3.3074522 1.9795315
1.5643631 -3.31107 1.9913346
1.5620179 -3.3098559 1.9843293
1.5647199 -3.3047385 1.9973962
1.5784693 -3.2968442 1.9898812
1.5910131 -3.2937284 1.9910264
1.5825831 -3.2979078 1.97991
1.5911744 -3.2850904 1.9808288
1.6022676 -3.2823451 1.9855109
1.5939442 -3.2797787 1.9971969
1.5957288 -3.2890432 1.9862112
1.600926 -3.275779 1.9894422
1.6179233 -3.2894795 1.9917152
1.627912 -3.2850945 1.9969271
1.6309648 -3.2715738 1.9878485
1.6264992 -3.2701197 1.9796941
1.6231756 -3.2617028 1.9851627
1.6287326 -3.2692993 1.9812443
1.635205 -3.2704034 1.9978607
1.6463566 -3.2644293 1.9948262
1.6491909 -3.2612655 1.9803036
1.6610363 -3.2574966 1.9968153
1.6561095 -3.2613192 1.9973902
1.6734524 -3.2597387 1.9801072
1.6760039 -3.2596881 1.9940956
1.6694738 -3.2486825 1.9872826
1.674786 -3.2455769 1.9866244
1.6855634 -3.2414873 1.9961014
1.6924193 -3.2354951 1.9821993
1.6958882 -3.2429183 1.9919902
1.6963195 -3.2320709 1.9826573
1.7022247 -3.2339385 1.9947994
1.7046386 -3.2252898 1.9808184
1.7076238 -3.2238526 1.9861114
1.7133228 -3.2244143 1.9891418
1.7130069 -3.2360539 1.9808584
1.7258747 -3.2269256 1.9933549
1.7180808 -3.2315609 1.9876088
1.7397606 -3.2138782 1.9855162
1.727535 -3.2172611 1.9936557
1.745097 -3.2247438 1.9902915
1.7533226 -3.2108495 1.9827023
1.7536869 -3.2190659 1.9813977
1.7600669 -3.2088184 1.9791603
1.7517364 -3.1973901 1.9939846
1.766433 -3.2107923 1.9947865
1.7728428 -3.1958385 1.9823276
1.7717456 -3.1931863 1.9828382
1.7848988 -3.1933594 1.9986296
1.775956 -3.1902592 1.9886303
1.7951493 -3.1940951 1.9887338
1.790975 -3.1942003 1.9803112
1.7992078 -3.1784322 1.9812454
1.8061327 -3.1807723 1.9899938
1.8108166 -3.1759272 1.9877313
1.8103215 -3.1808667 1.9896207
1.8106246 -3.1838741 1.9840122
1.8184654 -3.1724532 1.9985976
1.8268131 -3.1723497 1.9905455
1.8309488 -3.1656563 1.9831228
1.8250817 -3.1642334 1.9893873
1.8393146 -3.1714458 1.9930634
1.8451211 -3.154882 1.9900181
1.8518584 -3.1558471 1.9821372
1.8473406 -3.1565781 1.9965993
1.8605566 -3.162251 1.983614
1.8556584 -3.1520638 1.9851068
1.8651482 -3.1384754 1.9955002
1.8692198 -3.1409752 1.9834704
1.8652356 -3.1437719 1.9956012
1.8738251 -3.1368647 1.9866154
1.8886753 -3.1401501 1.9878721
1.8871981 -3.1420507 1.9831411
1.882672 -3.1416326 1.9948875
1.8902612 -3.1301467 1.9833388
1.8923091 -3.1298563 1.9835473
1.9013678 -3.1188715 1.9913669
1.9119155 -3.1228008 1.9901924
1.9128532 -3.1270592 1.9839298
1.9217572 -3.1196983 1.9922757
1.9227884 -3.1081412 1.984928
1.91483 -3.1061234 1.991688
1.9281245 -3.1099687 1.9939344
1.9366844 -3.1027222 1.9939798
1.9369868 -3.1122651 1.9828856
1.9457369 -3.104135 1.9894506
1.9546916 -3.0913177 1.9843627
1.9514623 -3.09232 1.9927018
1.9470546 -3.0967484 1.9941329
1.9563805 -3.096633 1.9802688
1.9540485 -3.079843 1.9952999
1.964365 -3.0753641 1.9896809
1.9614378 -3.0819397 1.9975425
1.9807532 -3.0843008 1.9899703
1.98011 -3.0707009 1.990169
1.9883689 -3.0726888 1.9958054
1.9831889 -3.070056 1.9915607
1.9929171 -3.0749829 1.9836092
1.9909805 -3.0686438 1.9885188
2.0104711 -3.0573015 1.9908272
1.996094 -3.0526102 1.987203
2.0167439 -3.0619175 1.985329
2.011771 -3.0584633 1.9941448
2.0146556 -3.0600014 1.9978588
2.0299644 -3.0464861 1.9924259
2.0254679 -3.0490119 1.9822525
2.0266035 -3.0410137 1.9919533
2.0434906 -3.0475795 1.9939624
2.0324225 -3.04037 1.9795398
2.0462599 -3.0379543 1.9936827
2.0424018 -3.0341964 1.9897342
2.0549154 -3.034065 1.9936897
2.0655513 -3.0231795 1.9983046
2.0649986 -3.0136783 1.9985809
2.068156 -3.0131333 1.9895658
2.0658767 -3.0213459 1.9952126
2.07342 -3.0126796 1.9860388
2.0706599 -3.0113795 1.9874749
2.0899048 -3.0053968 1.9932899
2.0947232 -3.0098221 1.9986844
2.0936804 -3.0023468 1.9849945
2.088685 -3.0065951 1.9885876
2.1076412 -3.0044413 1.980212
2.1112082 -2.9870694 1.9984777
2.1150472 -2.9907653 1.9944224
2.2204492 -3.1387074 1.9255424
2.221132 -3.1454239 1.9361911
2.2326367 -3.1391134 1.9252561
2.2255733 -3.1377671 1.9374144
2.2443204 -3.1358073 1.9422519
2.2484579 -3.1390913 1.9316634
2.2389009 -3.1315677 1.9339194
2.2529325 -3.1292808 1.9354162
2.2585845 -3.1276157 1.9313662
2.2624974 -3.1262963 1.9406954
2.262351 -3.1143374 1.9368973
2.2670605 -3.1060925 1.9432918
2.2824142 -3.1107349 1.9328996
2.2868285 -3.1068294 1.9407504
2.2833967 -3.1085601 1.9274515
2.2847979 -3.090533 1.927753
2.2956064 -3.0864377 1.9324565
2.2886662 -3.0926814 1.9363191
2.3032186 -3.0976398 1.9387128
2.3137162 -3.0830469 1.9392861
2.3135388 -3.072958 1.9286722
2.3095586 -3.0825131 1.9431511
2.3119686 -3.081063 1.929829
2.3239818 -3.0795431 1.9372483
2.3238411 -3.0657949 1.9397664
2.3303971 -3.0749812 1.9371352
2.3372502 -3.0576899 1.9354167
2.3488023 -3.0516655 1.9442658
2.3442125 -3.0554111 1.9449621
2.3420117 -3.0529768 1.9370506
2.3603797 -3.0550332 1.9360211
2.3481293 -3.0453784 1.9422239
2.350353 -3.0376182 1.9266579
2.3592503 -3.0421448 1.9293871
2.3755622 -3.0311069 1.9426336
2.3743875 -3.0378041 1.9434572
2.3705771 -3.0219345 1.9383293
2.3850436 -3.0187945 1.935977
2.3883548 -3.0245216 1.9266242
2.3923573 -3.0167222 1.9364452
2.3884437 -3.014823 1.9409431
2.403496 -3.0094378 1.931823
2.4047465 -3.0060878 1.9271845
2.4104264 -2.998095 1.9347351
2.4188306 -2.9980404 1.9300327
2.4204767 -3.0034056 1.9353368
2.4229419 -2.9968216 1.9332082
2.4202743 -3.0000076 1.9309112
2.5561473 -3.1340997 1.8858323
2.5619745 -3.1382611 1.8789732
2.5576177 -3.130558 1.8906873
2.557754 -3.13202 1.8844548
2.5687652 -3.1164439 1.8782344
2.5751328 -3.1193962 1.8766629
2.569046 -3.1181476 1.8717965
2.5782518 -3.1194513 1.8782094
2.5927567 -3.102484 1.8878448
2.5851281 -3.1123734 1.8909271
2.5951972 -3.1114719 1.8865302
2.5939231 -3.1091323 1.8744239
2.6057847 -3.0955336 1.8864666
2.6093554 -3.0861781 1.8734874
2.6066887 -3.0901856 1.8725177
2.6177962 -3.0921948 1.8850236
2.6273272 -3.084655 1.8751996
2.6319869 -3.0722687 1.8804872
2.623054 -3.0697317 1.8791517
2.6237519 -3.0791728 1.8843299
2.6275265 -3.0628889 1.8868068
2.6468995 -3.0722184 1.8880144
2.6541607 -3.0540206 1.8792057
2.6534598 -3.056581 1.8761317
2.6597743 -3.0461326 1.8854231
2.6651142 -3.0488954 1.8890722
2.6629546 -3.0464413 1.876622
2.6709659 -3.0436366 1.8729129
2.6642599 -3.0340683 1.8880894
2.6762128 -3.028101 1.8901677
2.6733391 -3.0226526 1.8848667
2.6729369 -3.02212 1.886567
2.693737 -3.0186093 1.8827901
2.6857235 -3.0200779 1.8727715
2.6946304 -3.019505 1.8895143
2.6928236 -3.0178604 1.879801
2.6946607 -3.0026381 1.8888427
2.7040422 -3.0036621 1.8769841
2.7097094 -2.9956446 1.8909829
2.7105479 -2.9999216 1.8872318
2.7134595 -2.9913144 1.8852063
2.8603456 -3.1301694 1.8262444
2.8598452 -3.1294522 1.8207988
2.8555622 -3.120975 1.8301438
2.8612552 -3.1278117 1.8363152
2.8636851 -3.120671 1.8203788
2.8763964 -3.1159039 1.8359064
2.8781438 -3.1059604 1.8266459
2.8880272 -3.0945497 1.8216326
2.8919034 -3.1064954 1.8285666
2.8920231 -3.099719 1.8203257
2.8901117 -3.0995219 1.8322654
2.9029729 -3.0842032 1.8209481
2.9103832 -3.0775402 1.8341278
2.9071326 -3.0895514 1.8364844
2.910048 -3.0834944 1.8219892
2.917021 -3.069082 1.8282626
2.9195163 -3.0772727 1.8204747
2.9327452 -3.0599248 1.8200868
2.9409552 -3.06304 1.8237363
2.9360933 -3.0503693 1.8301392
2.9429851 -3.0439379 1.8327105
2.9418108 -3.0489678 1.8265654
2.9493134 -3.0509043 1.8230423
2.94999 -3.0404022 1.8234607
2.9530175 -3.0312905 1.8258834
2.961544 -3.0395057 1.8186592
2.9763381 -3.0295198 1.8191793
2.9633386 -3.0305934 1.8329761
2.9699454 -3.0277398 1.8195804
2.980196 -3.0140252 1.8347726
2.9768436 -3.0176904 1.8323069
2.9960568 -3.0067956 1.8207165
2.9891191 -2.9926584 1.8230886
2.9986525 -3.0020986 1.8318558
3.0085983 -2.9927602 1.8256217
3.1370642 -3.1354754 1.7733134
3.1423872 -3.1311059 1.7806066
3.1482241 -3.1239672 1.7826955
3.1478519 -3.1144466 1.7835014
3.1540778 -3.0988953 1.7738793
3.1554894 -3.1109102 1.7764437
3.1744297 -3.1079197 1.7657486
3.161773 -3.0960693 1.7650307
3.1714826 -3.098882 1.7707065
3.1699529 -3.0959389 1.781549
3.182183 -3.0848181 1.7818358
3.1958392 -3.0727434 1.7821183
3.1967824 -3.0791948 1.76516
3.1998081 -3.0703754 1.7733359
3.2036335 -3.0596812 1.7726711
3.1978307 -3.0519195 1.7755935
3.214586 -3.0495565 1.7771021
3.2206402 -3.0441823 1.7660509
3.22597 -3.0534251 1.7677709
3.2169695 -3.0485175 1.7680113
3.2188051 -3.0356934 1.7749442
3.2409213 -3.0335214 1.7695173
3.2433136 -3.0347075 1.7731987
3.2487414 -3.0171633 1.781253
3.2423387 -3.0200827 1.7755492
3.255265 -3.0130877 1.7731487
3.2511075 -3.0136144 1.7686466
3.2484519 -3.0123572 1.7650484
3.254739 -3.0100346 1.7677311
3.2627399 -3.0009706 1.7708391
3.2709746 -2.9943228 1.7822828
1.4096754 -4.8048167 1.6501688
1.421984 -4.8135486 1.6399502
1.4310443 -4.8033223 1.6483084
1.4315534 -4.7991381 1.6525956
1.4462168 -4.806932 1.6545323
1.4413501 -4.8051033 1.6476018
1.4550824 -4.7945924 1.6434573
1.4586039 -4.7873116 1.6457951
1.4005798 -4.604723 1.7020886
1.4114763 -4.6048303 1.6974821
1.4318113 -4.5960517 1.7114532
1.4290285 -4.6016822 1.6947289
1.4360243 -4.6049676 1.7062578
1.4513756 -4.5944562 1.6999892
1.4510113 -4.5959907 1.7039348
1.4525809 -4.5890985 1.7077082
1.4672172 -4.5951781 1.6999825
1.4193662 -4.4004316 1.749849
1.4119333 -4.3984718 1.7632197
1.42846 -4.4120531 1.7545234
1.4203775 -4.3917341 1.7526366
1.4262633 -4.400631 1.763141
1.4354219 -4.3889613 1.7483732
1.4561068 -4.3883677 1.762121
1.4505203 -4.3945618 1.7523292
1.4688765 -4.3856082 1.7474157
1.4710033 -4.3884363 1.7543999
1.4044983 -4.2040191 1.8024241
1.4161735 -4.1964478 1.7981182
1.4212165 -4.198504 1.7982632
1.4375606 -4.1947932 1.7967503
1.4320149 -4.1913452 1.8043557
1.4369711 -4.1848831 1.8016371
1.4471567 -4.1838789 1.79751
1.4510871 -4.1946011 1.8051778
1.4652231 -4.1931043 1.7997799
1.4544427 -4.1756144 1.8095257
1.4706436 -4.189857 1.7984799
1.4188257 -3.9960821 1.8653761
1.4261539 -4.0054388 1.8559171
1.4136243 -4.0043187 1.8681924
1.419579 -3.9946094 1.8619317
1.4331365 -3.985806 1.86014
1.4439725 -3.992676 1.8573514
1.4506787 -3.9814723 1.8618317
1.4450498 -3.981986 1.8657918
1.4540203 -3.9791312 1.8652165
1.4527338 -3.9859233 1.8683643
1.4603986 -3.9866695 1.8610299
1.4826257 -3.9856753 1.8623778
1.4086379 -3.8016732 1.915208
1.4134227 -3.7985148 1.90344
1.4319441 -3.7873793 1.9184912
1.428671 -3.7909849 1.9046804
1.4426067 -3.7934589 1.9200734
1.4410198 -3.7871335 1.9129448
1.4433903 -3.7774065 1.9066558
1.4451826 -3.7745321 1.9115514
1.45012 -3.769556 1.9136699
1.46772 -3.7679133 1.9147438
1.4666651 -3.779063 1.9166504
1.4661065 -3.7707298 1.9197544
1.4737772 -3.7691743 1.9120256
1.4064668 -3.5963068 1.9710463
1.4151211 -3.5947766 1.973279
1.4191655 -3.5801249 1.9598465
1.4160787 -3.5883908 1.954143
1.4267001 -3.5801501 1.9693086
1.4422144 -3.5722549 1.9674374
1.4398444 -3.5720398 1.9651887
1.4385455 -3.5781567 1.9697628
1.4591503 -3.5701067 1.9606354
1.4628563 -3.5796573 1.9710212
1.4588307 -3.5717578 1.9723434
1.4614921 -3.5602186 1.9732367
1.4663832 -3.5696471 1.9668158
1.477839 -3.5671716 1.9701558
1.4835886 -3.5590813 1.9597564
1.4845008 -3.5604804 1.9552652
1.4835389 -3.5492506 1.968995
1.5003253 -3.5443177 1.9546068
1.5016831 -3.5437756 1.9662608
1.5139105 -3.5445199 1.9663489
1.5165209 -3.5542796 1.9723148
1.5204504 -3.5463648 1.9677907
1.5252702 -3.538543 1.9718024
1.5236663 -3.5442467 1.9562465
1.5253994 -3.5291793 1.9667311
1.5367303 -3.5381753 1.9537598
1.5435667 -3.5331059 1.9699546
1.5441301 -3.5362196 1.9690114
1.5503023 -3.5229428 1.9665329
1.5481254 -3.5224023 1.9612254
1.5660336 -3.5242128 1.9640667
1.5699048 -3.5270517 1.9727243
1.5692489 -3.5300262 1.9670982
1.5726014 -3.5195568 1.9536561
1.5803951 -3.5123036 1.9731621
1.5786704 -3.518666 1.9615458
1.5839714 -3.5031352 1.9728659
1.585464 -3.5119817 1.9589323
1.6060104 -3.4995935 1.9561286
1.6040752 -3.5143168 1.9717115
1.6168294 -3.496063 1.9633234
1.6124218 -3.4988666 1.9699286
1.6166686 -3.5072513 1.971385
1.6152862 -3.497206 1.9611294
1.6204585 -3.5042863 1.9559387
1.6251336 -3.4980075 1.9621905
1.6381893 -3.4913411 1.9617709
1.642562 -3.4880922 1.9702959
1.6529979 -3.4892037 1.9689934
1.6606268 -3.4771547 1.9707453
1.6638355 -3.4772522 1.9685214
1.6586528 -3.486655 1.9612576
1.6600722 -3.4767056 1.9633659
1.6629447 -3.4730301 1.9732695
1.6755582 -3.4690707 1.953836
1.682978 -3.4653213 1.9584177
1.6966462 -3.4733982 1.9673952
1.6898916 -3.4619813 1.9573443
1.6916587 -3.4650042 1.9638978
1.6921201 -3.4652708 1.9602094
1.7143298 -3.4671977 1.9541259
1.7143126 -3.4591734 1.9563348
1.707028 -3.4545929 1.9661819
1.7218486 -3.4519994 1.9573861
1.7265694 -3.4416487 1.9702251
1.7318534 -3.4487314 1.9644816
1.7417156 -3.4469957 1.9683228
1.7405518 -3.4368615 1.9612355
1.7493341 -3.4298034 1.9687732
1.7446662 -3.427124 1.9536856
1.7563068 -3.4270716 1.9543054
1.7618603 -3.43187 1.960577
1.7696193 -3.4287829 1.96905
1.767222 -3.4357023 1.9577308
1.7760257 -3.4227242 1.9543695
1.7776647 -3.4292824 1.9615263
1.7935568 -3.4107955 1.9680126
1.7932866 -3.4182854 1.9622203
1.7859256 -3.4218032 1.9610667
1.8060991 -3.4147956 1.9601661
1.8111813 -3.4009509 1.956885
1.8168799 -3.4063525 1.9663658
1.8088465 -3.4087915 1.9564872
1.8092827 -3.398421 1.9572362
1.818396 -3.4040368 1.9685032
1.8241446 -3.3927996 1.9707454
1.8370464 -3.3904531 1.9690017
1.8364309 -3.3931563 1.9572879
1.8500197 -3.387996 1.9595697
1.8424512 -3.387435 1.9663659
1.8539785 -3.3865604 1.964507
1.8622212 -3.384753 1.9547398
1.8599411 -3.3757408 1.9600203
1.8677788 -3.3710508 1.9731513
1.8763617 -3.3820026 1.9581403
1.8762082 -3.3719568 1.9718332
1.8782933 -3.3737574 1.9653327
1.8786309 -3.3609178 1.9535828
1.8872511 -3.35923 1.9644399
1.8981495 -3.369848 1.9732982
1.8958404 -3.3536723 1.9604647
1.9116687 -3.3539836 1.9668658
1.8977261 -3.3613019 1.9596994
1.9090602 -3.3455052 1.9546368
1.9135218 -3.3458447 1.9560299
1.9229685 -3.3510535 1.9648691
1.9261045 -3.3388891 1.9693019
1.9227363 -3.3310955 1.9639618
1.9276143 -3.3393865 1.9576904
1.9433458 -3.34148 1.9581752
1.9479318 -3.33058 1.9722035
1.9396805 -3.3285453 1.9632814
1.9578264 -3.3251436 1.9643958
1.9488022 -3.3150938 1.9586549
1.9547117 -3.3252652 1.969916
1.9620104 -3.3106685 1.9733032
1.9781445 -3.3176112 1.9661832
1.9787076 -3.3125935 1.9641787
1.9739268 -3.3073654 1.9711986
1.9828706 -3.31107 1.9534339
1.9922954 -3.2948489 1.9638714
1.9957447 -3.2915354 1.9536391
1.990268 -3.2947288 1.9640982
2.0059018 -3.2915952 1.9618899
2.0157909 -3.2871971 1.9667864
2.016937 -3.2801418 1.9635494
2.0214665 -3.2815897 1.9706329
2.0188723 -3.2871084 1.959991
2.0342693 -3.2820377 1.9718275
2.0366826 -3.272649 1.9572033
2.041327 -3.2784579 1.9560375
2.0364051 -3.2654357 1.9554162
2.0412469 -3.2625046 1.9688259
2.0565438 -3.2685504 1.9625875
2.0496285 -3.2693136 1.9579586
2.0676055 -3.2535336 1.9575902
2.0623417 -3.2578228 1.9729726
2.0641575 -3.2493014 1.9600288
2.0753272 -3.2499738 1.9693415
2.0783293 -3.2528203 1.9652222
2.0867033 -3.2556055 1.9724673
2.0939076 -3.2478919 1.9699012
2.1004863 -3.2399116 1.9674264
2.1004708 -3.2412057 1.9560598
2.0942128 -3.2339828 1.9610772
2.1033216 -3.233346 1.959016
2.1120582 -3.2225323 1.9698001
2.116173 -3.2344584 1.9662341
2.1273398 -3.2197661 1.9591175
2.1278155 -3.226619 1.9662701
2.1241677 -3.2096412 1.9677467
2.1277609 -3.2099986 1.9540399
2.1287837 -3.2083123 1.9654099
2.1473274 -3.2111728 1.9725758
2.1545007 -3.2048187 1.9640487
2.146687 -3.1938784 1.9732361
2.1568081 -3.1987209 1.9703082
2.1577089 -3.2039633 1.9725193
2.1550398 -3.2025495 1.9664811
2.1652496 -3.1851671 1.9706426
2.1826079 -3.1959348 1.9688277
2.1814387 -3.187608 1.9636953
2.1865585 -3.1827526 1.9572824
2.1830437 -3.1838436 1.9650363
2.1866908 -3.1822476 1.9561652
2.2018068 -3.1729469 1.9552488
2.2061055 -3.1780031 1.9664985
2.2074723 -3.1666317 1.9695079
2.2110457 -3.1623991 1.9709269
2.2085769 -3.1524217 1.966718
2.2102652 -3.1495469 1.9687245
2.2301342 -3.1522982 1.956035
2.2248666 -3.1543822 1.9651717
2.2331817 -3.1444292 1.9701821
2.2292464 -3.135273 1.9537469
2.2364357 -3.1354411 1.9635646
2.2427042 -3.1357458 1.9652723
2.2402182 -3.1391149 1.9552912
2.2607372 -3.1233377 1.9664762
2.2626705 -3.1344521 1.9645662
2.2603908 -3.1282969 1.9624523
2.260113 -3.1266866 1.9545022
2.2671416 -3.114754 1.9613771
2.2833023 -3.1189115 1.9551078
2.2844689 -3.1114058 1.9548911
2.289196 -3.1011076 1.9713969
2.2837365 -3.1089334 1.9644824
2.2999802 -3.1036336 1.9710768
2.2862382 -3.1021988 1.9703205
2.3036768 -3.10321 1.9553157
2.2992013 -3.0908759 1.963326
2.312607 -3.0831904 1.9698001
2.3180583 -3.0928426 1.9650546
2.31038 -3.0906961 1.9729929
2.3164277 -3.0717406 1.9652723
2.3222544 -3.0724111 1.9646792
2.3245823 -3.0828896 1.9730835
2.3399911 -3.0814688 1.9636046
2.34199 -3.0781298 1.9723718
2.3432279 -3.0616875 1.9569328
2.3494565 -3.0540516 1.9706268
2.3436906 -3.0573366 1.9687992
2.3643947 -3.0594923 1.9541062
2.3603482 -3.0536437 1.9583405
2.3642359 -3.0460603 1.9583051
2.3603981 -3.0369589 1.9543681
2.3759627 -3.0498333 1.9567151
2.3799269 -3.0315986 1.9572397
2.3744078 -3.0356598 1.957854
2.3776512 -3.0227735 1.9716554
2.3854508 -3.0279446 1.9698311
2.38694 -3.0231626 1.9614545
2.4065969 -3.0219536 1.9676492
2.411556 -3.029063 1.9564131
2.4007449 -3.0165524 1.9694753
2.4098935 -3.0121427 1.9683477
2.4151006 -3.0164268 1.9710484
2.4226501 -3.0010004 1.968681
2.4307191 -2.9953425 1.9589432
2.4193981 -2.9906857 1.9587768
2.4418736 -3.0024693 1.9701185
2.4425199 -2.996999 1.9629152
2.5563452 -3.1460514 1.901257
2.5750096 -3.1442518 1.901482
2.562433 -3.1374848 1.9108727
2.5829134 -3.1257854 1.9013228
2.5822613 -3.1330905 1.9041326
2.5843048 -3.1170535 1.9190066
2.583976 -3.1171496 1.9161702
2.5939043 -3.1127646 1.9146167
2.6036613 -3.1100969 1.9178998
2.6047549 -3.1109712 1.9032674
2.59864 -3.1037636 1.9061397
2.6031933 -3.1022797 1.9072443
2.6079662 -3.0977557 1.9115425
2.6221247 -3.0971291 1.9039607
2.6267283 -3.0815279 1.9054879
2.6341367 -3.0882511 1.9194605
2.6364138 -3.0796664 1.9097391
2.6358495 -3.0855112 1.9207988
2.6337266 -3.0659521 1.9109161
2.6548815 -3.0696473 1.916543
2.6413989 -3.0638003 1.9057552
2.6507835 -3.0577381 1.912823
2.6612678 -3.0512357 1.9207805
2.6560447 -3.0549026 1.9057242
2.6632349 -3.0582886 1.9026226
2.6719472 -3.0385835 1.9091452
2.6746268 -3.0409141 1.9205942
2.6875796 -3.0481162 1.9025338
2.6915872 -3.0417438 1.920362
2.6857066 -3.0385132 1.9108183
2.6854479 -3.0330572 1.903439
2.694396 -3.0225034 1.9184333
2.7104068 -3.0257473 1.9162354
2.7143698 -3.0184906 1.9066701
2.7032712 -3.0083151 1.9100124
2.7090657 -3.0136938 1.9093469
2.7213776 -3.000654 1.9026326
2.7251334 -2.9989169 1.9049916
2.7308233 -2.9974232 1.9099929
2.7343361 -2.9860554 1.9144886
2.7283001 -2.9991865 1.9206978
2.8648193 -3.1303527 1.8613818
2.8665867 -3.1268084 1.8673986
2.8861506 -3.1235251 1.8569123
2.8761437 -3.1155596 1.8528354
2.8894734 -3.1060133 1.8596082
2.8821321 -3.1083634 1.855643
2.8880708 -3.1111612 1.8496314
2.896363 -3.0924671 1.8613242
2.9096508 -3.0944529 1.8605894
2.9074285 -3.0866621 1.8629223
2.9114101 -3.0964739 1.8530302
2.9084008 -3.0888946 1.8626881
2.9114027 -3.0861213 1.8516287
2.9239125 -3.0777202 1.8645282
2.9323399 -3.0803483 1.8629613
2.9275343 -3.0746713 1.8550254
2.9387581 -3.0674038 1.8602668
2.9439642 -3.0561864 1.8601713
2.9408576 -3.0560179 1.8540531
2.9570105 -3.0624027 1.8516825
2.9554906 -3.0491319 1.8554509
2.9640727 -3.04319 1.8627435
2.962307 -3.0385602 1.848748
2.969476 -3.0457292 1.8590864
2.9695389 -3.0287733 1.8627234
2.968029 -3.0209205 1.8679581
2.9785776 -3.0261354 1.856375
2.9943616 -3.0304298 1.851918
2.9900446 -3.0221109 1.8635322
2.9996033 -3.0219135 1.8646581
3.0067859 -3.0075047 1.8549459
2.9977307 -3.0087767 1.8670604
3.0159626 -2.9960713 1.8596835
3.0201929 -3.0004485 1.8610106
3.0147557 -2.9890082 1.8551601
3.1497078 -3.1195481 1.8006927
3.1533208 -3.127352 1.8091965
3.1653445 -3.1236 1.809255
3.1729052 -3.1083872 1.8134758
3.1720736 -3.1078322 1.8137313
3.1723621 -3.1043053 1.8042272
3.1829321 -3.094038 1.8092767
3.1856105 -3.0897384 1.8028512
3.1809058 -3.0854013 1.8078625
3.1975219 -3.0906887 1.800122
3.2082813 -3.0819635 1.8138742
3.1968982 -3.0739911 1.8154277
3.2140126 -3.0783544 1.8163323
3.2111795 -3.0595107 1.8080428
3.2125607 -3.0658455 1.8158953
3.2141912 -3.0562329 1.8028556
3.2263114 -3.0603855 1.8156579
3.2234747 -3.0461881 1.8083286
3.2342064 -3.0410185 1.800899
3.229943 -3.0435491 1.8037387
3.2379329 -3.0396302 1.8108543
3.2396686 -3.0313985 1.8014868
3.2429516 -3.0303502 1.8032948
3.247133 -3.0164268 1.799479
3.2630184 -3.0254073 1.804855
3.2667499 -3.0170364 1.8153641
3.2574353 -3.0008183 1.7972354
3.2809167 -3.0117033 1.8088125
3.2770627 -2.9961169 1.8010622
3.2857726 -2.989048 1.8062781
1.416016 -4.8207216 1.6833203
1.4284816 -4.8166952 1.6776649
1.4355549 -4.8183784 1.6895573
1.4333898 -4.8110371 1.6929126
1.4409608 -4.8116045 1.6883411
1.4537257 -4.8132896 1.687984
1.4568183 -4.8002329 1.6761289
1.4554359 -4.7968421 1.6945461
1.4141351 -4.6102867 1.7357115
1.4263613 -4.6138196 1.7456625
1.4203819 -4.6214385 1.733147
1.4340478 -4.603323 1.7426912
1.4420555 -4.6048617 1.7285749
1.4419528 -4.6152916 1.7398144
1.4452026 -4.6048727 1.7284907
1.4638782 -4.6084085 1.733477
1.4621937 -4.5955691 1.729506
1.4101974 -4.4064608 1.7978213
1.414812 -4.4136791 1.7946548
1.4296702 -4.4151216 1.7859919
1.4344767 -4.4089913 1.7877371
1.4467651 -4.4156404 1.7856162
1.4485948 -4.4007235 1.7799652
1.4563055 -4.4123492 1.7818847
1.4552528 -4.4071612 1.7922143
1.4628736 -4.3897319 1.7969899
1.4754779 -4.4004183 1.7925783
1.4230862 -4.2075438 1.8417928
1.4288539 -4.1998396 1.8309071
1.4314525 -4.2034421 1.8366071
1.4253855 -4.2084012 1.8464572
1.4410608 -4.207232 1.8476696
1.4346123 -4.2103906 1.841801
1.44251 -4.1919928 1.8423009
1.4523245 -4.2007995 1.8459737
1.4524658 -4.1881342 1.8450526
1.4573799 -4.1890106 1.8314134
1.4778795 -4.1873999 1.8450772
1.4128382 -4.0033331 1.8954005
1.420487 -4.0052109 1.8892304
1.4338334 -3.9990349 1.896121
1.4370269 -4.0030599 1.8821924
1.44143 -3.9994066 1.8831087
1.4399618 -3.9937263 1.8804181
1.4389907 -4.0040994 1.8869077
1.4616897 -4.0001965 1.8840413
1.4634647 -3.9972415 1.8982692
1.4715977 -3.9796464 1.8920702
1.4733915 -3.9891155 1.8853198
1.474587 -3.9765346 1.894727
1.4227259 -3.7947268 1.9392568
1.4243829 -3.7968891 1.9468625
1.4321084 -3.8002393 1.9361331
1.4207476 -3.7906461 1.9490882
1.4266933 -3.7876091 1.9496664
1.4391258 -3.7874558 1.9321359
1.4486892 -3.7911074 1.9355409
