# .PCD v0.7 - Point Cloud Data file format
VERSION 0.7
FIELDS x y z
SIZE 4 4 4
TYPE F F F
COUNT 1 1 1
WIDTH 1578
HEIGHT 1
VIEWPOINT 0 0 0 1 0 0 0
POINTS 1578
DATA ascii
4.5749798 2.6121776 1.085098
4.5794101 2.6069496 1.0764397
4.5663157 2.6240332 1.0765071
4.5641217 2.619704 1.0783331
4.561965 2.6262197 1.0743322
4.5576091 2.629601 1.0757942
4.5637612 2.6403933 1.0787585
4.556921 2.6566584 1.0709054
4.5479217 2.6493814 1.0834657
4.5374045 2.6535568 1.0789031
4.5481458 2.6649444 1.0750947
4.5425677 2.6843865 1.0796803
4.5283232 2.6743667 1.0749762
4.5341368 2.6857948 1.0795751
4.5217676 2.6987166 1.0843267
4.5253887 2.710942 1.086102
4.5304632 2.7129874 1.072317
4.5184932 2.71187 1.0684496
4.518661 2.7254391 1.0709628
4.5113807 2.7321858 1.0713145
4.4995289 2.733377 1.0767217
4.5038595 2.7327027 1.0752442
4.4927673 2.7415049 1.0774252
4.4969625 2.759851 1.084718
4.3257341 2.6514366 1.1476586
4.3193994 2.6682978 1.1474814
4.3148313 2.67399 1.1430491
4.3164697 2.6714773 1.1512039
4.3142328 2.6929071 1.1466374
4.3145003 2.6908393 1.1425328
4.3151112 2.7007113 1.1533399
4.3011208 2.6987147 1.1371984
4.305645 2.7094352 1.1435902
4.2923412 2.7081687 1.1420642
4.2863226 2.7195139 1.1439956
4.2941985 2.7282226 1.1367586
4.281889 2.7360699 1.1491891
4.2851391 2.7292709 1.153088
4.276535 2.7439582 1.1524024
4.2833567 2.742645 1.14364
4.2660656 2.745683 1.1387461
4.259573 2.7584789 1.1458573
4.2569304 2.7595558 1.1376959
4.2606716 2.7710946 1.1422801
4.2628784 2.7803876 1.1522269
4.2470083 2.7813389 1.1449051
4.2438931 2.793771 1.1394587
4.2332001 2.7932515 1.1412464
4.2463975 2.8079352 1.1517602
4.2389011 2.8132558 1.1550046
4.2226343 2.8051085 1.1553361
4.2214656 2.8143003 1.1425183
4.2273993 2.8246899 1.1448373
4.2251639 2.822669 1.1527603
4.2075043 2.8467116 1.1440474
4.2197833 2.8387492 1.1503618
4.2047319 2.8515444 1.1431899
4.048902 2.7521322 1.2186227
4.0503235 2.7549863 1.2137945
4.0422506 2.7542422 1.2083845
4.0374141 2.7611375 1.2089306
4.0329013 2.7707784 1.2127773
4.035563 2.7702761 1.2211277
4.0205359 2.7914691 1.221577
4.0134239 2.7989416 1.2201942
4.017591 2.8026402 1.2249796
4.0080652 2.7952435 1.2166965
4.0113592 2.8113046 1.208539
4.0010409 2.8126113 1.2175996
4.005887 2.8096778 1.2202857
4.0053153 2.8257482 1.2242419
3.9852817 2.8211539 1.2122191
3.9890871 2.8430772 1.2140797
3.981235 2.833837 1.2115242
3.9738247 2.8413565 1.2108377
3.9850237 2.8569224 1.2082517
3.9810007 2.8468494 1.212676
3.9686866 2.8639655 1.2075742
3.9682071 2.8746662 1.2181975
3.9567809 2.8741233 1.2203108
3.9680328 2.8769271 1.2129235
3.9632332 2.8836234 1.2153766
3.9464033 2.8980587 1.214193
3.9514263 2.8885837 1.2182149
3.9338861 2.8956475 1.224207
3.9356515 2.8978677 1.2202219
3.9348235 2.9200292 1.2206259
3.938412 2.9138491 1.2126136
3.9168913 2.93117 1.2097753
3.9259861 2.9210525 1.2208731
3.9171865 2.9261823 1.209259
3.9209921 2.9305158 1.2188312
3.9072433 2.9420304 1.2173342
3.912303 2.9425864 1.2208635
3.901377 2.9496286 1.2059635
3.7469194 2.8489859 1.2768334
3.7381439 2.8448324 1.2753457
3.7497652 2.8483169 1.2822016
3.733367 2.8543379 1.280908
3.7341232 2.8735182 1.2840319
3.72597 2.8679714 1.2868264
3.7261953 2.8703101 1.288501
3.7159855 2.8829873 1.2762424
3.7242715 2.8848195 1.2790978
3.7160797 2.8998284 1.2835592
3.7129807 2.8940065 1.2754316
3.7117071 2.9033682 1.2779344
3.7089386 2.9083178 1.2787113
3.6930189 2.9208426 1.2803038
3.6957984 2.9181049 1.2758772
3.6816945 2.9312022 1.2807099
3.690378 2.9285204 1.2826927
3.6807289 2.9396317 1.2921699
3.6788139 2.9430389 1.2783023
3.6797476 2.9422715 1.274272
3.6651351 2.9424293 1.2792538
3.6623881 2.9653451 1.288437
3.6621368 2.9695313 1.2774152
3.6626554 2.9618435 1.2937691
3.6447592 2.9609885 1.2822422
3.6424294 2.9700899 1.2786747
3.6449251 2.9719422 1.2872934
3.6293964 2.9882202 1.2818971
3.643338 2.986665 1.2747872
3.623405 2.9901321 1.281795
3.6194346 3.003083 1.2838516
3.6204388 2.99739 1.2837206
3.6106193 3.0155561 1.2826779
3.6097708 3.018358 1.2888557
3.6052694 3.0273881 1.2890921
3.6092339 3.0182199 1.2933495
3.6096239 3.0356863 1.2743846
3.5986259 3.0417695 1.2866288
3.5822241 3.0459471 1.2922548
3.5787058 3.0543513 1.2762909
3.5821884 3.0429523 1.2882264
3.5877204 3.0567312 1.2894232
3.5731146 3.0648715 1.2837465
3.5774591 3.0563514 1.2758377
3.5679743 3.0675249 1.2919309
3.5587189 3.066865 1.293834
3.5537143 3.0908039 1.2881869
3.5497377 3.0879607 1.2836127
3.5579987 3.0929387 1.2782116
3.5518785 3.0986283 1.2762164
3.5497875 3.0920374 1.2778292
3.5396252 3.1152225 1.2882342
3.5306528 3.1080523 1.281799
3.5359967 3.1094844 1.2818687
3.5334251 3.1256964 1.288143
3.5269396 3.1169248 1.2887944
3.5223505 3.1274269 1.2884278
3.5121076 3.1382377 1.280267
3.4972837 3.1416018 1.2921393
3.4970517 3.1431451 1.2847624
3.4948177 3.1469033 1.2858615
3.49419 3.1448121 1.2852188
3.4839602 3.1580684 1.2924851
3.4872885 3.1609955 1.2762686
3.47068 3.1656842 1.2913554
3.4803388 3.1682281 1.2927678
3.4706421 3.1705301 1.2797856
3.4605722 3.1869431 1.2927238
3.4623349 3.1928928 1.2841417
3.4559629 3.2029784 1.2922243
3.4622073 3.1952045 1.279193
3.4495442 3.2111838 1.2792044
3.4362316 3.2013216 1.2876121
3.4301789 3.2191825 1.2740929
3.4279027 3.2248363 1.2804148
3.4407067 3.2245572 1.284439
3.4349165 3.2189965 1.2859298
3.4161372 3.227788 1.2790045
3.4102898 3.2427702 1.2932057
3.4158535 3.2358158 1.2926759
3.4094932 3.2395477 1.2795614
3.410095 3.2550654 1.277622
3.3907015 3.2617259 1.2810222
3.399709 3.2667952 1.2774913
3.3951907 3.2740574 1.2748284
3.3769879 3.2785988 1.2871071
3.3828027 3.2818322 1.289052
3.3701017 3.2707748 1.2750212
3.3704686 3.2783656 1.2912121
3.3650305 3.2960217 1.2756944
3.3590558 3.2918262 1.2791606
3.3599603 3.2927477 1.2934027
3.3589187 3.2987976 1.2895697
3.3412707 3.2983832 1.2860771
3.3400855 3.3179858 1.2851239
3.3362308 3.3239269 1.2839959
3.3446484 3.3202312 1.2813909
3.3350041 3.3283889 1.2830251
3.3313229 3.321475 1.2875526
3.3238261 3.3336909 1.2850454
3.3208048 3.3445063 1.2936581
3.3212438 3.340807 1.2785143
3.315918 3.3406534 1.2847483
3.3067529 3.347446 1.285903
3.2940888 3.3576536 1.2820013
3.3004651 3.3686135 1.2793883
3.285707 3.3726041 1.2884334
3.2883375 3.3715706 1.2809969
3.2725959 3.3714821 1.2820134
3.2813754 3.3885293 1.2906191
3.2676411 3.3871949 1.2854201
3.2625134 3.3909447 1.291908
3.2622354 3.394021 1.2936355
3.2481854 3.3925908 1.2775546
3.2552834 3.4031613 1.2870874
3.2384734 3.4047794 1.2829924
3.2390442 3.4163172 1.2783071
3.2286539 3.4151697 1.2880137
3.2308209 3.4229708 1.2930638
3.2339981 3.4242482 1.2905999
3.2257745 3.4364946 1.2822468
3.2123456 3.4283228 1.2930952
3.2053986 3.4445889 1.2824783
3.2001724 3.4515269 1.2858961
3.1988597 3.4502916 1.2753559
3.2070732 3.4569812 1.2819122
3.1911855 3.4489827 1.275491
3.1906061 3.4553413 1.2834136
3.1797273 3.4686205 1.2746354
3.1738925 3.4698367 1.2826394
3.1655877 3.4675958 1.278401
3.1689234 3.4766984 1.281509
3.1631014 3.4836326 1.2764078
3.1666565 3.4901257 1.293776
3.1536231 3.500097 1.2854472
3.1500435 3.5030797 1.2793528
3.1530142 3.494978 1.2808113
3.1495574 3.5111067 1.2841868
3.134017 3.5011728 1.2764065
3.1296926 3.5102262 1.2854142
3.1333656 3.5158031 1.2877593
3.1127946 3.5295501 1.2747921
3.1153255 3.522316 1.2843511
3.1127489 3.5234838 1.276002
3.1075346 3.5364709 1.2932301
3.0939853 3.5507376 1.2890527
3.0943358 3.55284 1.2923928
3.0961387 3.5563569 1.2874879
3.0813112 3.5492108 1.2882816
3.0786974 3.5626235 1.2937683
3.0850852 3.564599 1.2804782
3.073812 3.570899 1.2765886
3.0695658 3.5646315 1.2811248
3.0548725 3.5806952 1.2824957
3.0518243 3.5764582 1.2925277
3.0459983 3.5835919 1.2925071
3.055989 3.5960019 1.2902763
3.0493138 3.5951464 1.287257
3.0377276 3.6044011 1.2927928
3.0269294 3.5959857 1.2874498
3.0216119 3.5989079 1.2797976
3.0229983 3.6155126 1.2741674
3.0204895 3.6128328 1.2779988
3.0025108 3.6204276 1.2936298
3.0058973 3.6299477 1.2807668
2.99931 3.6186211 1.2907875
2.9926963 3.6222706 1.2889748
2.9838457 3.6242361 1.2820704
2.9919703 3.6396129 1.2801917
2.9856248 3.6491945 1.2856753
2.9739306 3.6384676 1.2898661
2.9745781 3.6541419 1.2864534
2.9695899 3.6523283 1.2761598
2.9684274 3.6575625 1.2892666
2.9628901 3.6712158 1.2877065
2.944484 3.6633198 1.2906398
2.9360926 3.6738541 1.2930495
2.945883 3.6805882 1.2932588
2.9287634 3.6805022 1.2846861
2.9297593 3.6791322 1.281543
2.9162331 3.6911354 1.2835282
2.9268918 3.6888592 1.2770503
2.9141324 3.6866736 1.284628
2.9110737 3.70841 1.2933166
2.9011161 3.7096996 1.2915421
2.8895929 3.7176788 1.2777624
2.9009972 3.7023687 1.2904152
2.8948057 3.7219565 1.2857068
2.8888178 3.7295377 1.2768247
2.8742516 3.7232337 1.2824919
2.8765368 3.7285283 1.2760888
2.8608015 3.7296116 1.2833433
2.858583 3.7430716 1.284353
2.8639364 3.7386143 1.2830473
2.8579729 3.7493467 1.2789862
2.8502293 3.7537088 1.278867
2.8487005 3.7546337 1.2794074
2.839819 3.7545309 1.2755123
2.8262234 3.7536101 1.2751826
2.8237405 3.7632985 1.2845401
2.8269191 3.7604527 1.2751906
2.8236892 3.7670584 1.2829303
2.8077085 3.7766373 1.280143
2.8127317 3.7767673 1.2889189
2.7964442 3.7761369 1.2844548
2.7960899 3.7929714 1.2803875
2.7956109 3.7934916 1.2932874
2.775667 3.7903497 1.2821339
2.7718225 3.7988374 1.2861165
2.7676427 3.8100731 1.2758514
2.8831508 3.9615784 1.2097747
2.8787563 3.9633944 1.2154197
2.8620961 3.9744763 1.2067297
2.8626428 3.9758341 1.2142628
2.8519599 3.9661617 1.2172664
2.8568072 3.9813981 1.2132127
2.8375821 3.9814243 1.2057945
2.8312509 3.9867804 1.2113571
2.833761 3.9935713 1.2215378
2.9286668 4.1546965 1.1500545
2.924669 4.1532063 1.1434036
2.9236264 4.1528292 1.1545674
2.9282229 4.1613045 1.1528193
2.9241238 4.1558452 1.1484427
2.9075522 4.1652265 1.1504154
2.8939786 4.1649852 1.143654
2.8963456 4.1710539 1.1529557
2.9979889 4.3307624 1.074621
2.9982734 4.3442454 1.068167
2.9887328 4.3497667 1.0856693
2.9767401 4.3370614 1.0775983
2.9780908 4.3490896 1.085075
2.9705997 4.3514972 1.0769601
2.9613545 4.3555927 1.0793266
2.947727 4.3689108 1.0670242
3.0610354 4.530067 1.0014005
3.0423903 4.5239286 1.0068477
3.033041 4.5385432 1.0135467
3.0343883 4.5394735 1.0095614
3.0292757 4.536901 1.0069387
3.0216594 4.5483785 1.0074602
3.0259664 4.5472555 1.0158683
3.1211872 4.7013273 0.9335131
3.1046255 4.7157273 0.94016612
3.0904243 4.7225657 0.93602055
3.0839145 4.723815 0.93331039
3.0808125 4.7327142 0.94021595
3.0831516 4.738564 0.93749905
3.0721836 4.7320681 0.93148446
3.1591315 4.9044061 0.86964041
3.1613233 4.897954 0.86410046
3.1640306 4.902132 0.87323594
3.1551399 4.904418 0.87561899
3.132925 4.9166965 0.8680737
3.137357 4.9213338 0.8630476
3.2382205 5.0845113 0.80592376
3.2155633 5.0928154 0.80243516
3.2198055 5.0900369 0.80050516
3.2013242 5.1028743 0.80779654
3.1968224 5.1073422 0.80551821
3.1995075 5.1008186 0.79238141
-2.5389688 4.173161 1.2132497
-2.5313957 4.1661248 1.2177936
-2.5414345 4.1637096 1.2102383
-2.5390136 4.1725693 1.2229527
-2.5616138 4.1685576 1.2160028
-2.4535038 4.0093589 1.2819054
-2.4674466 4.0012283 1.2915132
-2.4633145 4.0017056 1.2894893
-2.4718862 3.9847758 1.287474
-2.4827313 3.9776323 1.2744855
-2.4867086 3.9747353 1.2800629
-2.4840357 3.98522 1.282154
-2.4968143 3.9714694 1.285388
-2.497143 3.9659386 1.2810477
-2.5047526 3.9636011 1.27627
-2.5193071 3.9563706 1.2754817
-2.5169914 3.9607582 1.2900151
-2.5250628 3.9548345 1.2884856
-2.5351534 3.9458899 1.2934943
-2.5472541 3.951647 1.2748351
-2.5523386 3.9389687 1.2767621
-2.5518405 3.9344997 1.2926648
-2.5492465 3.9427845 1.2783158
-2.5634134 3.9362674 1.2819424
-2.5619154 3.9276631 1.2867458
-2.5651903 3.9300213 1.2878407
-2.5692484 3.9202077 1.2768531
-2.578768 3.92783 1.2834787
-2.589812 3.9108644 1.2847053
-2.5958424 3.9072952 1.2752417
-2.6005268 3.9041345 1.2766601
-2.6032794 3.9069593 1.2771777
-2.6101239 3.8978608 1.2895559
-2.6113124 3.9000728 1.2790005
-2.6288693 3.8892558 1.2834318
-2.6216176 3.9006312 1.29382
-2.6332657 3.8934112 1.2780012
-2.6358964 3.882129 1.2934186
-2.6318963 3.8852553 1.2754921
-2.6466646 3.8877988 1.2776258
-2.6508911 3.8711002 1.2802355
-2.6536942 3.8770864 1.2893146
-2.6559744 3.8616605 1.2929473
-2.6658711 3.8704729 1.2824519
-2.6663182 3.8671508 1.2848064
-2.6823287 3.856497 1.2822113
-2.6879456 3.859607 1.2760787
-2.6893761 3.8454928 1.2823539
-2.695384 3.8407803 1.275453
-2.6993132 3.8466959 1.2748005
-2.7011032 3.8337762 1.2811621
-2.7202785 3.8234394 1.2772303
-2.7103691 3.8362031 1.2816001
-2.7168219 3.8244457 1.2785177
-2.7337646 3.8176115 1.2758558
-2.7283478 3.820132 1.2862905
-2.7455204 3.8223956 1.2835929
-2.7488203 3.8085833 1.2905463
-2.7458396 3.8141124 1.2765599
-2.7497547 3.8010566 1.2922693
-2.7543166 3.7915494 1.2788466
-2.7725117 3.7882009 1.278882
-2.7746332 3.8000898 1.2754838
-2.7723792 3.790849 1.2841382
-2.7732024 3.789983 1.289776
-2.7766821 3.7798464 1.2817591
-2.7897215 3.7778442 1.2798382
-2.8054531 3.7778435 1.2879446
-2.7942259 3.76612 1.2854273
-2.7969794 3.7557721 1.2937087
-2.8040183 3.7661479 1.276345
-2.8244743 3.7636089 1.2795019
-2.8248894 3.7442231 1.2784245
-2.828697 3.7523606 1.2919903
-2.8238447 3.7449389 1.2885815
-2.8333492 3.739296 1.2789348
-2.8508649 3.7458665 1.2911921
-2.850296 3.7419534 1.2873621
-2.8616154 3.7345095 1.2757293
-2.8554463 3.7295485 1.2776769
-2.86099 3.72278 1.2939358
-2.8638921 3.7207811 1.2915983
-2.8836317 3.7035875 1.2938253
-2.884443 3.7078009 1.288147
-2.8916829 3.7020755 1.2790115
-2.8823259 3.6920495 1.2882051
-2.9026098 3.6897056 1.2879486
-2.8906312 3.6931231 1.2877653
-2.9024765 3.6904085 1.2841316
-2.9059491 3.6790445 1.2795382
-2.9074683 3.6873121 1.2921842
-2.9127231 3.6778481 1.286847
-2.9203095 3.6738091 1.2883388
-2.9256635 3.6741178 1.2780737
-2.9366896 3.6723402 1.2861205
-2.9368458 3.665067 1.2881855
-2.9478023 3.662652 1.291958
-2.9590099 3.6573522 1.2832069
-2.9503949 3.6453378 1.275807
-2.9654076 3.6349761 1.2811159
-2.9650083 3.6482143 1.2787727
-2.9719567 3.6413116 1.2910528
-2.984237 3.6319306 1.2833885
-2.9750195 3.622298 1.2801344
-2.9760611 3.6267357 1.2792113
-2.9890501 3.6161079 1.275131
-2.9999685 3.6196089 1.2927587
-3.0071084 3.6169817 1.2892169
-3.0029933 3.6080432 1.2777977
-3.0062726 3.6091595 1.280161
-3.0242369 3.5957375 1.279914
-3.0245385 3.6004231 1.2769227
-3.0325541 3.5978789 1.2887157
-3.028228 3.589597 1.2750487
-3.0271504 3.5853121 1.2899989
-3.0469897 3.5730712 1.2785082
-3.0509033 3.574939 1.2747121
-3.0571835 3.5746882 1.2924894
-3.0469995 3.5635679 1.2855359
-3.0682285 3.5541778 1.2839135
-3.0670884 3.5518272 1.2930908
-3.0661891 3.5541725 1.2911824
-3.0682752 3.5534945 1.2909656
-3.0785623 3.5421281 1.2867093
-3.0825102 3.5368197 1.282418
-3.0915022 3.5366459 1.2901423
-3.0919785 3.5375266 1.2839979
-3.0962453 3.5170896 1.2818733
-3.1027284 3.5117929 1.2929058
-3.116159 3.5102174 1.2788324
-3.1112058 3.5147266 1.2866998
-3.1170692 3.5050731 1.2812108
-3.1248353 3.4982657 1.2793485
-3.1328118 3.5060978 1.290432
-3.1250384 3.4949021 1.2805259
-3.1415503 3.4796288 1.2747718
-3.1503317 3.4887874 1.2742311
-3.1452513 3.4785814 1.2775928
-3.1622894 3.4667885 1.280004
-3.1682889 3.4664552 1.285193
-3.1683555 3.4759588 1.2792509
-3.1605487 3.4644771 1.2880222
-3.1782246 3.4501011 1.2743597
-3.1777565 3.4526145 1.2929097
-3.1861987 3.4477608 1.2846512
-3.1845407 3.4512486 1.2855134
-3.1886308 3.4308023 1.279935
-3.1932554 3.4402778 1.2885582
-3.1945119 3.4375503 1.2898029
-3.213351 3.4336522 1.2751354
-3.2069948 3.4145103 1.2743994
-3.2065744 3.4079916 1.2866161
-3.2173765 3.4086075 1.2888982
-3.2218347 3.4144957 1.2781417
-3.2277367 3.3967395 1.2869861
-3.2418907 3.4054329 1.2837799
-3.2351763 3.3948221 1.2845956
-3.254034 3.3843658 1.2793615
-3.244262 3.3774261 1.2758814
-3.2532389 3.3764141 1.2929913
-3.2568772 3.3865187 1.2754539
-3.261245 3.3817983 1.2758996
-3.2733898 3.3710237 1.2814692
-3.2632461 3.3605323 1.2774419
-3.2838523 3.3488748 1.2801796
-3.2756078 3.3477919 1.2761389
-3.2905631 3.3581464 1.2860218
-3.2846963 3.3543599 1.2899897
-3.3040571 3.3450551 1.2915657
-3.3068917 3.3314772 1.2766839
-3.3126099 3.3389585 1.276468
-3.3158588 3.3267632 1.276099
-3.3186557 3.3271077 1.2895293
-3.3158765 3.3222742 1.2770491
-3.3171182 3.3215065 1.2774982
-3.3356156 3.3136487 1.2814585
-3.3381472 3.2954946 1.2803733
-3.3307893 3.3078601 1.2801082
-3.2053549 3.15417 1.3441888
-3.2122571 3.1538136 1.3502741
-3.2140346 3.1523724 1.3484669
-3.2160215 3.1523097 1.3590969
-3.2183714 3.1540706 1.3547105
-3.2272847 3.143225 1.3501362
-3.2286718 3.1357455 1.3494462
-3.2296033 3.1343696 1.3455567
-3.2465684 3.1350572 1.3481783
-3.2446122 3.1276906 1.3478365
-3.2429149 3.1162381 1.3498232
-3.2661676 3.1222754 1.3559504
-3.2633288 3.1109209 1.3451393
-3.262291 3.1019588 1.3587743
-3.1339729 2.9663253 1.4277227
-3.1464989 2.9750309 1.4213095
-3.1435933 2.9667101 1.4319441
-3.1413715 2.961812 1.4257364
-3.1430328 2.9442973 1.4247557
-3.1620667 2.9530804 1.4209541
-3.1614361 2.9478962 1.4302516
-3.1588123 2.9437883 1.4301442
-3.1700554 2.926842 1.423246
-3.1721034 2.93525 1.4319555
-3.1805103 2.9196422 1.4183019
-3.1689997 2.9156325 1.4177449
-3.1838961 2.9186461 1.4132638
-3.1881516 2.9079936 1.4282871
-3.1986086 2.899785 1.4302039
-3.1900401 2.8966424 1.4253176
-3.0657825 2.7726135 1.4887042
-3.0715303 2.7611003 1.4833711
-3.0573797 2.7624254 1.4855229
-3.070121 2.7657773 1.5005193
-3.0741472 2.7647915 1.4843506
-3.0718207 2.7593789 1.48862
-3.0900452 2.7431264 1.5003572
-3.0927448 2.7466683 1.4859011
-3.080415 2.7437975 1.4877018
-3.0861626 2.7335329 1.4908307
-3.0967901 2.7320731 1.5000173
-3.0930622 2.7287154 1.4819781
-3.0946615 2.7233527 1.4895564
-3.1141028 2.7090864 1.4847848
-3.1185417 2.7146263 1.4833307
-3.1191435 2.7063186 1.5007726
-3.1154695 2.7036066 1.486276
-2.9776258 2.5797446 1.568678
-2.9764881 2.5744836 1.5634966
-2.9935436 2.5672777 1.5523807
-2.9874647 2.5732403 1.5641402
-2.992193 2.566721 1.5568827
-2.9949548 2.5623863 1.5686084
-3.0101323 2.5623884 1.550419
-3.0100756 2.5417235 1.5621259
-3.0114672 2.5442231 1.569887
-3.0154109 2.5341561 1.5593032
-3.0138454 2.5432601 1.5514938
-3.0189092 2.5370791 1.5626022
-3.0291486 2.5174136 1.550688
-3.0304978 2.5273926 1.5689251
-3.0400817 2.5162029 1.5648363
-3.0369172 2.505805 1.5606114
-3.0420208 2.5037773 1.5605921
-3.0453081 2.5053482 1.5641162
-3.0368826 2.5090637 1.5543531
-3.0406899 2.4923656 1.5587416
-2.9092906 2.3825171 1.6254944
-2.9113142 2.3695674 1.6212572
-2.9222238 2.3698909 1.6215875
-2.9250419 2.3723719 1.6361349
-2.9096172 2.3487701 1.6237352
-2.9182756 2.3518279 1.6251854
-2.9311531 2.353271 1.6288606
-2.9240444 2.3549099 1.6383641
-2.9334056 2.3484516 1.6358455
-2.9325242 2.3416576 1.6208961
-2.9472487 2.3239434 1.6386105
-2.9442518 2.3274999 1.6274482
-2.9454863 2.3234355 1.6206874
-2.9463849 2.3198364 1.6204901
-2.9527302 2.314939 1.620778
-2.9514694 2.3046551 1.6282152
-2.9487526 2.3047595 1.6211917
-2.9623549 2.295233 1.619908
-2.9664478 2.2995996 1.6362714
-2.9730537 2.2880967 1.6299504
-2.9746029 2.2851121 1.6300297
-2.8292439 2.1744463 1.7068217
-2.8240707 2.1799014 1.6946355
-2.8256526 2.1676838 1.7029781
-2.8274264 2.1723416 1.6905558
-2.8289068 2.1614742 1.6919866
-2.8429444 2.1565328 1.6976632
-2.8439999 2.1411917 1.6979592
-2.8463335 2.1449549 1.7067723
-2.8522983 2.1453037 1.7082372
-2.8445783 2.1472888 1.6908768
-2.8567736 2.1286244 1.70093
-2.8612084 2.1381483 1.700398
-2.8578238 2.1290998 1.6916125
-2.8660913 2.1212816 1.6914529
-2.8667753 2.1149814 1.7043985
-2.8660228 2.1176364 1.6963791
-2.8795881 2.1022236 1.6969994
-2.8728521 2.1074591 1.7053679
-2.8772972 2.1097059 1.6980743
-2.8802714 2.1026435 1.6967591
-2.8806007 2.0863509 1.7007769
-3.043335 2.1980758 1.6292832
-3.0342844 2.1864333 1.6217837
-3.0540135 2.189472 1.6304759
-3.0538962 2.1947689 1.6368817
-3.0608273 2.1837554 1.6299609
-3.0557718 2.1821079 1.6316494
-3.0500901 2.1701224 1.6225994
-3.0560338 2.1766119 1.6198267
-3.0692651 2.1630416 1.6340261
-3.0638058 2.152051 1.6359712
-3.0743225 2.153693 1.624191
-3.0672898 2.1474361 1.625028
-3.0677507 2.1444945 1.6331674
-3.0795133 2.1447086 1.630872
-3.0848639 2.1410244 1.6218355
-3.0771296 2.145422 1.6354281
-3.0877006 2.1385219 1.6213157
-3.0873156 2.1286926 1.6379781
-3.0896971 2.1286409 1.6253593
-3.0978734 2.1170509 1.6260433
-3.1040986 2.1179411 1.6326672
-3.1020977 2.1088545 1.6373359
-3.0992539 2.1022918 1.623369
-3.1082644 2.1069453 1.6339266
-3.1195643 2.0892208 1.6251141
-3.1198947 2.0821972 1.6250176
-3.1266265 2.0875633 1.6223438
-3.1274643 2.0762687 1.6341676
-3.1316338 2.0855412 1.6302702
-3.1284161 2.0695801 1.6391182
-3.1245081 2.0703301 1.6331953
-3.13397 2.0560117 1.6225291
-3.1387572 2.0674615 1.6296476
-3.1375053 2.0528188 1.625771
-3.1456895 2.0497885 1.6285253
-3.1426802 2.049334 1.6286154
-3.1397612 2.045048 1.6384352
-3.1395097 2.0428178 1.6213282
-3.1474285 2.0393062 1.6378655
-3.1592383 2.021894 1.6228173
-3.1621943 2.0312655 1.6328989
-3.1510665 2.0140445 1.6330458
-3.170599 2.0149 1.6290302
-3.1630068 2.0198646 1.6347637
-3.1592851 1.9994961 1.6218629
-3.1728029 2.0049822 1.6329072
-3.1662242 1.9962262 1.6240691
-3.1698196 1.9905545 1.6374086
-3.1705158 1.9997905 1.6316481
-3.1746683 1.9800372 1.6328911
-3.1938632 1.9801425 1.627925
-3.1829698 1.9741836 1.6301616
-3.3519282 2.0696387 1.5686436
-3.3450282 2.0571139 1.5655587
-3.3523879 2.0711002 1.5665407
-3.3526421 2.054352 1.5574478
-3.3618453 2.0469599 1.5640419
-3.3598802 2.0387428 1.569411
-3.3645687 2.0525944 1.568467
-3.3750114 2.0450521 1.5522243
-3.3642044 2.0410669 1.5605453
-3.3783569 2.0307212 1.5673697
-3.3702662 2.0141616 1.5559708
-3.3746498 2.0273724 1.5567404
-3.3821115 2.0160875 1.5561938
-3.3885846 2.0074058 1.5636007
-3.3841441 2.0123715 1.5683206
-3.3931029 2.002147 1.569533
-3.3966858 1.9900712 1.5693104
-3.4012063 1.990384 1.5662627
-3.4019625 1.9843283 1.5639513
-3.3943913 1.986938 1.5560193
-3.3999889 1.9804498 1.556257
-3.4169791 1.9723828 1.5544387
-3.4131927 1.9596522 1.5660725
-3.4099462 1.96324 1.5537654
-3.4192863 1.9540532 1.551169
-3.4238997 1.9586859 1.5630966
-3.427294 1.9425074 1.5677013
-3.4309044 1.9445735 1.5573752
-3.4375556 1.9286417 1.5657537
-3.4265115 1.943033 1.5615062
-3.4433928 1.9345717 1.5555384
-3.4400296 1.931859 1.5662756
-3.438478 1.9156643 1.5690579
-3.445286 1.9054413 1.5602075
-3.4443944 1.9085968 1.5669535
-3.4460921 1.9098506 1.5631195
-3.4558556 1.8904151 1.5678978
-3.4610078 1.8900679 1.5595369
-3.4564793 1.8857614 1.5600426
-3.4635658 1.8751838 1.5597419
-3.4548929 1.8704035 1.5557859
-3.4721808 1.8716581 1.5539268
-3.458725 1.8771291 1.5606865
-3.6280851 1.9468178 1.4930031
-3.6408069 1.9514512 1.4823333
-3.6467757 1.9370313 1.4977417
-3.6365712 1.9354857 1.498543
-3.6415815 1.9314193 1.483829
-3.6549454 1.9345056 1.4896442
-3.6477966 1.9331234 1.4897209
-3.6609414 1.923025 1.4898605
-3.6580348 1.9182428 1.4961011
-3.6569805 1.909514 1.492663
-3.6691592 1.8996208 1.4954001
-3.6599767 1.8997129 1.4878592
-3.6614573 1.8965364 1.4909911
-3.667522 1.8862572 1.4976737
-3.6727784 1.8736537 1.4853901
-3.6727414 1.8703648 1.4812964
-3.6668823 1.8768965 1.5009283
-3.680939 1.8729478 1.4955729
-3.674849 1.8545629 1.4905505
-3.6825113 1.8598826 1.4819179
-3.6936045 1.8556668 1.4885145
-3.6819534 1.843269 1.5003294
-3.6978359 1.8320197 1.4940976
-3.6905794 1.8373272 1.4827201
-3.6966329 1.839993 1.4838762
-3.694963 1.8253028 1.4868842
-3.6973794 1.819072 1.4815683
-3.7001569 1.8213774 1.4974518
-3.7082822 1.8123584 1.500102
-3.7014229 1.7982557 1.4932272
-3.7031889 1.7956312 1.4872955
-3.7183511 1.7872219 1.4941286
-3.7216911 1.7854871 1.4948783
-3.7112556 1.7935587 1.4861053
-3.7121902 1.7781193 1.4851711
-3.7319617 1.7668853 1.4947236
-3.7287176 1.7757628 1.4832253
-3.9007297 1.844082 1.4301792
-3.9070146 1.8468541 1.4223386
-3.9106417 1.8389918 1.4255861
-3.9011362 1.8318624 1.4314033
-3.9175546 1.8120627 1.4140092
-3.9071324 1.8114078 1.4200815
-3.9159527 1.8036655 1.4194303
-3.9135385 1.7974586 1.4285479
-3.9120507 1.7939432 1.4316431
-3.9210029 1.7961271 1.428831
-3.9214454 1.7786946 1.4198586
-3.9258895 1.7775294 1.4191176
-3.9381664 1.7752812 1.415977
-3.9271879 1.7650757 1.4311737
-3.9303849 1.760981 1.4320407
-3.930968 1.7698301 1.4177262
-3.9454713 1.7523727 1.4211464
-3.940618 1.739836 1.4238404
-3.9466395 1.7512857 1.4285028
-3.949558 1.7362742 1.4208367
-3.955281 1.7233034 1.4212292
-3.9499686 1.7283645 1.4259509
-3.9453895 1.7236166 1.4139224
-3.9639432 1.7123073 1.4171897
-3.9672925 1.7202541 1.4218671
-3.9697673 1.7100626 1.4209018
-3.9665487 1.7078052 1.4279908
-3.959902 1.6928307 1.4280583
-3.9705536 1.6942567 1.4250937
-3.9765351 1.6751784 1.4126395
-3.970175 1.6727839 1.4127396
-4.156651 1.7503703 1.3543922
-4.1452618 1.7424152 1.345866
-4.1458931 1.7382896 1.3515657
-4.163249 1.7331903 1.3507509
-4.1559196 1.7279843 1.3452864
-4.1695471 1.708357 1.3431096
-4.1560774 1.7177287 1.3515068
-4.1625319 1.6987934 1.3468819
-4.1719432 1.6962135 1.3487337
-4.1738005 1.682323 1.353749
-4.1755495 1.6775143 1.3496426
-4.1666007 1.6865093 1.3433878
-4.1661696 1.6772791 1.3588177
-4.1800308 1.6730914 1.3549616
-4.1746988 1.6586235 1.3517163
-4.1748228 1.65291 1.3546638
-4.1771159 1.6430401 1.3528067
-4.1910033 1.6490811 1.3578409
-4.1895075 1.6480685 1.3461254
-4.1861515 1.6275481 1.3463526
-4.197772 1.6276201 1.3476079
-4.193491 1.6189742 1.3436979
-4.1954565 1.6130843 1.356401
-4.2019839 1.6156501 1.3507628
-4.212359 1.6058568 1.3565063
-4.2059712 1.5982399 1.3623893
-4.2166281 1.5906225 1.3442584
-4.2091336 1.5914019 1.3580279
-4.3925252 1.6413971 1.2876101
-4.3917871 1.6313264 1.2915747
-4.3908129 1.6318947 1.2814801
-4.3885746 1.6189957 1.2886117
-4.3902378 1.6263745 1.2757283
-4.3991895 1.6094608 1.2912891
-4.3937707 1.6043988 1.2829379
-4.4025998 1.6079432 1.2928542
-4.4055371 1.6030413 1.2810407
-4.4065971 1.5878363 1.2758974
-4.4138784 1.5873622 1.2811991
-4.4225321 1.5699034 1.2825726
-4.4072127 1.5756874 1.29066
-4.421979 1.5659693 1.2919973
-4.4096055 1.5568392 1.2868654
-4.4301062 1.5610002 1.2909749
-4.4150376 1.5528142 1.2761806
-4.4283118 1.5380248 1.2910922
-4.4316611 1.5425147 1.2872663
-4.426815 1.5281532 1.2744029
-4.4271035 1.5287099 1.2872361
-4.4420819 1.522804 1.2887843
-4.435678 1.5144001 1.2822932
-4.4411778 1.5134039 1.2922639
-4.4453316 1.5069467 1.2792873
-4.6127148 1.5414096 1.2076205
-4.6179566 1.5535759 1.2229937
-4.6179833 1.5346074 1.2097694
-4.6230898 1.5344205 1.2072297
-4.6320128 1.5212017 1.2165266
-4.6337905 1.5098076 1.2125808
-4.6427255 1.50554 1.208933
-4.6301036 1.5097724 1.223088
-4.6439638 1.4905924 1.2224565
-4.6478443 1.4893371 1.2215801
-4.6446919 1.4808744 1.2221178
-4.6441603 1.4893142 1.2212888
-4.6482463 1.479862 1.2079614
-4.6455479 1.4674294 1.2209201
-4.6453795 1.4681906 1.207136
-4.6559057 1.4492821 1.2084368
-4.6503682 1.4435372 1.2119519
-4.6484694 1.4325042 1.2061841
-4.6524067 1.4296918 1.2077241
-4.6569667 1.4250708 1.2144994
-4.6623936 1.4256647 1.2193055
-4.6672735 1.4088438 1.2190478
-4.6729736 1.4099815 1.2158371
-4.8519082 1.4493685 1.1376587
-4.8580337 1.4571836 1.1557837
-4.857933 1.4364902 1.141508
-4.8565226 1.4433422 1.147998
-4.8515873 1.4340922 1.1499683
-4.8524103 1.4228948 1.1556424
-4.8516836 1.4091187 1.1432145
-4.8641725 1.4118874 1.1379021
-4.8718457 1.3917388 1.1422935
-4.8597674 1.3878438 1.1543496
-4.8708901 1.3868752 1.1388075
-4.8711443 1.3817916 1.1378645
-4.8732643 1.3788087 1.1430147
-4.8696504 1.3592278 1.1418065
-4.8795366 1.3665634 1.1381404
-4.8674431 1.3550483 1.150072
-4.8696661 1.3462223 1.1550254
-4.8843079 1.3468605 1.1495479
-4.8842521 1.3417692 1.1507252
-4.8797951 1.3306907 1.1548135
-5.0646133 1.3588852 1.0757045
-5.0636911 1.3600165 1.0673604
-5.0637021 1.3609334 1.0828476
-5.0785527 1.3473606 1.0855705
-5.0746017 1.3457878 1.0824482
-5.074307 1.3381854 1.074633
-5.0820708 1.3302277 1.0848161
-5.0848713 1.3094867 1.0824647
-5.0731392 1.3106501 1.0818518
-5.0802197 1.2981091 1.0769928
-5.0832024 1.30392 1.0786921
-5.0962462 1.2925407 1.0686133
-5.0976248 1.2830281 1.086545
-5.0835061 1.2805326 1.0779996
-5.0866547 1.2638457 1.07498
-5.0929155 1.2693015 1.0714593
-5.0869818 1.2488317 1.0670846
-5.0908546 1.2473897 1.069075
-5.2795706 1.2833965 1.0103004
-5.286449 1.2699775 1.0151335
-5.2781763 1.2753742 1.0128914
-5.2881942 1.2695149 1.0063863
-5.28828 1.2440555 1.0174875
-5.2904243 1.2544835 1.0132146
-5.3011031 1.2435213 0.99937862
-5.2947917 1.228047 0.99812478
-5.2919903 1.2202452 1.0035299
-5.2935534 1.2102993 1.014624
-5.2931161 1.2158576 1.0049598
-5.3024054 1.1963075 1.0092674
-5.3068509 1.1867896 1.0063651
-5.313529 1.1890036 1.004999
-5.3067012 1.1728705 1.0055718
-5.3087621 1.1763221 1.0039731
-5.3150854 1.1708131 0.9988153
-5.4987264 1.1928786 0.93655139
-5.5001736 1.1796321 0.9429307
-5.4962053 1.1865097 0.94677418
-5.501132 1.1755021 0.9435885
-5.4957123 1.1568718 0.94826752
-5.5059743 1.1554519 0.93084586
-5.4991279 1.1490003 0.94305754
-5.5136366 1.1510121 0.94655794
-5.5075617 1.1325883 0.94093394
-5.5030746 1.1294562 0.93722719
-5.5037351 1.1277796 0.94345963
-5.517611 1.1063049 0.94413257
-5.5050974 1.1104372 0.93937254
-5.508729 1.0912703 0.93129641
-5.5155358 1.0791405 0.93228382
-5.517653 1.0783553 0.93954748
6.6120987 -4.2889118 0.11680949
6.6250949 -4.2864571 0.10176902
6.6200595 -4.2744389 0.11462898
6.6290631 -4.2759719 0.11323132
6.6421776 -4.2545476 0.10479523
6.6412377 -4.2607183 0.1197841
6.6466131 -4.2430229 0.11960085
6.6461997 -4.2299271 0.1108828
6.6547208 -4.221714 0.10553773
6.6695676 -4.2234516 0.10910578
6.6775346 -4.2041407 0.10890741
6.6797872 -4.197835 0.1019414
6.686986 -4.1825533 0.11776333
6.6870322 -4.1842427 0.10281301
6.6856675 -4.178781 0.12003987
6.6958537 -4.1602087 0.10184024
6.7010159 -4.1421981 0.11207248
6.7059817 -4.1505246 0.1061281
6.7222166 -4.136241 0.11911647
6.7330928 -4.1130085 0.10107856
6.7275243 -4.1076941 0.11305441
6.7417445 -4.1059995 0.10203072
6.7489853 -4.1029649 0.11697573
6.7520351 -4.0857306 0.10090941
6.7601213 -4.0756936 0.10097513
6.7654214 -4.0612903 0.11027534
6.7725086 -4.0475321 0.10824033
6.769815 -4.0546026 0.10852476
6.6200814 -3.9348526 0.18276767
6.6242709 -3.9265857 0.18183547
6.6304097 -3.9296422 0.17683914
6.6285114 -3.9042206 0.1841511
6.6355762 -3.8972869 0.18510337
6.6375737 -3.8930194 0.17388788
6.6434917 -3.8863683 0.18329893
6.6494622 -3.8801067 0.17769471
6.6647201 -3.8724344 0.17642228
6.6579299 -3.8531191 0.17864549
6.6714115 -3.8481052 0.17481008
6.6700859 -3.8444045 0.17001675
6.6878147 -3.8200545 0.17293426
6.6805344 -3.8230796 0.172033
6.680553 -3.8045037 0.18881731
6.7015109 -3.8093817 0.1806135
6.6912398 -3.7937799 0.16979754
6.7103672 -3.7776325 0.17597227
6.7038774 -3.7716393 0.18054089
6.7161016 -3.7578354 0.17513886
6.7305365 -3.7559366 0.18545724
6.7211227 -3.740737 0.17017548
6.7269025 -3.7331688 0.16993508
6.7355866 -3.7182283 0.17735344
6.7433562 -3.7086039 0.17402424
6.7478971 -3.7033429 0.17648616
6.7442212 -3.6936612 0.18521161
6.7497163 -3.6901476 0.18073867
6.7613726 -3.6784062 0.17290565
6.7775846 -3.6797094 0.16951586
6.7683816 -3.6518345 0.17865701
6.6043825 -3.5693104 0.24265976
6.610065 -3.5557733 0.25581092
6.6154943 -3.5387692 0.25451255
6.6283288 -3.5391996 0.25344154
6.6378212 -3.5202799 0.24822702
6.6297626 -3.5102141 0.2432826
6.6504169 -3.4998181 0.25243297
6.646585 -3.5029171 0.24389862
6.6549072 -3.4949427 0.24462755
6.6598268 -3.481297 0.24379103
6.6538744 -3.4716613 0.2467249
6.6628747 -3.4613175 0.25397167
6.6650133 -3.4505064 0.24899134
6.6858401 -3.4318092 0.25434268
6.6855831 -3.4285553 0.24936876
6.6800985 -3.4182827 0.24520883
6.6896567 -3.4122663 0.24218619
6.6883521 -3.3949785 0.24679887
6.6985002 -3.3942528 0.25011349
6.7093644 -3.3934789 0.25779471
6.7193785 -3.3835156 0.24582551
6.7123137 -3.3693972 0.2549071
6.7124825 -3.3579729 0.24550036
6.7276583 -3.3505409 0.24548444
6.7281718 -3.3481724 0.23940934
6.7436986 -3.3360817 0.25428697
6.7350521 -3.3192134 0.24585472
6.7433701 -3.3084171 0.24537699
6.7562876 -3.292227 0.25628519
6.7525063 -3.2899146 0.23862092
6.7563934 -3.282316 0.24156697
6.7682981 -3.2664976 0.24927165
6.7692709 -3.2552128 0.23903438
6.7808242 -3.2534413 0.24685627
6.7723484 -3.2358327 0.2476674
6.6085176 -3.1462255 0.32022053
6.608705 -3.1512859 0.31121239
6.6204467 -3.1326652 0.32360169
6.6316981 -3.125751 0.3227756
6.6338449 -3.1272285 0.31485018
6.6383142 -3.109417 0.32510504
6.6457167 -3.104285 0.32175362
6.640811 -3.0827515 0.32025608
6.6456552 -3.074223 0.31109238
6.6583085 -3.0787156 0.31009367
6.6517596 -3.062304 0.30811727
6.668714 -3.0501113 0.31186059
6.6566472 -3.0505691 0.32499832
6.6769567 -3.0241556 0.31581789
6.6764269 -3.0199623 0.31592134
6.6679592 -3.0156538 0.32459193
6.689733 -3.0082839 0.30914369
6.6881423 -2.9901476 0.32597232
6.8562927 -3.0683382 0.25302947
6.8641224 -3.0610836 0.25536251
6.8709393 -3.044667 0.24483216
6.8757668 -3.0355725 0.25721392
6.8843241 -3.0228083 0.23985101
6.8860059 -3.0139854 0.23960902
6.8784938 -3.0099294 0.25426161
6.8910718 -2.9985662 0.24391827
7.0644064 -3.0645785 0.18259728
7.0702844 -3.0612018 0.17913327
7.0729771 -3.0451119 0.18501192
7.0717506 -3.0254722 0.18857807
7.0928435 -3.0232816 0.17898765
7.0833917 -3.0205164 0.18891254
7.0863085 -2.9934335 0.18201646
7.0918484 -2.9888949 0.17435245
7.2700577 -3.0490923 0.1121102
7.2700825 -3.0476587 0.10066567
7.2797494 -3.029176 0.108538
7.2771182 -3.0290923 0.10993216
7.2910094 -3.0105791 0.11755556
7.2907648 -2.9975419 0.1149519
7.2940717 -2.9876478 0.10466617
6.288198 2.0319874 0.64265501
6.2747736 2.0298026 0.63770789
6.2735677 2.037317 0.63665205
6.2810078 2.0571704 0.6477052
6.2668576 2.059516 0.6457535
6.265945 2.0648122 0.64319777
6.2674322 2.0770476 0.6384334
6.2537236 2.0934885 0.64848685
6.2592936 2.0966334 0.63727087
6.2474356 2.1049733 0.64662945
6.250237 2.111388 0.64061308
6.2581706 2.127198 0.64365876
6.2411451 2.1246333 0.64546978
6.2430515 2.1323531 0.63838911
6.2359991 2.1487789 0.64491278
6.2269826 2.1671605 0.64799559
6.0575743 2.1082652 0.70224416
6.0612998 2.1199501 0.71654099
6.0550666 2.1201103 0.70525771
6.0376062 2.1313293 0.7135936
6.0494924 2.1482792 0.69962716
6.0353508 2.1561043 0.71275795
6.0442429 2.1498575 0.71461546
6.034934 2.1684828 0.71548826
6.0385327 2.1830337 0.7040866
6.0286436 2.1915584 0.70237041
6.0218258 2.1915009 0.71471143
6.0215807 2.198097 0.71029794
6.0156212 2.2013998 0.71760911
6.0183663 2.2101939 0.70770812
6.0094361 2.2138374 0.7063297
6.0065274 2.2263143 0.70435333
5.8403344 2.1650681 0.77537483
5.8324828 2.1828673 0.76894349
5.8254919 2.1872759 0.7686525
5.8270888 2.2048173 0.76847982
5.8269577 2.1985743 0.77984756
5.8191562 2.2151322 0.76941359
5.8069301 2.2287877 0.77388912
5.8020039 2.2282572 0.77876943
5.8071651 2.2418771 0.77890831
5.8109369 2.2556806 0.78314328
5.7927208 2.2627985 0.78335756
5.7978516 2.2650883 0.77324528
5.7965398 2.2634227 0.77941996
5.7949257 2.2864006 0.77501881
5.7931275 2.292305 0.77626187
5.7826858 2.2934773 0.78595406
5.7817988 2.3055038 0.78119725
5.7853761 2.315696 0.76781011
5.599124 2.244139 0.84761059
5.5877957 2.2492378 0.84545958
5.6006918 2.2592463 0.84233946
5.5937915 2.2775228 0.85342652
5.5967679 2.2776356 0.83476985
5.5859079 2.2992935 0.851017
5.5906358 2.3023245 0.84509921
5.5765963 2.2980957 0.85228878
5.572238 2.3161733 0.84344453
5.5631118 2.321033 0.83673632
5.5605879 2.3375547 0.84043324
5.57019 2.3458776 0.84142578
5.5576301 2.3502367 0.84462816
5.5619392 2.3508461 0.83831245
5.5573249 2.3575935 0.84431946
5.5540428 2.3766534 0.844199
5.5469975 2.383625 0.83932823
5.5540233 2.3797512 0.84245193
5.5482278 2.3947239 0.83588117
5.3607974 2.3291636 0.91406578
5.3595324 2.3386879 0.91334552
5.3619537 2.3410518 0.91318953
5.3653569 2.3541048 0.9096384
5.3519526 2.3547263 0.91894698
5.352222 2.3540034 0.90725785
5.3384881 2.3732796 0.90688831
5.3446231 2.3688021 0.90575445
5.3458772 2.3746529 0.91301543
5.3302441 2.3980215 0.9075225
5.3280301 2.3900638 0.90337038
5.3363271 2.4040713 0.92126638
5.3238931 2.4037414 0.91405475
5.3312931 2.4300663 0.91242892
5.3151312 2.4262483 0.90396208
5.3082681 2.4259717 0.90731436
5.3097053 2.4352438 0.90248942
5.3107624 2.4539437 0.90573806
5.3106751 2.457201 0.90739328
5.2978387 2.4681392 0.9049775
5.2994995 2.4801874 0.9071691
5.1264787 2.4042103 0.98360163
5.121974 2.3985627 0.98461503
5.1102471 2.4236701 0.98453242
5.1168852 2.4159815 0.97321558
5.115046 2.4248052 0.97421074
5.116549 2.4384522 0.97707117
5.1132174 2.4365532 0.97122949
5.0931244 2.457974 0.98124772
5.094677 2.4499757 0.97481161
5.0938034 2.4670653 0.97303593
5.0951118 2.4650908 0.98755676
5.0851789 2.4819477 0.98928982
5.0762501 2.4904251 0.98899478
5.0872283 2.4888966 0.97388023
5.0868797 2.5088956 0.98046345
5.0675168 2.5137742 0.97357243
5.0710044 2.5187078 0.97766572
5.0686402 2.5269444 0.97606796
5.0562844 2.5201399 0.97936475
5.0574832 2.5358779 0.97264874
5.0568957 2.5363505 0.97686058
5.0508199 2.5503263 0.97083676
5.0464668 2.5588188 0.98620224
5.0418086 2.5617456 0.97295612
4.8742728 2.482465 1.0402943
4.8811831 2.4923871 1.0377741
4.8611932 2.4892821 1.0531188
4.8652873 2.5073085 1.0496366
4.867774 2.5164843 1.0522909
4.8535476 2.5103736 1.0436295
4.8525963 2.5272005 1.0483917
4.8558474 2.5414858 1.0400857
4.853065 2.5349629 1.0532331
4.8456383 2.5473363 1.0422732
4.8449564 2.5434916 1.0503279
4.8439398 2.5500121 1.0415148
4.8403935 2.5600066 1.0428115
4.8321829 2.5775688 1.0553542
4.8204803 2.5811002 1.0502974
4.8314228 2.5938983 1.0523591
4.8136945 2.5892467 1.0444821
4.8207188 2.5913572 1.0441297
4.8194275 2.6142061 1.0504984
4.811275 2.6131587 1.0424895
4.8121529 2.614969 1.0438899
4.8010759 2.6193118 1.0450698
4.8011765 2.6236665 1.0495082
4.8025646 2.643378 1.0447775
4.7964864 2.6549642 1.0568522
4.7853417 2.6610792 1.055004
4.6117029 2.5617049 1.1094515
4.614852 2.5840874 1.111635
4.6176395 2.5887935 1.1099614
4.6067872 2.5889711 1.1205394
4.6079168 2.5936599 1.106232
4.5904379 2.5909145 1.1095766
4.59413 2.611922 1.1105901
4.5822515 2.617979 1.1246347
4.5856333 2.6216283 1.12359
4.5810809 2.6178131 1.1219898
4.5746717 2.6285946 1.1057072
4.575037 2.6460965 1.1253765
4.5775776 2.649966 1.1233267
4.5784349 2.6465716 1.1150341
4.5698619 2.6479049 1.1250149
4.5669723 2.6553659 1.1058402
4.5674186 2.6701345 1.1212678
4.5488696 2.6766493 1.1163523
4.5443559 2.6901793 1.1086911
4.5387893 2.6827996 1.1108245
4.5516133 2.6926618 1.1173548
4.5481458 2.7065496 1.1150069
4.5443387 2.7066467 1.1101539
4.5384731 2.7112794 1.1155372
4.5243063 2.7110257 1.1158892
4.5201111 2.7315786 1.1173431
4.5167327 2.7362821 1.1072116
4.5087729 2.7461498 1.1172459
4.3550386 2.6575084 1.1821303
4.3546214 2.6445248 1.1856331
4.336329 2.6681056 1.1926646
4.3445582 2.6719677 1.187256
4.3304315 2.6757808 1.1756217
4.3314433 2.6774948 1.1823028
4.3378296 2.688817 1.1824181
4.3245597 2.6997287 1.1767793
4.3327351 2.6910551 1.1895422
4.310771 2.6982234 1.1858766
4.3188324 2.7163181 1.1849968
4.3041067 2.7176785 1.1850723
4.3128748 2.7244377 1.1826725
4.3086662 2.7231257 1.1780839
4.2990408 2.731395 1.1912627
4.2977729 2.7443924 1.180115
4.2831774 2.7475011 1.1742545
4.2886891 2.7410734 1.1732756
4.2885537 2.7665629 1.1775981
4.2811728 2.7538383 1.1830692
4.2701178 2.7729335 1.1806209
4.2781749 2.7810698 1.173524
4.2662988 2.7817497 1.1871823
4.2720151 2.7820051 1.1735301
4.2531343 2.7964265 1.1821539
4.2674236 2.7933805 1.1777874
4.2505574 2.7995479 1.190547
4.2478223 2.8150439 1.1909016
4.2441001 2.8142297 1.1907737
4.2446923 2.8298681 1.1919546
4.2307472 2.8182938 1.1862695
4.2343454 2.8386266 1.182765
4.2308383 2.8309424 1.17399
4.0648031 2.747818 1.2471887
4.0614324 2.754493 1.2412058
4.066678 2.7593415 1.2462426
4.0675492 2.7512155 1.2515181
4.061172 2.7642548 1.2463663
4.0551414 2.7774801 1.2544824
4.0489755 2.7752142 1.2523245
4.043982 2.782928 1.2526853
4.0332956 2.7781734 1.2474777
4.0390973 2.7938535 1.2486898
4.0361156 2.8036263 1.2459102
4.0186615 2.7938397 1.2441386
4.0152168 2.8131175 1.241554
4.0168009 2.8170934 1.2451872
4.023653 2.8185267 1.2562087
4.0053449 2.8177722 1.2548101
4.0151458 2.834702 1.2455055
4.0027804 2.8304968 1.2582799
3.9907682 2.8394716 1.2606705
3.9935405 2.8381217 1.2531172
3.9975173 2.8576725 1.2497182
3.9987066 2.8636587 1.2509193
3.9781168 2.8700974 1.245791
3.9749343 2.8620257 1.2590362
3.9753773 2.8847191 1.2481182
3.9668343 2.8730257 1.2508543
3.9768848 2.8950613 1.2449343
3.957623 2.8886681 1.249229
3.9511282 2.8942072 1.2569236
3.947016 2.9064705 1.2576993
3.955343 2.9066706 1.2524619
3.940263 2.9120274 1.2476526
3.9463768 2.9207697 1.2437297
3.9473546 2.9303126 1.2461879
3.9415696 2.9242895 1.2457982
3.924859 2.9337218 1.248179
3.930877 2.9372108 1.2470651
3.9309673 2.945452 1.2540336
3.764955 2.838062 1.3086855
3.7571776 2.8435373 1.3224239
3.7701685 2.8413768 1.3108547
3.7579148 2.848181 1.31914
3.7608442 2.8651519 1.3106712
3.7598436 2.8671603 1.3262545
3.7412941 2.8674519 1.3103296
3.7423472 2.8751085 1.3183575
3.745774 2.8728659 1.3244008
3.7280798 2.8948047 1.3132172
3.7373466 2.8852191 1.3223391
3.7335947 2.8918037 1.3116896
3.7235739 2.8953345 1.3136383
3.7219765 2.9105742 1.317156
3.7086573 2.9127131 1.3124141
3.706862 2.9178283 1.3244562
3.7006431 2.9283786 1.311571
3.6984918 2.9239736 1.3211288
3.7043612 2.9269943 1.3232366
3.6962667 2.9363267 1.3220807
3.6969814 2.9389396 1.3261428
3.686811 2.9418211 1.3115985
3.6859839 2.9587095 1.3153999
3.6670983 2.9580359 1.309261
3.6717231 2.9680853 1.320087
3.6715991 2.9603889 1.3108599
3.6635098 2.9705303 1.3270203
3.6625285 2.9825842 1.3136185
3.6510978 2.9845786 1.3180861
3.6617677 2.9825571 1.3267407
3.6512747 2.9853356 1.312868
3.6448364 3.0020363 1.3167427
3.643847 3.0020096 1.3123772
3.6266518 3.0072043 1.3222153
3.6233108 3.021138 1.3169858
3.6307886 3.0190687 1.3189487
3.6290321 3.0330386 1.3259474
3.6234293 3.0301626 1.3199003
3.6244175 3.0399983 1.3107537
3.6098664 3.0446534 1.3144975
3.6039627 3.0429726 1.3159373
3.6041794 3.0590172 1.3090013
3.5882638 3.0582433 1.3169681
3.5879757 3.0644522 1.3250647
3.5975187 3.0715048 1.3220359
3.5818253 3.0702274 1.3118848
3.5880876 3.0713928 1.3106563
3.5813417 3.0711613 1.3215103
3.5685418 3.0761313 1.3171645
3.5665884 3.0907702 1.3124443
3.5683718 3.1037328 1.3210193
3.5515883 3.1011462 1.3206211
3.5478616 3.1068852 1.3144373
3.5520949 3.1165843 1.3094563
3.5444179 3.1200814 1.3265281
3.5337052 3.1121471 1.3173283
3.5328345 3.1147444 1.324306
3.5307286 3.134872 1.3260701
3.5194695 3.1264825 1.3278278
3.5238581 3.1404293 1.3192545
3.5235195 3.1404564 1.3186797
3.511749 3.1480038 1.3105602
3.5195735 3.1561351 1.3232275
3.5012074 3.1528172 1.3206477
3.4978535 3.1661468 1.3166251
3.4915645 3.173095 1.3197342
3.496069 3.1635108 1.3205128
3.4875443 3.1761656 1.316497
3.4807768 3.1819134 1.319176
3.4757605 3.1964083 1.3108921
3.4821641 3.1949301 1.317732
3.4679861 3.206054 1.3272215
3.4656818 3.2093818 1.3199512
3.456038 3.1987295 1.3244777
3.4638078 3.2091162 1.3174547
3.4475482 3.2176135 1.312507
3.454391 3.2150218 1.3131083
3.4420059 3.2283187 1.3215038
3.4455981 3.2392683 1.3107924
3.4318626 3.2296283 1.3097279
3.4298365 3.2308254 1.3223432
3.4346437 3.2422848 1.3212466
3.4289339 3.255887 1.3186481
3.4159467 3.2642992 1.3205739
3.4074798 3.2649415 1.3280692
3.411983 3.2737916 1.3192508
3.4115322 3.2739582 1.3230361
3.3916759 3.2662203 1.3153199
3.4002085 3.286562 1.3137611
3.3980231 3.277662 1.3177764
3.3947666 3.2912369 1.3182092
3.3841188 3.294126 1.3253281
3.3723679 3.2958193 1.3212821
3.3780117 3.309046 1.3208877
3.3655748 3.2983329 1.3163812
3.3606269 3.3166571 1.3159769
3.366854 3.3190708 1.3109975
3.3568597 3.3261752 1.313545
3.3391428 3.3263657 1.3117051
3.3398607 3.3289313 1.3162428
3.3445871 3.3328071 1.309639
3.32974 3.3306086 1.3212146
3.3220053 3.341239 1.3097799
3.3302183 3.3420999 1.326875
3.3180301 3.3551171 1.3085665
3.3213294 3.3677857 1.323898
3.3042176 3.3712876 1.3169653
3.30212 3.3694079 1.3124658
3.3025634 3.3744304 1.3234922
3.3011606 3.3847966 1.3124256
3.2842891 3.3845212 1.3205831
3.2808073 3.3940372 1.3218966
3.2888949 3.3804641 1.3092015
3.2855413 3.399755 1.312735
3.2792764 3.3915162 1.3246596
3.2746966 3.4112406 1.3246336
3.2654419 3.3985243 1.3234966
3.2692482 3.4083877 1.3158736
3.248549 3.4233785 1.3086735
3.2588694 3.4216564 1.327246
3.2381172 3.4277594 1.3209565
3.2455161 3.4350836 1.3196031
3.2342222 3.4352047 1.3201028
3.2302268 3.4366877 1.3153267
3.2297587 3.4366281 1.3177513
3.2212088 3.456717 1.3153467
3.2126269 3.452286 1.3156787
3.2029016 3.4564025 1.3213335
3.2055471 3.4645672 1.3174453
3.2009864 3.4678059 1.3273077
3.1949918 3.4750526 1.3187525
3.1827013 3.4744642 1.3130077
3.1890516 3.4873548 1.3228768
3.1758952 3.4810288 1.3097284
3.1779566 3.4790199 1.3120264
3.1824362 3.4932525 1.3099263
3.1645052 3.5037012 1.3189147
3.1669002 3.5092282 1.3275459
3.1549437 3.5022111 1.3198745
3.1590927 3.5154495 1.3109818
3.1530981 3.5075159 1.3248818
3.1385422 3.512121 1.3137469
3.1382356 3.5279109 1.3110623
3.1277916 3.5353858 1.3176186
3.1241934 3.5297694 1.3177394
3.1228869 3.5334864 1.3276732
3.1194744 3.5441318 1.3236426
3.1050441 3.542038 1.320733
3.1192391 3.5528598 1.3264068
3.1057565 3.5527086 1.3209267
3.1033752 3.5514472 1.323127
3.094888 3.5605202 1.3255535
3.0952599 3.574183 1.3193982
3.092941 3.5623043 1.3163525
3.0771728 3.5717361 1.3233321
3.0815191 3.5847759 1.3096771
3.0757933 3.579324 1.3223231
3.0660307 3.5843687 1.3085375
3.0533528 3.5885413 1.3212429
3.0463428 3.6041701 1.3094733
3.0538466 3.6023624 1.3121252
3.043545 3.5970185 1.3195401
3.0356638 3.6170034 1.3163146
3.0416214 3.6196325 1.3169142
3.0245275 3.6114619 1.3226563
3.0344074 3.6326127 1.317156
3.0106261 3.6330185 1.3219284
3.019485 3.6286488 1.3274772
3.0145526 3.6365938 1.3129369
3.0023198 3.6425276 1.3097711
2.9983115 3.6409695 1.3205502
2.9969492 3.6541204 1.3217449
2.982996 3.6444068 1.3186911
2.9858115 3.665673 1.3140401
2.9692209 3.6548734 1.3169991
2.9783664 3.6589878 1.3168967
2.9620059 3.6643608 1.3129946
2.970412 3.6636388 1.3205246
2.9643612 3.6830359 1.3118085
2.9437644 3.6752577 1.3248419
2.939996 3.6885345 1.3121402
2.947001 3.685518 1.3084196
2.935195 3.6936235 1.3108224
2.9403296 3.6896253 1.3103356
2.9208074 3.694123 1.3149006
2.9242384 3.7128584 1.3194385
2.9075615 3.7003314 1.325215
2.9069767 3.7213147 1.3261421
2.9139163 3.7213566 1.3223461
2.8921342 3.7259173 1.326659
2.9033797 3.7318304 1.3201426
2.881918 3.7298753 1.3265114
2.87673 3.7412469 1.3168942
2.8739393 3.7428913 1.3191943
2.8706563 3.7501571 1.3219149
2.8719325 3.7460039 1.3193011
2.8577411 3.7503288 1.3200977
2.8693206 3.7592299 1.3178219
2.8618217 3.7602372 1.3115398
2.8505213 3.7646344 1.3257771
2.843528 3.765455 1.3218937
2.830013 3.7699974 1.3120286
2.8428614 3.7745409 1.309516
2.826087 3.7814882 1.3246354
2.8316071 3.7903528 1.3230159
2.8198423 3.7856994 1.3132457
2.8054585 3.7920661 1.32381
2.8118656 3.7952294 1.3192923
2.7959914 3.7961161 1.3118063
2.7938297 3.8109305 1.3247492
2.7858999 3.8039851 1.3145517
2.7940812 3.808764 1.3249428
2.772392 3.8116357 1.315931
2.7681849 3.8229833 1.3099275
2.8895082 3.9775198 1.2411932
2.8785775 3.9732933 1.2515448
2.8778706 3.979949 1.2443461
2.8677227 3.9782836 1.2564009
2.8530514 3.986021 1.2454402
2.8508887 3.9968796 1.245399
2.8416634 4.005096 1.2545251
2.8422348 4.0067873 1.2445499
2.8331921 4.0120883 1.2535737
2.9436245 4.1722751 1.1824161
2.9393404 4.1750412 1.1771873
2.93398 4.1724033 1.1837277
2.9189653 4.1745925 1.1929271
2.9167466 4.1721721 1.1764721
2.9065769 4.180625 1.1837734
2.9054408 4.1924648 1.1779596
2.9042578 4.2006345 1.1763965
2.9989634 4.3499279 1.1249033
2.9967034 4.3609028 1.1224245
2.9834614 4.3593888 1.1224014
2.9867198 4.3593826 1.1210581
2.9847436 4.3598137 1.1129997
2.9693019 4.3710337 1.1230605
2.9630539 4.3658433 1.1066393
2.960345 4.3762984 1.1146173
3.0499618 4.5476112 1.0427264
3.0485108 4.5475397 1.0426316
3.045491 4.5412369 1.0528102
3.0386355 4.5587273 1.0497937
3.0292952 4.5490346 1.0411019
3.0199258 4.5686655 1.0482514
3.0092075 4.572391 1.0516875
3.1139238 4.7239442 0.97454411
3.1049764 4.7382832 0.97574681
3.0996017 4.7360005 0.98328543
3.1021993 4.7443981 0.98185277
3.0805633 4.7376623 0.97610015
