# .PCD v0.7 - Point Cloud Data file format
VERSION 0.7
FIELDS x y z
SIZE 4 4 4
TYPE F F F
COUNT 1 1 1
WIDTH 1524
HEIGHT 1
VIEWPOINT 0 0 0 1 0 0 0
POINTS 1524
DATA ascii
-9.8802052 0.90371376 1.8210461
-9.8714304 0.90095484 1.8193219
-9.6831617 0.86521852 1.8550615
-9.6871738 0.84393781 1.8565381
-9.6918879 0.84546006 1.8577453
-9.6797256 0.81535912 1.8558828
-9.6940937 0.81333286 1.8447232
-9.690073 0.79092777 1.8420506
-9.6950855 0.77671653 1.8458995
-9.6864233 0.77900726 1.8523322
-9.6946058 0.75409633 1.8551939
-9.6916723 0.73920655 1.8491045
-9.690444 0.73598683 1.8585532
-9.6971149 0.70993865 1.8602561
-9.7022915 0.70034218 1.8570181
-9.7062407 0.68405432 1.8572176
-9.6920338 0.67452514 1.8489306
-9.7089682 0.67012548 1.8517802
-9.7085562 0.64180297 1.8539615
-9.7042761 0.64321351 1.8519781
-9.6935444 0.61749309 1.8586297
-9.6999321 0.61573935 1.8439392
-9.7123899 0.596228 1.8595778
-9.6953802 0.59104043 1.8427186
-9.6966486 0.56165326 1.8498147
-9.7011366 0.54927367 1.8541758
-9.7054062 0.53203917 1.8425623
-9.6979427 0.51879025 1.8601047
-9.707612 0.50685424 1.8428816
-9.7150803 0.50008017 1.8606272
-9.7045135 0.48490068 1.8462118
-9.7072754 0.46417755 1.8436033
-9.70471 0.45182139 1.8550451
-9.5080891 0.42839235 1.8785208
-9.5066938 0.41364747 1.882515
-9.5181837 0.41518328 1.8676945
-9.5052938 0.39319918 1.8692058
-9.5239992 0.37940833 1.8710355
-9.5251427 0.37666032 1.8744973
-9.5234919 0.34713644 1.8647542
-9.5240765 0.34885332 1.8734019
-9.5190573 0.32846266 1.8748975
-9.5166283 0.31127393 1.8776088
-9.5227394 0.31292579 1.8793526
-9.5090141 0.29655904 1.8796481
-9.5112772 0.2692697 1.874777
-9.5283413 0.25541908 1.8812201
-9.5238752 0.24339359 1.8671713
-9.517561 0.23073569 1.8836743
-9.5277662 0.22022223 1.8839538
-9.5276966 0.20959891 1.8792515
-9.518961 0.20445032 1.8674603
-9.5287104 0.18216795 1.8717827
-9.5157299 0.17419371 1.8710599
-9.5209875 0.1603449 1.867274
-9.5259304 0.14461565 1.869503
-9.515727 0.13218561 1.871186
-9.5190611 0.1245661 1.8741486
-9.5164251 0.10358678 1.877759
-9.5172682 0.092709512 1.8841619
-9.5178127 0.082191259 1.8732481
-9.5230408 0.060679656 1.8704925
-9.5200424 0.049670298 1.8787618
-9.5127029 0.031874616 1.8723643
-9.5260668 0.029036378 1.8654259
-9.5231981 0.0014511775 1.8760666
-9.5180826 0.0042478964 1.8675855
-9.5312643 -0.016130386 1.8647938
-9.5214663 -0.033732392 1.8743315
-9.528038 -0.052055113 1.8663009
-9.5281887 -0.050818946 1.8810614
-9.3206463 -0.073080987 1.891278
-9.3144312 -0.073645741 1.9001364
-9.3199301 -0.086822756 1.9045086
-9.3318071 -0.11333471 1.8993521
-9.3306046 -0.11696745 1.8999201
-9.3187428 -0.13549198 1.8965943
-9.3153448 -0.14722531 1.9061999
-9.3147192 -0.14920476 1.8915131
-9.3245392 -0.17781997 1.8918129
-9.3223705 -0.18666793 1.9066584
-9.3254232 -0.20666252 1.8909057
-9.3218994 -0.22055931 1.9076201
-9.3294992 -0.22008903 1.9041891
-9.3127089 -0.23164904 1.9072776
-9.3210573 -0.24217767 1.8997647
-9.3288183 -0.26103428 1.906758
-9.3198881 -0.27669987 1.8950487
-9.3213329 -0.29196626 1.8943905
-9.3174477 -0.29729569 1.898147
-9.3132439 -0.32071865 1.9060851
-9.3141756 -0.32747465 1.9070581
-9.3108425 -0.33100542 1.9071631
-9.3107767 -0.36245263 1.9007671
-9.3141241 -0.35744408 1.8958389
-9.5127869 -0.38943389 1.8697512
-9.5205107 -0.40153572 1.8814924
-9.5212221 -0.40509593 1.8705945
-9.5136242 -0.43050891 1.8774562
-9.5066662 -0.43246144 1.8720137
-9.7142925 -0.46033636 1.8525146
-9.7155895 -0.48019969 1.8429422
-9.7158937 -0.49720991 1.8428624
-9.716074 -0.51465249 1.8443582
-9.702632 -0.51595849 1.8438846
-9.9123859 -0.54910648 1.8290818
-9.9062481 -0.55975199 1.8191332
-9.908349 -0.57169187 1.8189211
-9.9013281 -0.57663542 1.8265921
-9.9074268 -0.59524083 1.8256056
-10.097154 -0.61620289 1.7960628
-10.10448 -0.64695758 1.8038853
-10.101357 -0.65870637 1.808267
-10.098296 -0.67134422 1.8087745
-10.291851 -0.70482516 1.7778848
-10.287709 -0.71723807 1.7821391
-10.294691 -0.72429347 1.78959
-10.291602 -0.73425013 1.778942
-10.486758 -0.77267021 1.7535319
-10.476149 -0.78363997 1.7470136
-10.486506 -0.78698951 1.7658218
-10.482726 -0.81855947 1.7479885
-10.491103 -0.82792222 1.7525181
-10.673025 -0.85120422 1.7348619
-10.676451 -0.8750928 1.7350503
-10.667086 -0.89583176 1.7372102
-10.871324 -0.92144102 1.7030393
-10.870189 -0.92839426 1.7169517
-10.879681 -0.95350277 1.7014885
-10.870902 -0.96909559 1.7097107
-11.066401 -0.99413937 1.6855786
-11.065266 -1.018834 1.688187
-11.061942 -1.0330609 1.6760831
-11.054068 -1.0524386 1.6913925
16.34528 -4.9726834 0.96798384
16.34483 -4.9503107 0.96851099
16.366508 -4.9355512 0.97522455
16.357641 -4.9009528 0.97017944
16.382656 -4.8771644 0.97521842
16.372175 -4.8659377 0.97985548
16.389885 -4.8337908 0.9726181
16.387089 -4.8219151 0.97614926
16.406868 -4.7881451 0.98091453
16.223852 -4.7123766 1.0054197
16.226696 -4.7000213 0.99770248
16.235853 -4.6750507 0.98954481
16.245506 -4.6553059 0.9933244
16.24184 -4.6312985 1.0088699
16.253099 -4.6091161 1.0053619
16.249365 -4.5842223 0.99022955
16.270235 -4.5483952 1.0043833
16.263836 -4.5421081 1.0075421
16.280937 -4.5027523 1.0015917
16.282772 -4.4824324 0.99294704
16.285421 -4.4658389 0.99402571
16.300323 -4.4466276 0.99743336
16.307034 -4.4242711 0.99793577
16.297493 -4.3920555 0.99978626
16.303467 -4.3750267 1.0011504
16.325899 -4.3481455 1.0047307
16.333168 -4.3267746 1.0014518
16.334558 -4.298152 1.001765
16.339077 -4.2787461 0.99872947
16.337612 -4.2637916 0.99330062
16.347473 -4.2324424 1.0017434
16.358377 -4.2124152 1.0066674
16.352659 -4.1918678 0.99120867
16.367413 -4.1670208 1.0052176
16.363983 -4.1423287 0.99349892
16.381886 -4.1212997 1.0058966
16.383339 -4.0990658 0.99689156
16.381479 -4.0814738 0.99372751
16.3999 -4.0453644 1.007179
16.395256 -4.0366883 0.99278611
16.212261 -3.9568191 1.0305941
16.210501 -3.9394898 1.0219556
16.213631 -3.9137526 1.031041
16.221272 -3.8991048 1.0221416
16.242891 -3.8736963 1.0150945
16.232758 -3.8561628 1.0262285
16.254992 -3.8229239 1.0167403
16.24819 -3.7972586 1.0219802
16.25819 -3.7788539 1.0204573
16.261612 -3.7507451 1.0247306
16.270609 -3.7383614 1.018714
16.273724 -3.7132599 1.0274001
16.268167 -3.6905167 1.0191897
16.291666 -3.6655908 1.0229855
16.286234 -3.6444728 1.0295405
16.29372 -3.6188817 1.0309725
16.292311 -3.59642 1.022979
16.301382 -3.5660927 1.017979
16.31566 -3.5510638 1.0287045
16.308384 -3.5378819 1.0248522
16.32535 -3.5009401 1.0306896
16.316267 -3.4860885 1.0189272
16.335838 -3.4619658 1.0271995
16.327168 -3.439487 1.0176823
16.34226 -3.4075511 1.0265601
16.343878 -3.3932054 1.0182989
16.346893 -3.3653159 1.0297624
16.341885 -3.3533709 1.0288091
16.351843 -3.3321307 1.0201336
16.352497 -3.303118 1.0218819
16.369265 -3.2820597 1.0178074
16.37184 -3.2549725 1.0258124
16.38262 -3.23317 1.0151615
16.381639 -3.2048631 1.0242041
16.391111 -3.1862557 1.0223907
16.389427 -3.1707928 1.0321242
16.399452 -3.1370428 1.0269417
16.400908 -3.1129987 1.030892
16.401379 -3.1036613 1.0132642
16.413141 -3.0783043 1.0218239
16.211393 -3.0043499 1.0522689
16.220716 -2.989095 1.0433047
16.413338 -3.0034835 1.0296403
16.615377 -3.0228128 1.0014323
16.631102 -3.0012598 0.99263328
16.820454 -3.0008991 0.97277558
17.019604 -3.0143793 0.94379866
17.018064 -2.9957156 0.95964867
17.216063 -2.9951763 0.91829628
17.416494 -3.0066428 0.89941317
17.625547 -3.0283663 0.87515998
17.625685 -2.9909933 0.8871935
17.83263 -3.013648 0.85443252
18.029629 -3.0132802 0.83504367
18.222136 -3.0208466 0.81401789
18.229952 -3.0058265 0.8088823
18.437525 -3.0034287 0.77792746
18.639833 -3.0062273 0.76188278
18.838043 -3.010272 0.736866
19.03861 -3.0131905 0.71031922
19.047836 -2.9954572 0.71509153
19.232641 -2.992491 0.68898195
19.429527 -3.0020158 0.6687699
19.637358 -3.0140381 0.63692564
19.849504 -3.0131068 0.62496185
20.044327 -3.0080214 0.60257787
-10.01421 1.4882717 1.8734641
-10.021087 1.4760119 1.8779383
-10.027055 1.4562521 1.8789734
-10.020008 1.4505123 1.8675588
-10.016947 1.4300756 1.883956
-10.024641 1.4235088 1.8813113
-10.03598 1.4043857 1.8864925
-10.041144 1.3910106 1.8812555
-10.042342 1.382313 1.881065
-10.032942 1.361251 1.8778945
-10.030113 1.3610691 1.8844469
-10.045985 1.3360665 1.8727422
-9.8402758 1.3013779 1.8974898
-9.850564 1.2817836 1.9082996
-9.8522472 1.2672477 1.8926841
-9.8575144 1.2469964 1.904516
-9.8454075 1.2373651 1.8912416
-9.8480997 1.2245084 1.8986117
-9.8560095 1.2123736 1.8913064
-9.8640909 1.1915395 1.8969641
-9.8553228 1.1954149 1.8964676
-9.8599834 1.165279 1.9049987
-9.8563299 1.165606 1.8986288
-9.8701162 1.137431 1.9064249
-9.8730726 1.1293395 1.8934478
-9.8716259 1.1177286 1.8939844
-9.8583279 1.0999537 1.8986573
-9.8782845 1.081196 1.9042435
-9.8708525 1.0762186 1.891467
-9.8707056 1.0648311 1.8916312
-9.8648825 1.0438628 1.9094479
-9.8795366 1.0398663 1.8909079
-9.8856401 1.0211369 1.9064764
-9.8780947 1.0102158 1.9076537
-9.8827333 0.99791265 1.8945255
-9.8803301 0.98861223 1.9035746
-9.8773708 0.97414637 1.9086391
-9.889719 0.96124065 1.9087384
-9.876462 0.93726528 1.8976549
-9.8759623 0.93491501 1.9089806
-9.6973352 0.9018153 1.9153432
-9.6987915 0.87381053 1.9293036
-9.6987686 0.8611232 1.9183373
-9.6831579 0.85738349 1.9302547
-9.6863508 0.83038759 1.9236755
-9.7026539 0.82715833 1.9216046
-9.689888 0.80823243 1.9188783
-9.6920395 0.79828274 1.9170586
-9.6940727 0.78289551 1.9250778
-9.7071695 0.7692942 1.9245626
-9.7089224 0.75764316 1.9227978
-9.7065001 0.74575907 1.9265714
-9.7100992 0.73510188 1.9312024
-9.7046442 0.72124022 1.9256403
-9.7072544 0.70535135 1.9266306
-9.6964235 0.69430709 1.9179412
-9.7076454 0.67715657 1.9238775
-9.7015743 0.65896428 1.9134169
-9.7173042 0.63982952 1.9211235
-9.7049961 0.62866896 1.9287848
-9.7131834 0.6168083 1.9183526
-9.7031174 0.60840362 1.9295951
-9.709259 0.59741557 1.9237409
-9.7107496 0.57287776 1.9175868
-9.7177839 0.56670761 1.929107
-9.7238092 0.55232596 1.9231473
-9.7185049 0.5476619 1.9136029
-9.7072449 0.52998912 1.9194335
-9.7064276 0.517488 1.9196975
-9.7178841 0.49817777 1.9223708
-9.7216597 0.49154323 1.9267541
-9.7158489 0.47581965 1.9163049
-9.5202255 0.4456073 1.9506474
-9.5289764 0.44416112 1.9518199
-9.5238619 0.41646853 1.9403977
-9.5272093 0.40351978 1.9481704
-9.5164976 0.39662558 1.9448568
-9.5153122 0.38172212 1.937449
-9.5282774 0.36834884 1.9511198
-9.5209599 0.36421242 1.9390609
-9.5309496 0.33697417 1.9539492
-9.5165386 0.33620191 1.9466964
-9.5325575 0.31313822 1.951988
-9.5164223 0.30192888 1.9491404
-9.5190954 0.29641983 1.9519082
-9.5331726 0.26813123 1.9350359
-9.5194588 0.27110347 1.944579
-9.5290394 0.25579223 1.9525288
-9.5260096 0.22802803 1.9404165
-9.5292902 0.22807501 1.9374793
-9.5246115 0.21860644 1.9406163
-9.5250254 0.2040057 1.936294
-9.5326738 0.19382364 1.9422216
-9.5350113 0.18019624 1.9502542
-9.5201788 0.16429608 1.9460926
-9.5225592 0.13470098 1.9469577
-9.5217934 0.13918374 1.9441109
-9.5314665 0.1144307 1.9392693
-9.5331707 0.11303407 1.9399803
-9.526968 0.088664673 1.9540555
-9.5236855 0.069263704 1.95198
-9.5372458 0.069719464 1.9486217
-9.5351105 0.042779181 1.9484
-9.527029 0.033734441 1.9478697
-9.5308962 0.01973772 1.9447582
-9.5389071 0.0035568262 1.945371
-9.5260334 -0.01168046 1.9437863
-9.5359879 -0.01643105 1.9507685
-9.5307655 -0.022745064 1.9496741
-9.3260536 -0.041643243 1.9597371
-9.3260098 -0.057968508 1.961513
-9.328023 -0.067769729 1.9570653
-9.3333769 -0.075369172 1.9589982
-9.3389339 -0.094839148 1.965207
-9.3250027 -0.098147042 1.9707398
-9.3341646 -0.12945449 1.9734128
-9.3226967 -0.12789635 1.9741691
-9.3327942 -0.13631941 1.9634957
-9.3358917 -0.15956524 1.9598292
-9.340065 -0.17692278 1.9694935
-9.3363638 -0.19431673 1.9758756
-9.3308687 -0.19382261 1.9654995
-9.3298025 -0.21879862 1.9605666
-9.326786 -0.22946654 1.9692066
-9.3375425 -0.24635674 1.967581
-9.3227472 -0.25258064 1.9676901
-9.3252611 -0.26752537 1.9623995
-9.3270006 -0.27277559 1.9617273
-9.3193951 -0.28134912 1.9708507
-9.3354378 -0.29434034 1.9756577
-9.3217983 -0.32389268 1.9761113
-9.3217583 -0.32823008 1.9700994
-9.3320761 -0.33180019 1.9721514
-9.3273087 -0.35267019 1.9565749
-9.3338833 -0.36463127 1.9571474
-9.3220654 -0.38215053 1.9645343
-9.528698 -0.41113704 1.9478081
-9.5220127 -0.41394767 1.9410758
-9.5159807 -0.42956045 1.9388068
-9.5208073 -0.44164193 1.9365828
-9.5208082 -0.46052781 1.9378424
-9.7188501 -0.46980396 1.9255933
-9.7243586 -0.50018758 1.9250149
-9.7077951 -0.5063023 1.9166001
-9.70679 -0.51950818 1.9292575
-9.9036474 -0.5525074 1.8952215
-9.914629 -0.56331462 1.8960189
-9.9201107 -0.56802005 1.9073137
-9.9123058 -0.58729583 1.8963029
-9.9067507 -0.59201849 1.906517
-10.101771 -0.6298427 1.8689443
-10.097124 -0.6356684 1.8675745
-10.1025 -0.64769214 1.8694017
-10.108435 -0.66386193 1.8786941
-10.301064 -0.69332361 1.846153
-10.302697 -0.70864284 1.8474734
-10.29614 -0.71572518 1.8518404
-10.288765 -0.72909021 1.8453546
-10.290075 -0.75547034 1.8534446
-10.500576 -0.79208803 1.8284558
-10.502622 -0.79153699 1.8341602
-10.500013 -0.80723429 1.8281639
-10.498755 -0.82922274 1.8242674
-10.693761 -0.85414076 1.816117
-10.681319 -0.87855941 1.8084019
-10.679191 -0.8856048 1.8197643
-10.675721 -0.90710652 1.8184394
-10.885884 -0.93943334 1.7959367
-10.884467 -0.95723432 1.7836527
-10.874939 -0.96841007 1.784095
-11.066119 -1.0007421 1.7575481
-11.073602 -1.0138817 1.7721747
-11.067059 -1.0269179 1.7594756
-11.06439 -1.0380236 1.7725797
16.360931 -4.9774351 1.1100091
16.375429 -4.9581289 1.1015197
16.381258 -4.9366064 1.1064613
16.385731 -4.9085011 1.0911732
16.389874 -4.8802977 1.0932896
16.401701 -4.8639073 1.0994339
16.39394 -4.8421121 1.1064435
16.211138 -4.7530541 1.1179962
16.21352 -4.7353029 1.1297804
16.223171 -4.7163348 1.125931
16.245895 -4.7020946 1.1176691
16.252209 -4.6802974 1.125881
16.250002 -4.6595802 1.1127734
16.252705 -4.6212687 1.1249199
16.260088 -4.605659 1.1224084
16.269554 -4.5850353 1.1134168
16.285135 -4.5589547 1.1233405
16.287693 -4.5317583 1.1232793
16.279566 -4.5088196 1.118337
16.303192 -4.4828372 1.1297206
16.302935 -4.4607077 1.1126931
16.314386 -4.4388094 1.1148028
16.314016 -4.425631 1.11496
16.320507 -4.3962321 1.1307499
16.319113 -4.3858995 1.119462
16.335176 -4.3525181 1.1261014
16.342215 -4.3299432 1.1161156
16.339146 -4.3111649 1.1306117
16.355984 -4.2868371 1.1253232
16.347847 -4.2651758 1.1232847
16.371063 -4.25003 1.1206348
16.37722 -4.2096624 1.1171337
16.365454 -4.1958609 1.1240525
16.373812 -4.1617327 1.1176035
16.37793 -4.1551318 1.118711
16.390728 -4.1185694 1.1304159
16.390133 -4.1010375 1.1219033
16.399519 -4.0726123 1.1293678
16.210453 -4.0055046 1.1405572
16.228918 -3.9806268 1.1483834
16.225311 -3.9584758 1.1485288
16.239023 -3.9360793 1.1462075
16.229204 -3.9113274 1.134845
16.246271 -3.904063 1.1347597
16.256857 -3.8784964 1.1384162
16.24852 -3.8459153 1.1357677
16.251856 -3.8196802 1.1477759
16.266645 -3.8097775 1.145326
16.268871 -3.7817109 1.1392422
16.280046 -3.7607687 1.1354064
16.279015 -3.7289898 1.1510839
16.278099 -3.709024 1.1465129
16.29483 -3.6843724 1.1440406
16.300165 -3.6681161 1.1461719
16.305386 -3.6467044 1.1512016
16.314228 -3.6190298 1.1461365
16.320393 -3.5933871 1.1446229
16.318533 -3.5782895 1.1503211
16.31419 -3.546272 1.1413878
16.323734 -3.5283523 1.1506908
16.329409 -3.5167036 1.1490597
16.33073 -3.4911811 1.1446738
16.347448 -3.4741058 1.1422122
16.341661 -3.4368403 1.1532718
16.357975 -3.4194701 1.1430011
16.359285 -3.3983386 1.137656
16.355499 -3.3760943 1.135197
16.370169 -3.3407292 1.1450726
16.370504 -3.3346932 1.1441952
16.381874 -3.30407 1.1384604
16.382515 -3.2726955 1.14159
16.381493 -3.2648923 1.1474512
16.396053 -3.2452314 1.1475899
16.388119 -3.2161853 1.1421895
16.391214 -3.1956224 1.151348
16.404005 -3.1585135 1.1388201
16.216236 -3.1123714 1.167918
16.221107 -3.0940864 1.1673434
16.215822 -3.0601358 1.1699671
16.22963 -3.039453 1.1603696
16.217669 -3.0227351 1.1592959
16.228807 -2.9916134 1.1631682
16.441267 -3.0063894 1.1416315
16.633932 -3.013063 1.126271
16.625673 -3.0052047 1.1308035
16.842182 -3.0040977 1.1073561
17.026228 -3.0194442 1.0696102
17.041491 -2.9991527 1.0697335
17.231932 -3.0027211 1.0589727
17.445059 -3.0162034 1.0262605
17.452768 -2.9916043 1.0298324
17.6353 -2.9935277 1.0196736
17.841761 -3.0021081 0.98800278
18.048948 -3.0172074 0.96237046
18.046974 -2.99159 0.96359324
18.245607 -3.001642 0.93559778
18.443056 -3.0069821 0.92358482
18.645018 -3.0207186 0.90808976
18.847157 -3.0234261 0.87952363
18.844501 -3.0012145 0.86962634
19.047638 -2.9864874 0.85778379
19.254395 -3.0087781 0.83313084
19.453247 -3.0042145 0.80845696
19.662683 -3.0121267 0.7966904
19.848738 -3.0056684 0.7653591
20.056061 -3.0203075 0.75114948
-10.025559 1.4755 1.9566582
-10.021216 1.4578465 1.9459538
-10.02411 1.4454216 1.9425694
-10.033603 1.4438727 1.9507751
-10.033322 1.4158489 1.9433008
-10.036768 1.4011371 1.9543271
-10.048222 1.3990433 1.9569523
-10.03622 1.3774652 1.9519213
-10.040813 1.3724811 1.9553008
-10.037252 1.343032 1.9463201
-9.8461103 1.3154167 1.9736974
-9.8528481 1.3005085 1.9766849
-9.8502712 1.2847261 1.9812671
-9.851059 1.2614504 1.9783226
-9.8636227 1.260435 1.9813796
-9.8636408 1.237934 1.9637527
-9.8526134 1.2259201 1.9780629
-9.8589411 1.2078297 1.9648281
-9.8702812 1.2070469 1.9806454
-9.858223 1.1917071 1.9810522
-9.8751259 1.1721649 1.9739356
-9.8653851 1.1676917 1.9656794
-9.8726377 1.1475831 1.9754118
-9.875289 1.1284547 1.9756421
-9.8808651 1.1185123 1.9686328
-9.8833647 1.1102817 1.972901
-9.8834724 1.094789 1.9789361
-9.8692513 1.0746597 1.9806639
-9.8882446 1.0648627 1.9753945
-9.8914022 1.0487775 1.9685732
-9.8741331 1.0374234 1.976
-9.8839617 1.0174245 1.9727458
-9.8820267 1.0117683 1.9631777
-9.8903408 1.0050372 1.9682782
-9.8984051 0.97428668 1.9772353
-9.8934584 0.96257359 1.9717631
-9.8842249 0.95227134 1.9646016
-9.888937 0.9376899 1.9711162
-9.6938276 0.90727168 2.0023947
-9.7020178 0.89375651 1.9906443
-9.69701 0.87895167 2.0013514
-9.7045565 0.87574059 1.9858733
-9.6953382 0.85586703 1.9985548
-9.6956682 0.84906358 1.9983227
-9.7108803 0.83556032 2.0011597
-9.6971159 0.80834818 1.9861048
-9.7088041 0.79169524 1.994571
-9.7076349 0.79163677 2.0022807
-9.6999331 0.7699005 1.9917223
-9.7016869 0.76121712 2.0012009
-9.7151709 0.73876542 1.9894285
-9.7179298 0.729972 1.9880005
-9.7161484 0.71158284 2.0002563
-9.7216654 0.71402985 1.9992673
-9.7073956 0.68241352 1.9983356
-9.7102709 0.68569106 1.9837538
-9.7081814 0.65839028 1.9860828
-9.7176075 0.65334964 2.0019186
-9.7193041 0.63708383 1.9895846
-9.7115402 0.62011814 2.0021355
-9.7142782 0.61070228 1.9858042
-9.7287712 0.59954333 1.9942508
-9.7246723 0.59116328 1.9978805
-9.7282982 0.57824361 1.9975311
-9.7128944 0.5605523 1.9991406
-9.7184038 0.54092616 1.9976043
-9.7184763 0.52431041 2.0023448
-9.7161999 0.5191713 1.9956239
-9.7180691 0.49321866 1.9862177
-9.732254 0.49589413 1.9934273
-9.7338686 0.47667626 1.9848037
-9.7317944 0.46379262 1.9986051
-9.7212563 0.45581529 1.9976116
-9.7270689 0.42499998 1.9972847
-9.7332115 0.4103578 1.9928536
-9.7377262 0.41095713 2.0023849
-9.7237577 0.39221618 1.9888897
-9.7250299 0.37646398 1.9838458
-9.7330036 0.35953617 1.9864408
-9.7303648 0.34909889 1.9853034
-9.7404976 0.33770311 1.9985415
-9.7392349 0.32901755 1.9924902
-9.7241516 0.31148878 1.9920565
-9.7300434 0.28874654 1.9944034
-9.7362432 0.28044149 1.9957049
-9.7268543 0.2681832 1.9912032
-9.7279158 0.25043526 2.0015588
-9.7424526 0.2519384 1.9897612
-9.7420149 0.22597173 1.9946357
-9.7389631 0.22312897 2.0026734
-9.73703 0.21061975 1.9929162
-9.7418394 0.17982054 1.9880753
-9.7326813 0.1645328 1.999308
-9.7439384 0.16376303 2.0014014
-9.7328291 0.13718429 1.9887933
-9.7403994 0.1403656 1.9975308
-9.7324524 0.12283816 2.002125
-9.7341309 0.11110689 2.0018272
-9.7275877 0.10012796 1.9891685
-9.7361507 0.072496265 1.9872727
-9.7366581 0.067074537 1.9864742
-9.7469025 0.057100877 1.988483
-9.7419691 0.036523912 1.988811
-9.7457848 0.024909997 2.0019767
-9.7274876 0.0046060709 2.0021713
-9.7417793 -0.0030863672 1.999155
-9.7273149 -0.022668986 1.9922196
-9.7282372 -0.023786109 1.9871612
-9.7294378 -0.038235232 1.9847323
-9.7432785 -0.061141908 1.9882804
-9.7389956 -0.06446851 2.0000157
-9.7354927 -0.077972114 1.9953862
-9.7299614 -0.10649358 1.9837888
-9.7440834 -0.1188002 1.9941866
-9.7450209 -0.13279857 1.9978896
-9.7457447 -0.14109679 1.9875093
-9.7294655 -0.15495726 1.9911554
-9.7401037 -0.16978577 1.9872934
-9.7357807 -0.18587995 2.0025911
-9.7338667 -0.19589862 1.9885913
-9.7283869 -0.20173746 1.9848734
-9.7311525 -0.22419508 2.0012605
-9.7385283 -0.24126263 2.0027344
-9.7374821 -0.25261196 1.9855101
-9.7260199 -0.26507744 1.9878953
-9.730835 -0.27846441 1.9955899
-9.7260122 -0.29578909 2.0030313
-9.737524 -0.303987 1.9892514
-9.7328787 -0.30811656 1.9929839
-9.7329168 -0.33060655 2.0003042
-9.7269354 -0.34790882 1.9953915
-9.7246532 -0.34828803 2.0016267
-9.7259645 -0.37637362 1.9843996
-9.7257833 -0.38376293 1.9894277
-9.7228079 -0.40005812 1.9955944
-9.7374277 -0.40155625 2.0019777
-9.7243338 -0.41863763 1.9846393
-9.7237806 -0.44765612 1.9927055
-9.7169867 -0.4524737 1.9902439
-9.7264423 -0.45779249 1.9988936
-9.7285585 -0.47761241 1.9838415
-9.7155685 -0.49565133 2.0020101
-9.7163239 -0.51552206 1.9856921
-9.7142878 -0.51575065 1.9955833
-9.7272043 -0.53356141 2.0027769
-9.9125309 -0.55793184 1.981316
-9.9128437 -0.57871938 1.9771229
-9.9104757 -0.57956779 1.9775065
-9.920022 -0.59425712 1.9666668
-10.110539 -0.63152617 1.9433485
-10.113841 -0.63938886 1.954556
-10.112175 -0.65495211 1.961316
-10.112321 -0.67198062 1.9417957
-10.108766 -0.68770158 1.9556365
-10.313736 -0.710944 1.9245018
-10.313036 -0.72810394 1.9346999
-10.313024 -0.74637806 1.9379741
-10.297185 -0.76310474 1.9342623
-10.499298 -0.78518301 1.9089693
-10.493854 -0.80542088 1.9134922
-10.490954 -0.80985683 1.9042884
-10.496827 -0.83354306 1.9136562
-10.694188 -0.85438371 1.8793759
-10.692758 -0.87682796 1.8842601
-10.697465 -0.88678038 1.8938898
-10.692533 -0.89704752 1.8807662
-10.895558 -0.92551684 1.8630203
-10.897089 -0.94229841 1.8637046
-10.882309 -0.96391177 1.8716779
-10.892048 -0.98119652 1.874091
-11.07532 -1.0150043 1.8459909
-11.089672 -1.0378312 1.8496321
-11.074635 -1.0409271 1.8431783
16.377138 -4.9864364 1.2266322
16.389027 -4.9569392 1.2176758
16.390512 -4.9437642 1.2333966
16.398842 -4.9167137 1.2327707
16.390148 -4.8925133 1.2305807
16.211447 -4.8181448 1.2427462
16.231268 -4.7918739 1.2520876
16.233469 -4.7721825 1.2411194
16.228292 -4.7482738 1.2428107
16.246727 -4.7307801 1.2368906
16.258675 -4.6932287 1.2435677
16.256639 -4.6707354 1.2368917
16.265617 -4.6536703 1.2405307
16.270285 -4.6351576 1.2483507
16.274294 -4.6121898 1.2374922
16.276081 -4.5840826 1.2413837
16.289249 -4.5628629 1.2489136
16.291727 -4.5461173 1.253494
16.303205 -4.5211926 1.2393326
16.316343 -4.4844484 1.2400048
16.303528 -4.4623375 1.2555594
16.317358 -4.4488111 1.2509291
16.324482 -4.4328251 1.2406763
16.335213 -4.3986592 1.2462397
16.333731 -4.3869386 1.2520653
16.341358 -4.3598537 1.2432835
16.352846 -4.3259926 1.2529981
16.351833 -4.3160138 1.236726
16.355368 -4.2808852 1.242637
16.364708 -4.2589159 1.2425424
16.374689 -4.2360258 1.2417994
16.380194 -4.2255378 1.2518152
16.381035 -4.1941285 1.2550406
16.391592 -4.1781583 1.2496473
16.407681 -4.1498075 1.2531807
16.216696 -4.071238 1.26175
16.209696 -4.056221 1.2606167
16.212379 -4.0282607 1.266643
16.21876 -4.0027766 1.2649705
16.23102 -3.9939306 1.2624314
16.243153 -3.96105 1.2599381
16.254511 -3.9485805 1.26508
16.255854 -3.9211526 1.2587706
16.260389 -3.9090188 1.2655623
16.259501 -3.8666162 1.2578276
16.262114 -3.8481188 1.2570807
16.272512 -3.8223088 1.2687268
16.281744 -3.7994714 1.2657013
16.276972 -3.7758787 1.2655201
16.290495 -3.76562 1.2715372
16.301447 -3.7487898 1.2677795
16.289873 -3.726131 1.2738278
16.303411 -3.687628 1.2646333
16.310608 -3.6700556 1.2648939
16.304564 -3.6588068 1.264871
16.310753 -3.6303484 1.2606516
16.316164 -3.5968642 1.2595409
16.333189 -3.579488 1.2585588
16.327156 -3.5521932 1.258453
16.340912 -3.5366521 1.2658824
16.340651 -3.5154042 1.267411
16.356602 -3.490943 1.26886
16.358568 -3.4581263 1.2660663
16.351309 -3.4432635 1.2580923
16.364279 -3.4195633 1.2586069
16.377193 -3.3947601 1.2648129
16.365856 -3.3696012 1.2617288
16.373377 -3.3524404 1.2732397
16.379883 -3.326303 1.2692572
16.386251 -3.3113706 1.2580205
16.400019 -3.2816257 1.2652293
16.395281 -3.2608268 1.2740906
16.391962 -3.2429249 1.2729529
16.405817 -3.2171149 1.2638552
16.216433 -3.1450088 1.2963815
16.22271 -3.1231568 1.2901217
16.215162 -3.1173787 1.2861782
16.224501 -3.0887849 1.2965465
16.225315 -3.0583577 1.2901962
16.242117 -3.0462031 1.295916
16.247652 -3.0248916 1.2885116
16.240362 -2.9928944 1.2790312
16.43755 -3.0047071 1.2638178
16.653666 -3.0266328 1.2515264
16.645006 -2.9912477 1.2510729
16.843884 -3.0091054 1.2290902
17.056564 -3.0183291 1.2102519
17.049475 -3.0074251 1.1981205
17.248661 -3.0143111 1.1930169
17.461557 -3.0281179 1.1574159
17.464201 -2.9863262 1.1612215
17.655489 -3.0095134 1.1336071
17.857353 -3.0147882 1.1274544
18.064817 -3.0232875 1.0920981
18.064577 -2.9914486 1.1096524
18.260117 -2.993094 1.0804862
18.454481 -3.0015485 1.0534341
18.670813 -3.0207551 1.0334938
18.855066 -3.0203459 1.0171733
18.878576 -2.9953799 1.0177517
19.06369 -3.0029931 0.99501163
19.272659 -2.9990249 0.97820413
19.474815 -3.0129554 0.96468848
19.671618 -3.0192447 0.93068612
19.873865 -3.0094311 0.92332083
20.073709 -3.0039678 0.90148938
-10.256297 1.3846631 2.010607
-10.25474 1.3862228 2.0117071
-10.254472 1.3594799 2.0037439
-10.264109 1.345734 2.0112627
-10.246565 1.3445191 2.0086362
-10.251862 1.3149878 1.9990746
-10.252033 1.303584 2.0114875
-10.25767 1.2902598 2.0108845
-10.269866 1.2773286 2.0112629
-10.261055 1.2669386 2.0067465
-10.260283 1.2547863 2.0071268
-10.267857 1.2461118 2.0033913
-10.274311 1.2196059 2.0072398
-10.268708 1.2053435 2.0116723
-10.275566 1.1904849 2.0092225
-10.285031 1.1721698 2.0115762
-10.284038 1.155504 1.9968637
-10.27061 1.1550008 2.0031672
-10.277766 1.1440833 2.0108819
-10.284524 1.1237369 2.0025518
-10.275779 1.105903 2.0164168
-10.286633 1.1022155 2.0159571
-10.281201 1.0737745 2.0033441
-10.291902 1.0726168 2.0108232
-10.29815 1.0462614 1.9978008
-10.286828 1.0320816 2.0008225
-10.293132 1.020516 2.0015402
-10.294128 1.0039775 2.0161185
-10.288801 1.0018631 2.0141451
-10.295739 0.97455138 2.0061939
-10.290987 0.95752573 2.0147791
-10.29235 0.95116657 2.0140495
-10.294152 0.93173826 1.9992535
-10.308548 0.9230895 1.9976766
-10.295444 0.90965289 2.0041232
-10.295342 0.88897848 2.0107708
-10.3122 0.88342005 2.0002356
-10.308318 0.85826516 2.0075469
-10.309839 0.83981723 2.0071304
-10.313313 0.83579105 2.0137908
-10.304717 0.81785655 1.9978164
-10.307517 0.79987872 2.0098751
-10.311026 0.781398 1.9968997
-10.309311 0.76980132 2.0096717
-10.309153 0.75256795 2.0034049
-10.322527 0.75667542 2.0108631
-10.309235 0.72514564 2.0071645
-10.326457 0.71869606 2.0127137
-10.316348 0.71190512 2.0142198
-10.326635 0.68279964 2.0061059
-10.310242 0.68342823 2.0144656
-10.329803 0.66237628 1.9992567
-10.317285 0.63891411 1.9999782
-10.317722 0.6382457 2.0035157
-10.325367 0.61879426 2.0042336
-10.319259 0.60700637 2.0034747
-10.325672 0.58952957 2.0056028
-10.335765 0.57582885 2.0156999
-10.320287 0.55321538 2.0134256
-10.323283 0.54127282 1.996467
-10.334373 0.52666169 2.0145593
-10.337084 0.51340753 2.0060234
-10.334983 0.49356899 2.0084503
-10.33214 0.49417076 2.0046351
-10.32574 0.46798483 2.0157957
-10.338602 0.4687444 2.0095973
-10.332202 0.44390783 2.0003517
-10.323654 0.42977634 2.0118363
-10.324989 0.4118993 2.0151393
-10.328578 0.39178279 2.0009332
-10.329105 0.381313 2.0065498
-10.331521 0.36884955 2.0133474
-10.342451 0.35918361 2.0147426
-10.330935 0.35303679 2.0111766
-10.343213 0.3339465 2.0158627
-10.344312 0.32263076 2.0157473
-10.331588 0.29833066 2.0052352
-10.328089 0.28317437 2.0150321
-10.333086 0.26725891 2.0013936
-10.33476 0.24831009 2.0020807
-10.330619 0.24936929 2.0067408
-10.340842 0.22852889 2.0133815
-10.344247 0.21725303 2.0048008
-10.346236 0.19796865 2.004518
-10.331772 0.18686052 1.9995911
-10.332602 0.17508937 1.9977946
-10.333526 0.15645671 2.0061452
-10.344942 0.14171697 2.0137868
-10.346541 0.12235481 1.9999613
-10.341759 0.12167339 2.0016356
-10.336269 0.10546638 1.9988179
-10.346099 0.079350486 2.0096095
-10.349268 0.070123337 2.0035751
-10.340998 0.059180152 2.0127068
-10.33299 0.042954978 2.0051811
-10.349889 0.026133969 2.0003352
-10.348564 0.0086017596 2.0113082
-10.338869 -0.00015381095 2.0019929
-10.341512 -0.010335745 2.0077677
-10.337959 -0.035582624 2.0073128
-10.332713 -0.055207305 2.0051036
-10.350265 -0.064549401 2.0112307
-10.337004 -0.076968282 2.0025835
-10.349757 -0.081044748 1.9974458
-10.333359 -0.097061314 2.0105357
-10.344465 -0.10994502 2.0012577
-10.340399 -0.14149226 2.0089004
-10.345338 -0.14335251 2.0022404
-10.339573 -0.16788401 1.9998515
-10.348013 -0.16891232 2.0066686
-10.336887 -0.18476325 2.0083137
-10.347951 -0.19825432 2.0150692
-10.332868 -0.2185939 2.0038586
-10.346411 -0.23181628 2.0030239
-10.345072 -0.24878976 2.0006247
-10.330623 -0.25704005 1.9997938
-10.34543 -0.28141296 2.0018673
-10.332577 -0.29093558 1.9965321
-10.346362 -0.31492302 2.0011163
-10.342517 -0.32760075 1.9991231
-10.331834 -0.3294234 2.0157294
-10.339485 -0.34260032 2.0132947
-10.340362 -0.36100429 2.0049698
-10.332428 -0.37328246 1.9978718
-10.325309 -0.38457254 2.008249
-10.340569 -0.40178442 2.0048239
-10.33664 -0.41419616 2.0114737
-10.330617 -0.43416512 2.0030479
-10.329909 -0.44835117 2.0050812
-10.324597 -0.45914334 2.0088825
-10.321259 -0.47972453 2.0053065
-10.321293 -0.4884496 2.0029981
-10.323742 -0.51856291 1.9967295
-10.334496 -0.52127498 2.0126259
-10.332328 -0.53742063 2.0116744
-10.319761 -0.54939896 2.0079529
-10.330601 -0.55804086 2.0062602
-10.31477 -0.58127272 1.9990385
-10.327345 -0.60442984 2.0120697
-10.317866 -0.60292792 2.0087469
-10.324566 -0.61876011 1.9992801
-10.314822 -0.63532013 2.0155244
-10.327366 -0.65504277 2.0160909
-10.326159 -0.66625273 2.0083795
-10.309035 -0.67604804 1.9989555
-10.312842 -0.6940515 2.0119855
-10.320351 -0.70368809 2.0108047
-10.309532 -0.71830791 2.0008216
-10.305916 -0.74633682 2.0021105
-10.309247 -0.74574155 1.9993287
-10.514384 -0.78769684 1.9958423
-10.510444 -0.80610347 1.98952
-10.510239 -0.8179689 1.9778988
-10.509447 -0.82956165 1.9894903
-10.694761 -0.86106998 1.9664087
-10.711041 -0.88155299 1.9590427
-10.69427 -0.89053988 1.9764585
-10.698659 -0.90972328 1.9736717
-10.891334 -0.94351745 1.9579726
-10.90435 -0.94478291 1.9565822
-10.900128 -0.97375816 1.9426253
-10.900072 -0.97990984 1.9449502
-11.08454 -1.0052933 1.9307976
-11.082359 -1.0330193 1.9390361
16.594782 -4.9785004 1.3282695
16.610275 -4.9531484 1.3302439
16.618368 -4.93226 1.3381885
16.623846 -4.8970156 1.3219053
16.626505 -4.877398 1.323974
16.63273 -4.8521194 1.3400059
16.637535 -4.8439608 1.3222895
16.648348 -4.8171101 1.3336463
16.641455 -4.7978897 1.3331425
16.659676 -4.7579203 1.3404105
16.666101 -4.7456112 1.3273711
16.679993 -4.7247448 1.3365216
16.675827 -4.7026873 1.3233889
16.679573 -4.6820226 1.3223193
16.687004 -4.6455379 1.3376757
16.696472 -4.6296334 1.3351103
16.701937 -4.5956993 1.3374934
16.709654 -4.577693 1.3235077
16.708696 -4.5532889 1.3255135
16.727201 -4.5373416 1.32425
16.732943 -4.5016122 1.3320479
16.725611 -4.4786019 1.3374555
16.747396 -4.4663372 1.3216544
16.756018 -4.436873 1.3232428
16.743536 -4.4264922 1.3380313
16.76638 -4.393127 1.3254309
16.766624 -4.360745 1.323462
16.769218 -4.3470626 1.3361882
16.777796 -4.3207231 1.3299977
16.788345 -4.3022308 1.3364251
16.7976 -4.2843175 1.3352437
16.794619 -4.2600222 1.3337252
16.797012 -4.2201948 1.3211159
16.803572 -4.197968 1.3346063
16.811687 -4.1744118 1.335104
16.814558 -4.1541691 1.3255854
16.824797 -4.1398063 1.3250583
16.833033 -4.1089392 1.3348145
16.833961 -4.0955544 1.3275026
16.848669 -4.0576463 1.3352671
16.84977 -4.0364776 1.3375207
16.849655 -4.024251 1.3406367
16.867992 -3.9955587 1.3401392
16.873684 -3.966202 1.338419
16.872835 -3.9545927 1.3367977
16.872452 -3.9259422 1.3319533
16.882515 -3.8928506 1.3379983
16.892019 -3.8772876 1.3314282
16.891247 -3.8465264 1.334753
16.90313 -3.8267579 1.3324884
16.902744 -3.8115547 1.3278865
16.904579 -3.7820981 1.3319975
16.909498 -3.7599068 1.321279
16.913885 -3.7375898 1.3363879
16.916519 -3.7216573 1.339569
16.9375 -3.6916111 1.3278557
16.933601 -3.6569703 1.3256813
16.935717 -3.6382618 1.3355099
16.951229 -3.6257293 1.3325318
16.950031 -3.5866852 1.325747
16.946539 -3.5733645 1.3305827
16.958408 -3.543514 1.3212847
16.974358 -3.5140176 1.3305806
16.979555 -3.505373 1.3385882
16.979828 -3.4793003 1.3389163
16.98325 -3.4574208 1.325671
16.974924 -3.4245794 1.3234398
16.984392 -3.3947306 1.3362833
16.983654 -3.3744447 1.3380183
16.999907 -3.3603971 1.3351494
17.00934 -3.3348522 1.3219459
17.003576 -3.302412 1.3349309
17.00848 -3.2789657 1.3337433
17.022648 -3.2552319 1.3375245
17.024792 -3.2361014 1.3236957
17.027229 -3.2183933 1.3280566
17.036386 -3.1938212 1.3215629
17.043282 -3.1645591 1.3212148
17.042986 -3.140779 1.3374429
17.044394 -3.1254585 1.3240025
17.042896 -3.1053829 1.3323842
17.048164 -3.0757163 1.3294767
17.066385 -3.0457566 1.3262798
17.063383 -3.0262082 1.3230746
17.064131 -3.0090635 1.3352512
17.267099 -3.0083234 1.3020821
17.474491 -3.0223567 1.2897239
17.479271 -2.999613 1.3021591
17.679895 -3.0150852 1.2753019
17.876806 -3.0129833 1.2599854
18.080336 -3.0161757 1.2409587
18.075937 -3.0051806 1.2271056
18.285007 -3.0126574 1.2201153
18.470936 -3.0068345 1.1888695
18.673714 -3.0239303 1.1709585
18.672174 -2.9861853 1.1835998
18.873318 -2.9926894 1.152869
19.081453 -2.9980736 1.1405069
19.282072 -3.0026858 1.1217991
19.475182 -3.0102978 1.0937661
19.69232 -3.0143497 1.0705594
19.889776 -3.00646 1.0531272
20.093426 -3.0095358 1.0354027
-11.308308 0.99221873 1.9932817
-11.304101 0.96737003 1.9965335
-11.294645 0.96875191 2.0003955
-11.300015 0.94529617 1.9868441
-11.315011 0.92303514 1.9858247
-11.303021 0.92020959 1.9979674
-11.309707 0.90258151 1.9977654
-11.305003 0.87856174 1.9992568
-11.3107 0.87577736 1.9866332
-11.322722 0.85146034 1.9955342
-11.30617 0.8392722 1.9850174
-11.316949 0.8126511 1.9854469
-11.324452 0.79682297 1.9830551
-11.308072 0.79694009 1.9930062
-11.325222 0.76335466 1.9964968
-11.323368 0.76303083 1.9929641
-11.32935 0.73727053 1.9876075
-11.315512 0.71744108 1.9940367
-11.32016 0.71311986 1.9934891
-11.31741 0.69795984 1.9844337
-11.325736 0.68051255 1.9990008
-11.324557 0.65342653 2.0027592
-11.322927 0.63995361 1.9865034
-11.323667 0.62395579 1.9861803
-11.334433 0.61188173 1.9880887
-11.321686 0.60271215 1.9854919
-11.33245 0.58858967 1.9929547
-11.328548 0.56931233 1.9964094
-11.338196 0.54637164 1.9913658
-11.328368 0.52714384 1.9869862
-11.327575 0.5205301 2.0009847
-11.332191 0.49601364 1.9837241
-11.333028 0.49402404 1.9888185
-11.330098 0.47216955 1.9937445
-11.327469 0.46040133 2.0024269
-11.342909 0.44220996 1.9977713
-11.340924 0.41406283 1.994826
-11.331454 0.41060317 1.9884373
-11.338508 0.39826038 1.9949429
-11.330583 0.37648681 1.9980568
-11.347015 0.35622701 1.9903939
-11.349426 0.35204819 1.9940528
-11.349077 0.32770872 1.9915609
-11.343611 0.30695289 1.9830546
-11.333196 0.28945765 1.9986209
-11.334077 0.2771315 1.9918376
-11.339592 0.26737759 1.9927496
-11.348029 0.24765879 1.9860454
-11.342834 0.24142985 2.0028424
-11.35111 0.22364713 1.993711
-11.33625 0.20993111 2.0001652
-11.349031 0.19428037 1.9982868
-11.338132 0.17943428 1.9879159
-11.349702 0.15048736 1.9926368
-11.349756 0.13236552 1.9957105
-11.334222 0.11375115 2.0023067
-11.345448 0.10998867 1.9949983
-11.335741 0.098132841 1.9838208
-11.352716 0.071795009 2.0022645
-11.352872 0.057480782 1.9987761
-11.342136 0.038304083 1.9974227
-11.344925 0.026602121 1.9962701
-11.34957 0.0060337186 1.996123
-11.344563 -0.0058928775 2.0028811
-11.334814 -0.017683955 1.9873694
-11.341969 -0.033773176 1.9890962
-11.342505 -0.060943861 2.0029132
-11.350328 -0.058283914 2.0007274
-11.349306 -0.09249752 1.9880569
-11.349818 -0.10678754 1.9969254
-11.353797 -0.11028551 2.0024705
-11.339107 -0.13653719 1.9921671
-11.345547 -0.14742091 1.9971489
-11.352112 -0.17330751 1.9860574
-11.351897 -0.16947609 1.9990283
-11.347172 -0.19285293 1.9917634
-11.340697 -0.21684173 1.993181
-11.340384 -0.22875085 1.9931116
-11.342234 -0.23975784 1.9946818
-11.336732 -0.25141892 1.9978147
-11.34234 -0.26722243 1.9933022
-11.342381 -0.2885218 1.9983904
-11.332703 -0.29646969 1.9884471
-11.33802 -0.33121315 1.9884689
-11.334408 -0.34599414 1.9881735
-11.337802 -0.35632411 2.0003524
-11.32844 -0.36047632 1.984393
-11.337637 -0.38463369 1.9923749
17.219173 -4.992775 1.3963633
17.23789 -4.9540954 1.4133761
17.239708 -4.9414005 1.4104341
17.256977 -4.9091439 1.4020411
17.259302 -4.8876305 1.4015477
17.27165 -4.8718772 1.4021579
17.263987 -4.8329763 1.4038335
17.275993 -4.8179564 1.4110248
17.280146 -4.7940836 1.4099088
17.288305 -4.7599392 1.4004797
17.304413 -4.7355928 1.4005457
17.313311 -4.7194748 1.3952446
17.319187 -4.6884518 1.3985826
17.32209 -4.6670365 1.4101111
17.316565 -4.6501412 1.3990782
17.330513 -4.6277084 1.3997138
17.345037 -4.5997171 1.3951559
17.341204 -4.566462 1.4015137
17.344526 -4.5557656 1.4076316
17.346701 -4.5235858 1.4037713
17.359411 -4.5019417 1.4001253
17.372154 -4.4780083 1.4084563
17.379562 -4.4547725 1.4036598
17.390276 -4.4351773 1.3961191
17.392483 -4.4076147 1.4013056
17.383623 -4.3725791 1.4047469
17.395365 -4.3494596 1.4119929
17.209238 -4.2883549 1.4261415
17.222645 -4.2587957 1.4289387
17.222136 -4.2334023 1.4197023
17.237734 -4.2016039 1.4278876
17.22965 -4.1833339 1.4157752
17.249866 -4.1638942 1.4226583
17.245251 -4.1399465 1.4248884
17.253061 -4.1199627 1.4304234
17.266026 -4.094975 1.4267285
17.262396 -4.0643487 1.4218787
17.26598 -4.0326409 1.4256246
17.265835 -4.013495 1.4149083
17.288454 -4.000792 1.4255556
17.281803 -3.9783926 1.4239635
17.283302 -3.9499431 1.416595
17.292658 -3.9271126 1.4246117
17.308861 -3.8946972 1.4125135
17.307261 -3.8802378 1.4163287
17.311163 -3.8385482 1.4210526
17.311335 -3.8261871 1.4123162
17.326624 -3.7959085 1.4311926
17.325624 -3.7714071 1.4251128
17.333876 -3.749886 1.4276255
17.332741 -3.7205818 1.4284194
17.349979 -3.6953089 1.4135364
17.359816 -3.6861799 1.4173506
17.357635 -3.6463118 1.4294387
17.363323 -3.6334746 1.4318372
17.372791 -3.602133 1.4317688
17.366949 -3.5759826 1.4198973
17.372339 -3.5598726 1.4141331
17.37657 -3.5300574 1.4286911
17.394688 -3.5172536 1.4205841
17.395283 -3.4908135 1.4175876
17.396639 -3.4523294 1.415663
17.40308 -3.4291699 1.4186592
17.217844 -3.3748641 1.4351517
17.220064 -3.3586917 1.4424154
17.224649 -3.3181102 1.4367908
17.229132 -3.3083961 1.4330801
17.22171 -3.2782857 1.4412358
17.228491 -3.2489026 1.4349558
17.229795 -3.2263265 1.4372224
17.24296 -3.2080448 1.4416645
17.253096 -3.1732638 1.4403195
17.241272 -3.1568666 1.4378561
17.252409 -3.1350389 1.4469595
17.262163 -3.1156926 1.448217
17.259148 -3.0764294 1.4460309
17.270473 -3.0573177 1.4495273
17.278055 -3.0302291 1.4390962
17.27376 -3.0209277 1.4340039
17.479414 -3.0289342 1.4295936
17.491085 -2.9939244 1.4172513
17.683523 -3.006778 1.3977832
17.874676 -3.0153406 1.3906428
17.886971 -2.9836342 1.3790979
18.084831 -2.9992476 1.3649739
18.284006 -3.0016608 1.3460252
18.48105 -3.0164986 1.3420943
18.681644 -3.0274711 1.3211521
18.695183 -2.9948132 1.3232489
18.900314 -2.9882984 1.2894624
19.098928 -2.9937758 1.2862941
19.30525 -3.0068035 1.259405
19.489996 -3.0087261 1.2525319
19.705492 -3.0220068 1.2324076
19.909491 -3.0175421 1.204414
20.097252 -3.0140748 1.1811967
17.245279 -4.9859681 1.5384489
17.254395 -4.9568176 1.5260389
17.251896 -4.9306326 1.5335946
17.264626 -4.9046702 1.5270318
17.266735 -4.8869858 1.5447259
17.280151 -4.8635664 1.5362188
17.28746 -4.8345313 1.5288879
17.297575 -4.8195539 1.5351869
17.298714 -4.7984619 1.5417727
17.299965 -4.7664876 1.5301747
17.310772 -4.7468333 1.5401825
17.310694 -4.7250142 1.535279
17.318171 -4.6926084 1.53249
17.333168 -4.674356 1.5315825
17.341572 -4.640841 1.5442688
17.347633 -4.6207266 1.5362748
17.345156 -4.6000843 1.5332063
17.355312 -4.5760751 1.5409963
17.351736 -4.557642 1.52575
17.37471 -4.5246377 1.5383401
17.366053 -4.5074735 1.5264374
17.387369 -4.4770017 1.5321981
17.383747 -4.4456325 1.5261989
17.397305 -4.4258099 1.5342774
17.389919 -4.4040976 1.5316869
17.201923 -4.3340044 1.5614052
17.219095 -4.3019004 1.5511768
17.213163 -4.2860503 1.5607466
17.234989 -4.2601552 1.5445298
17.241535 -4.2376294 1.5570884
17.240639 -4.2100706 1.5425739
17.247805 -4.1874714 1.5542848
17.260696 -4.1547351 1.5531099
17.267557 -4.1346512 1.5474935
17.262463 -4.1081271 1.5593171
17.274744 -4.0824761 1.5481565
17.280323 -4.0656924 1.5450803
17.275639 -4.0408449 1.5538261
17.280493 -4.0201435 1.5444304
17.289095 -3.9988344 1.5535158
17.290222 -3.9643278 1.5461068
17.296801 -3.9485259 1.5572355
17.315056 -3.9256687 1.5570308
17.312103 -3.9017553 1.5528324
17.323502 -3.8687069 1.5510725
17.326689 -3.8491144 1.5508696
17.33868 -3.8296468 1.5433484
17.327564 -3.8005321 1.5565649
17.34516 -3.7722011 1.5463653
17.353325 -3.76087 1.5533491
17.35054 -3.7339809 1.5507064
17.360315 -3.706048 1.5597242
17.361185 -3.6853607 1.5474504
17.361814 -3.6530936 1.5549337
17.378214 -3.6348636 1.551301
17.372818 -3.5988467 1.5430892
17.387186 -3.5762038 1.5501659
17.393999 -3.5700109 1.5421705
17.393993 -3.5315225 1.5583122
17.403755 -3.5101342 1.5415832
17.400467 -3.4967608 1.5475345
17.219032 -3.4197869 1.5735897
17.221998 -3.4064054 1.5597217
17.212654 -3.3775239 1.5738901
17.230762 -3.3573411 1.5620509
17.225203 -3.3276165 1.5619837
17.2314 -3.3085535 1.5603076
17.244637 -3.2876728 1.5605655
17.249847 -3.2517583 1.5750458
17.251165 -3.2310097 1.5666417
17.25572 -3.1984429 1.5673313
17.266193 -3.1767011 1.5616841
17.2663 -3.1567664 1.5653981
17.272505 -3.1309123 1.5739665
17.272846 -3.111656 1.5586843
17.281313 -3.0826302 1.5690867
17.26968 -3.0720465 1.5745057
17.276337 -3.0328283 1.5767521
17.283218 -3.0129712 1.5708535
17.284546 -2.9963336 1.5616378
17.493872 -2.9934702 1.5445292
17.683949 -3.0040553 1.5450842
17.888437 -3.0184209 1.5214894
17.900122 -2.9974322 1.516045
18.09696 -2.9932003 1.5093727
18.298574 -3.0042875 1.4876233
18.510645 -3.0107605 1.4723485
18.708189 -3.0142953 1.4521767
18.711231 -3.0030046 1.4441283
18.905182 -3.0059416 1.4322033
19.10997 -2.9996059 1.4128349
20.101816 -3.1265278 1.346471
20.106117 -3.0942848 1.3362614
20.103172 -3.0745623 1.3420672
20.114742 -3.0387921 1.3398538
20.11599 -3.0222561 1.3337474
20.111835 -2.9945521 1.3478068
17.253328 -4.983119 1.6727948
17.265528 -4.9644575 1.6650511
17.259253 -4.9386697 1.6708335
17.275021 -4.9255385 1.6617122
17.281424 -4.8934603 1.6638421
17.29398 -4.8746195 1.6695663
17.288082 -4.8426437 1.6648977
17.304733 -4.8117108 1.6683426
17.298483 -4.7968431 1.6612941
17.31123 -4.7784166 1.67193
17.314671 -4.7405915 1.6676551
17.317795 -4.7175202 1.6579665
17.333141 -4.7076435 1.6699806
17.334236 -4.6688857 1.6710316
17.346176 -4.6505775 1.6600565
17.360212 -4.626533 1.6638085
17.35994 -4.59517 1.6754128
17.354963 -4.5739079 1.6738172
17.3734 -4.5456147 1.6629474
17.384752 -4.5312586 1.6663523
17.386707 -4.500114 1.6634214
17.384354 -4.4724617 1.6593919
17.392279 -4.4560461 1.6610599
17.392183 -4.4250851 1.657297
17.219799 -4.3596053 1.6825745
17.229643 -4.3359356 1.6727597
17.223206 -4.3189874 1.6900922
17.228338 -4.2934294 1.6844621
17.231842 -4.2558169 1.6828916
17.244442 -4.2331986 1.6714343
17.240414 -4.2149386 1.6868703
17.253422 -4.1853118 1.6856982
17.262365 -4.1740065 1.6766723
17.272943 -4.1490092 1.6743301
17.279726 -4.1092682 1.6840872
17.276821 -4.0857592 1.673489
17.284069 -4.0747304 1.6758056
17.288614 -4.0445776 1.6796379
17.287497 -4.0168958 1.6770322
17.304775 -4.0025554 1.6729861
17.310562 -3.9781511 1.6831332
17.311752 -3.9466143 1.6788321
17.311735 -3.9319742 1.6817527
17.32266 -3.8925633 1.6855793
17.331207 -3.872144 1.6850471
17.329479 -3.8603692 1.6839162
17.337118 -3.8270538 1.6896985
17.34704 -3.7948651 1.6815101
17.360762 -3.7894332 1.676872
17.351843 -3.7523289 1.682435
17.358845 -3.7350097 1.6882551
17.375959 -3.702039 1.6814568
17.368738 -3.6745899 1.6851358
17.384405 -3.6616874 1.6840556
17.383863 -3.625674 1.6792163
17.382757 -3.6167932 1.6819663
17.400486 -3.5856423 1.6738387
17.403961 -3.5699058 1.6736993
17.399216 -3.5457509 1.6747836
17.214327 -3.4761903 1.7036868
17.210382 -3.4447291 1.6907567
17.212225 -3.4213543 1.6865669
17.227238 -3.4103673 1.7055892
17.225893 -3.3688474 1.6932694
17.243437 -3.352968 1.6927112
17.236107 -3.3232615 1.6967753
17.251492 -3.3008585 1.6877241
17.258717 -3.2799773 1.6901368
17.24577 -3.248806 1.6924248
17.253872 -3.2319829 1.7003937
17.255915 -3.2039449 1.6958032
17.264994 -3.1788719 1.6905601
17.269848 -3.1635625 1.69227
17.273693 -3.1343374 1.6914592
17.285183 -3.1122773 1.7024804
17.276081 -3.0822213 1.6991543
17.29101 -3.0614192 1.6941706
17.296854 -3.0379992 1.7060014
17.305077 -3.0121 1.7049301
17.295555 -2.9826381 1.6966023
17.510515 -3.009485 1.6772966
17.700947 -3.0111771 1.6589715
17.906195 -3.011904 1.6518575
17.916521 -2.9996216 1.6447939
18.102737 -2.9929674 1.6407495
18.320032 -3.0192034 1.6226443
18.514053 -3.0142653 1.6012182
18.506275 -2.9952812 1.6140136
18.707207 -3.0039589 1.5936428
18.927118 -3.0058126 1.5785935
19.118753 -3.0128732 1.5663956
17.256954 -4.9613876 1.8050414
17.274143 -4.945365 1.7963386
17.271086 -4.9123254 1.7981529
17.279575 -4.8861141 1.7995086
17.287685 -4.8640108 1.8015316
17.3048 -4.8531961 1.7960434
17.298748 -4.8247647 1.7974783
17.32262 -4.8038425 1.7997646
17.323494 -4.771564 1.80539
17.334278 -4.7557206 1.8068159
17.327328 -4.730185 1.8027859
17.33145 -4.6943836 1.7906811
17.346836 -4.6685305 1.8075091
17.344002 -4.6610427 1.8064311
17.36249 -4.632268 1.8033304
17.362968 -4.6131678 1.8069085
17.377924 -4.5868759 1.7947725
17.374279 -4.5634322 1.7994043
17.392889 -4.5258031 1.7921505
17.397089 -4.5040436 1.7965664
17.402681 -4.4758563 1.8023351
17.210943 -4.4004741 1.8131853
17.220263 -4.386188 1.8122157
17.226377 -4.3612547 1.8145235
17.231382 -4.3443189 1.8013865
17.233252 -4.3133574 1.8031216
17.238665 -4.2938585 1.8069112
17.251909 -4.2643876 1.8098981
17.249752 -4.2426581 1.8062588
17.260307 -4.2230444 1.820115
17.255245 -4.1841216 1.8178854
17.275917 -4.1699185 1.8170973
17.273933 -4.1525412 1.8065746
17.290947 -4.1151605 1.816956
17.290236 -4.0988555 1.8202357
17.296352 -4.0667267 1.8104306
17.304171 -4.0551953 1.8160701
17.295746 -4.0163984 1.8071176
17.310274 -4.0057034 1.8158236
17.321127 -3.970365 1.8200635
17.325806 -3.9459667 1.8191389
17.328218 -3.9267399 1.8083211
17.329811 -3.8953066 1.8107771
17.340845 -3.8726363 1.806501
17.342228 -3.8564217 1.81441
17.346857 -3.8397996 1.8103197
17.361649 -3.8010347 1.8136241
17.362043 -3.7763379 1.8115816
17.373453 -3.762722 1.8160819
17.373533 -3.7438264 1.811761
17.377821 -3.705795 1.807671
17.381151 -3.6908574 1.8186325
17.393629 -3.659802 1.8168443
17.388527 -3.643151 1.8135357
17.399118 -3.6105235 1.8022437
17.397583 -3.5786397 1.8033681
17.216459 -3.5171454 1.8325161
17.214014 -3.5009928 1.8286684
17.229494 -3.4787023 1.8342086
17.229441 -3.4615681 1.834409
17.225031 -3.42535 1.8283981
17.2365 -3.4109728 1.8330748
17.238895 -3.3892543 1.82455
17.23947 -3.3577387 1.8284117
17.256701 -3.3407018 1.8206296
17.262606 -3.3102353 1.8204528
17.249603 -3.2904289 1.8173255
17.272243 -3.2579784 1.8263314
17.271 -3.2349265 1.8336014
17.275265 -3.2167726 1.8339727
17.279696 -3.1878381 1.826522
17.278084 -3.1722126 1.8294021
17.281113 -3.1389351 1.8299474
17.295584 -3.1097937 1.8179485
17.293882 -3.0880969 1.8189199
17.304367 -3.0651369 1.8262851
17.29464 -3.0397892 1.8293773
17.301752 -3.0163779 1.8208342
17.317835 -2.9987512 1.8312508
17.517807 -2.9952312 1.8022507
17.71821 -3.0112054 1.7980804
17.911222 -3.0126853 1.7854246
17.910381 -3.0019546 1.775401
18.126888 -3.0138907 1.7769235
18.311453 -3.011318 1.7560135
18.517042 -3.0220184 1.733928
