# .PCD v0.7 - Point Cloud Data file format
VERSION 0.7
FIELDS x y z
SIZE 4 4 4
TYPE F F F
COUNT 1 1 1
WIDTH 1547
HEIGHT 1
VIEWPOINT 0 0 0 1 0 0 0
POINTS 1547
DATA ascii
7.5239463 -3.8190954 1.3033433
7.533 -3.8171897 1.3021071
7.519094 -3.8124824 1.3190535
7.5286345 -3.7906079 1.307246
7.5382729 -3.776587 1.3189729
7.5458059 -3.769619 1.3095064
7.5424652 -3.76349 1.3198575
7.5472631 -3.7506959 1.3021414
7.5698071 -3.7446618 1.3006524
7.5582094 -3.7389174 1.3066765
7.5694132 -3.7125771 1.3014064
7.5777588 -3.7025211 1.3075551
7.5848536 -3.691695 1.3079168
7.5888796 -3.6966372 1.3196514
7.6010838 -3.6772354 1.3148977
7.605 -3.6755803 1.3065956
7.5994349 -3.6625309 1.3138984
7.6042056 -3.6499338 1.3034643
7.6112461 -3.6400287 1.3085258
7.6167822 -3.6269424 1.3087858
7.6283278 -3.6078584 1.3048329
7.6345887 -3.6056206 1.3003758
7.6269832 -3.5814648 1.316177
7.6397247 -3.578445 1.3164612
7.6441855 -3.5683682 1.3055651
7.6438785 -3.5595081 1.3057349
7.6552539 -3.5413311 1.3083575
7.6539173 -3.5434856 1.3129736
7.6621318 -3.5236886 1.3168842
7.6753926 -3.5234282 1.3032632
7.6688991 -3.4966812 1.3181013
7.6784372 -3.4887171 1.3045454
7.6835036 -3.4933875 1.3045062
7.6843562 -3.4703307 1.3168409
7.6854777 -3.4678121 1.3085992
7.6956887 -3.4505851 1.3185576
7.7060537 -3.4469523 1.3160263
7.6990271 -3.429611 1.3006663
7.7166014 -3.4289947 1.3144227
7.718071 -3.4000423 1.3177516
7.7259045 -3.402494 1.3171332
7.7285614 -3.3803022 1.3137772
7.7376475 -3.3779244 1.3150427
7.7266788 -3.3595593 1.3086499
7.7480302 -3.3649228 1.3140539
7.7411246 -3.3449109 1.3059561
7.7441626 -3.3393538 1.3107556
7.7446537 -3.3256292 1.3021545
7.7497702 -3.3191209 1.3034209
7.7686276 -3.2959182 1.302884
7.7707992 -3.2896421 1.3091334
7.772337 -3.2854545 1.3068056
7.770504 -3.2769117 1.3160801
7.7899213 -3.2640526 1.3129377
7.7829304 -3.2545426 1.3136433
7.7813282 -3.2366233 1.3035656
7.6105742 -3.1450887 1.3477734
7.6255388 -3.1332183 1.3553673
7.6318874 -3.120872 1.3586549
7.6194878 -3.1142931 1.3543237
7.6265359 -3.110153 1.3454411
7.6398187 -3.0890698 1.3499118
7.6307592 -3.0943997 1.352085
7.650959 -3.0848773 1.3562703
7.6480017 -3.0668952 1.3591123
7.6457348 -3.0550497 1.3490138
7.6533756 -3.0374382 1.3443363
7.665679 -3.0292616 1.3409096
7.6655612 -3.0191207 1.3592036
7.668716 -3.0057495 1.3534447
7.6675248 -3.0096846 1.3411883
7.6774364 -2.9846768 1.3593711
7.8744779 -3.044239 1.3020436
7.8711023 -3.0364714 1.303113
7.8718967 -3.0359564 1.3115023
7.8755178 -3.0219886 1.3010695
7.8890252 -3.0046458 1.317574
7.8778396 -2.9992502 1.3115753
8.0664768 -3.0478604 1.2655013
8.0702248 -3.0476284 1.261637
8.0881977 -3.0327933 1.2631401
8.0938997 -3.0122378 1.2789474
8.0977678 -3.0014911 1.2756683
8.1038227 -2.9983804 1.2691863
8.2747736 -3.0468347 1.2327127
8.2903519 -3.0475261 1.2387551
8.2954798 -3.0389247 1.2311523
8.2970972 -3.0257075 1.2379512
8.2926989 -3.0113013 1.2347921
8.3017416 -2.9974124 1.2406036
8.4913092 -3.0563719 1.1904522
8.4980507 -3.047034 1.1891131
8.5005827 -3.0380459 1.1872413
8.4998188 -3.0072045 1.1971949
8.512557 -3.0134408 1.1955178
8.5083351 -2.9883652 1.2015953
8.695096 -3.0474353 1.1451844
8.7093716 -3.0438387 1.1499554
8.7104282 -3.0288575 1.1575608
8.7083101 -3.0090351 1.1474777
8.7119856 -2.9882357 1.1534241
8.910429 -3.0486887 1.1173314
8.9221992 -3.0268631 1.1179044
8.9120808 -3.0300295 1.1174603
8.9318981 -3.0046699 1.1189154
8.9300213 -3.0077271 1.1135759
9.1200504 -3.0555956 1.0827848
9.1274233 -3.0307457 1.0829802
9.1195478 -3.0290747 1.0660106
9.1192608 -3.013741 1.0767114
9.1288729 -2.9989338 1.0760535
9.3306923 -3.0564113 1.0269806
9.3297377 -3.0249777 1.0268348
9.3293381 -3.0279021 1.031088
9.328476 -3.0152311 1.0282604
9.3490515 -2.9886417 1.0299289
9.5309696 -3.0418923 0.99418283
9.5349913 -3.0319314 0.99009919
9.5391893 -3.0140843 0.99496305
9.5464001 -3.0007455 1.002431
9.7313242 -3.0407901 0.9524405
9.7486229 -3.0304265 0.95289898
9.7363596 -3.0252705 0.95178384
9.7439308 -3.0047488 0.95473105
9.7557373 -2.989306 0.95733011
9.9521341 -3.0349712 0.91396314
9.9428234 -3.031853 0.92368066
9.9572773 -3.0089583 0.91006154
9.947628 -2.9860923 0.92098624
10.150578 -3.0366611 0.87241012
10.153301 -3.0168281 0.86879665
10.165544 -3.0039499 0.8819645
10.158225 -2.9875693 0.86670035
10.357839 -3.0432198 0.83883351
10.352389 -3.0156102 0.83234012
10.369519 -3.0032187 0.84406042
10.362792 -2.9843762 0.84502572
10.554137 -3.0296352 0.79547596
10.563543 -3.0141437 0.79443759
10.563854 -3.007637 0.80537641
7.0520139 -4.981349 1.3377907
7.0742898 -4.9674411 1.3260309
7.0654926 -4.9645958 1.3249738
7.0842166 -4.9434786 1.3360126
7.0876241 -4.9476819 1.3313431
7.0994053 -4.9335265 1.3427237
7.1027846 -4.9263635 1.3355117
7.1043744 -4.9144669 1.3359948
7.1110973 -4.9070773 1.3379401
7.1142807 -4.8920193 1.329075
7.129149 -4.8814893 1.3384846
7.1300058 -4.8756351 1.331952
7.1390896 -4.8655167 1.3384047
7.1471019 -4.8435979 1.3361052
7.1661396 -4.8451824 1.339723
7.1604934 -4.8418827 1.3276073
7.166214 -4.8220868 1.3327562
7.1847086 -4.80757 1.3398933
7.1836724 -4.7931857 1.3245021
7.1845675 -4.7824593 1.3342417
7.1965833 -4.7836924 1.3245745
7.1979947 -4.7708821 1.3308146
7.2128596 -4.7557883 1.3372177
7.2141633 -4.7594681 1.3355738
7.2331533 -4.7508826 1.3423705
7.2357469 -4.7347012 1.3424824
7.2462111 -4.7195435 1.3323967
7.2418098 -4.7126217 1.3268245
7.2445316 -4.6934524 1.325624
7.2518482 -4.7000909 1.3251276
7.2688899 -4.6814013 1.3333665
7.2762508 -4.6679749 1.324375
7.2698374 -4.6663442 1.3404273
7.2898126 -4.6500564 1.3427407
7.2881303 -4.6414108 1.3435708
7.2932301 -4.6367898 1.3305045
7.2984281 -4.6283088 1.3425086
7.3135257 -4.6108198 1.331338
7.3230367 -4.5971847 1.3292313
7.3313332 -4.5827951 1.3303715
7.319119 -4.5779119 1.3400772
7.3351297 -4.5722013 1.3330761
7.3421345 -4.5594239 1.3375638
7.3451772 -4.5531769 1.3281879
7.3505187 -4.5351038 1.3372973
7.3566766 -4.5184078 1.3408582
7.3697534 -4.5229774 1.3427213
7.3748202 -4.4988976 1.3318862
7.3887019 -4.4917412 1.3244894
7.3804626 -4.4827089 1.3412766
7.3933492 -4.4722967 1.3327329
7.395927 -4.4722662 1.3396761
7.4114895 -4.4516087 1.3291643
7.4115248 -4.4542713 1.3346581
7.4221702 -4.4379416 1.3279752
7.4219108 -4.4217887 1.3277291
7.4251971 -4.4188795 1.3326459
7.4303327 -4.3972101 1.3313656
7.4446182 -4.3879504 1.3269559
7.4514928 -4.3932076 1.3412845
7.4551401 -4.371841 1.335722
7.4702291 -4.3541455 1.3398783
7.4722466 -4.3471222 1.3343718
7.463738 -4.346283 1.3358734
7.4807086 -4.3410044 1.3433666
7.4909816 -4.322176 1.3366661
7.4809942 -4.3062382 1.3425195
7.4959087 -4.291327 1.3396789
7.5095282 -4.2882776 1.3357253
7.518724 -4.2844877 1.3361337
7.522233 -4.2631688 1.3275187
7.5201654 -4.2528658 1.3262011
7.5222392 -4.2466345 1.3415002
7.5387921 -4.2349877 1.3272232
7.5368319 -4.2324309 1.3278013
7.5423503 -4.2256474 1.3367754
7.5411534 -4.2148833 1.3312471
7.5657949 -4.1952214 1.3301809
7.5675817 -4.187943 1.3417063
7.5653996 -4.1774564 1.3265562
7.5836115 -4.1694345 1.3422505
7.5731936 -4.1494389 1.3377656
7.5814433 -4.1333132 1.3290209
7.5849771 -4.1265645 1.341424
7.5942192 -4.1276908 1.3258765
7.6040249 -4.1091995 1.3265969
7.6027899 -4.0977902 1.3275576
7.6160116 -4.0876102 1.3376478
7.6281524 -4.0815001 1.3244765
7.6318035 -4.0634131 1.3312429
7.6402898 -4.0529413 1.335475
7.6444554 -4.0386992 1.3291379
7.6441216 -4.0420051 1.3283535
7.6550279 -4.0275593 1.3437369
7.6583228 -4.0096393 1.3274046
7.6660547 -4.0076671 1.3389668
7.6744928 -3.9926679 1.3313332
7.6638761 -3.9901705 1.3432662
7.6833348 -3.981241 1.3306884
7.6896071 -3.9543543 1.3255683
7.6826315 -3.9446602 1.340283
7.6998725 -3.9364643 1.3385947
7.6907616 -3.934252 1.3429476
7.7008514 -3.9267678 1.3310853
7.7063093 -3.9016085 1.3264744
7.7154198 -3.8943217 1.3331594
7.7160778 -3.884187 1.3241593
7.7290869 -3.870244 1.3269644
7.7340145 -3.8624022 1.3279989
7.7463489 -3.853833 1.3252125
7.7335482 -3.8377697 1.3414048
7.7554469 -3.8299809 1.3350698
7.7556424 -3.816803 1.340216
7.7601757 -3.819021 1.3421082
7.7728314 -3.8012512 1.3384134
7.7608614 -3.7798259 1.3312515
7.7755613 -3.7831831 1.3434628
7.7812457 -3.7589567 1.3388482
7.7897201 -3.755213 1.3312988
7.6224022 -3.6591709 1.3796309
7.6089754 -3.6469162 1.3751379
7.6317263 -3.6381278 1.3676348
7.6281266 -3.6344943 1.3625026
7.6296592 -3.6116629 1.3643384
7.6330686 -3.6014955 1.3731223
7.6527686 -3.5886033 1.3725023
7.6452918 -3.5863013 1.3776888
7.6500111 -3.5835896 1.376258
7.6501012 -3.557663 1.3677195
7.6626267 -3.5474875 1.3790052
7.6653733 -3.5358489 1.3719268
7.6636119 -3.5265553 1.3630106
7.6743321 -3.5259418 1.3670946
7.6799054 -3.5088618 1.3633701
7.6872997 -3.4934235 1.3791654
7.6834626 -3.4833217 1.3771985
7.6989908 -3.485718 1.3668722
7.6996908 -3.4684014 1.3685893
7.6989446 -3.4559865 1.3655573
7.7096448 -3.4560227 1.3620186
7.7116156 -3.4382741 1.3794291
7.7264934 -3.4272342 1.3754369
7.7324395 -3.4104056 1.381355
7.722455 -3.412921 1.373643
7.7287307 -3.3929443 1.3706524
7.7507868 -3.3816919 1.3670399
7.7508607 -3.3797836 1.3703004
7.740593 -3.3620329 1.3801402
7.752028 -3.3498707 1.3716506
7.7604151 -3.3318355 1.3723741
7.7652493 -3.3366418 1.3800882
7.767478 -3.3113678 1.3680782
7.7656999 -3.3049297 1.3621255
7.7698245 -3.2932436 1.3628796
7.786222 -3.2800341 1.3728261
7.779614 -3.269506 1.3632339
7.6083946 -3.1875105 1.402849
7.6212978 -3.1768577 1.411314
7.6240263 -3.1594627 1.4011304
7.6182504 -3.1583574 1.4181646
7.633183 -3.1370802 1.4195687
7.6358147 -3.1382208 1.4154164
7.6464219 -3.1257718 1.4068652
7.6510611 -3.1138146 1.4191568
7.6564398 -3.1100614 1.4138081
7.6517501 -3.0975027 1.4081314
7.6574535 -3.0797513 1.4174719
7.6646605 -3.0735464 1.4068488
7.6603174 -3.0690484 1.4029984
7.6657758 -3.0547469 1.4096248
7.6682534 -3.0299187 1.4068936
7.6721206 -3.0268493 1.4123806
7.6718202 -3.0175488 1.4196697
7.6829534 -3.0079699 1.4082628
7.6863637 -2.9973586 1.4099499
7.8673491 -3.0470567 1.3754338
7.8798032 -3.0438244 1.3660942
7.8815827 -3.0376868 1.3722821
7.8927236 -3.0201786 1.3722845
7.8999987 -3.0014837 1.375899
7.8938847 -3.0045679 1.3736464
8.0885544 -3.0577803 1.3256655
8.0852623 -3.0455105 1.3343742
8.0892439 -3.046319 1.3419486
8.1018038 -3.0279143 1.3294153
8.096034 -3.0156453 1.3277472
8.1138287 -2.9951885 1.3383253
8.1022682 -2.9972034 1.3240488
8.3010826 -3.0402691 1.2981858
8.2957764 -3.0320671 1.2981104
8.3140678 -3.0341835 1.3039408
8.3100901 -3.0093503 1.2952962
8.3162117 -2.9920797 1.2876434
8.3110266 -2.9950833 1.2878983
8.5181646 -3.0361784 1.2571716
8.5080805 -3.0405984 1.2655147
8.5163107 -3.0114317 1.263013
8.5151033 -3.018018 1.2671888
8.5196028 -2.9941695 1.2649415
8.7215443 -3.0450025 1.2212234
8.7182589 -3.036406 1.2219028
8.720787 -3.0360103 1.2158273
8.7346544 -3.0137 1.2154281
8.7408514 -3.000766 1.2204252
8.912961 -3.0534589 1.1810358
8.926837 -3.0364034 1.1834527
8.92904 -3.0353515 1.1831607
8.9287224 -3.0197251 1.1844007
8.9325647 -3.0038004 1.1776019
8.9341412 -2.9953444 1.1731957
9.136282 -3.0366991 1.1471318
9.1329679 -3.0372407 1.1473961
9.1435614 -3.0081403 1.1378012
9.153738 -2.9970508 1.1489643
9.1488934 -2.9837172 1.1390777
9.349371 -3.0417354 1.0957032
9.3457003 -3.020571 1.0990248
9.3417187 -3.0039513 1.1055142
9.3589592 -3.0077007 1.0954636
9.5363531 -3.0539885 1.0633025
9.5424356 -3.0283315 1.0576737
9.5605316 -3.0102329 1.0587612
9.5588741 -3.0057685 1.0762012
9.5676022 -2.9953375 1.0719769
9.7548599 -3.0325577 1.0302299
9.7649088 -3.0212307 1.0367609
9.7696619 -3.0178156 1.0314245
9.7577162 -3.002605 1.0296699
9.9599504 -3.0319264 0.99302548
9.9644861 -3.0371811 0.99506199
9.9749384 -3.0206051 0.98943895
9.9797421 -2.9901655 0.98859185
10.153641 -3.0421174 0.96078432
10.177012 -3.0327551 0.94816989
10.176139 -3.0076973 0.94361019
10.171596 -2.9968305 0.95676994
10.361903 -3.0409002 0.92163461
10.378592 -3.0253866 0.90618688
10.373507 -3.019531 0.9053601
10.389852 -2.9933836 0.90538532
10.576861 -3.0354245 0.86999089
10.569655 -3.0221891 0.86922711
10.581582 -3.007268 0.87911928
10.583777 -2.9932215 0.88419402
7.5477414 -4.9775577 1.3323964
7.5508399 -4.974122 1.3313049
7.5579877 -4.9595613 1.3244748
7.5763078 -4.9555387 1.3288461
7.586319 -4.9413509 1.3325093
7.5891514 -4.9375167 1.3291389
7.5945253 -4.9235597 1.3296869
7.599967 -4.9060621 1.3199936
7.606957 -4.8980737 1.3309196
7.6099997 -4.8966479 1.3301548
7.6136436 -4.8774695 1.3282807
7.6192446 -4.8621511 1.319311
7.6237388 -4.8666286 1.3143612
7.6413879 -4.8397145 1.3228836
7.643394 -4.8297033 1.3150331
7.6490479 -4.8237596 1.3204467
7.6513166 -4.8193259 1.3292379
7.6741185 -4.7963204 1.3249376
7.667212 -4.79318 1.3180267
7.671217 -4.7938371 1.321933
7.6944418 -4.7776761 1.3143997
7.6957779 -4.7627249 1.3315574
7.7081289 -4.7500753 1.3336006
7.7155156 -4.7465572 1.3319114
7.7114096 -4.7277999 1.3295774
7.7194376 -4.7101398 1.3225222
7.7328649 -4.7169471 1.3292255
7.7350678 -4.707674 1.3282501
7.7329555 -4.6920142 1.3197213
7.7439175 -4.6790414 1.3198324
7.7587705 -4.6695204 1.3253924
7.7660751 -4.6453252 1.3151817
7.7705221 -4.6354256 1.3268896
7.7769976 -4.6247716 1.3313752
7.7817683 -4.6248407 1.3238689
7.6151857 -4.5030169 1.3599247
7.6303968 -4.4950557 1.3617444
7.6322966 -4.4914637 1.36206
7.6332064 -4.4765406 1.367249
7.6455722 -4.4771981 1.3546154
7.6380343 -4.4495296 1.3606983
7.6560411 -4.4410682 1.3601625
7.6638231 -4.4346566 1.3587033
7.6632977 -4.4282517 1.3570662
7.667243 -4.4235425 1.3645191
7.6836672 -4.4028625 1.3624792
7.6794715 -4.3932676 1.3577778
7.6970806 -4.3880544 1.3660368
7.6949902 -4.3681984 1.3585782
7.6980739 -4.3622284 1.3598129
7.708509 -4.3500328 1.358058
7.7050123 -4.3460526 1.3540977
7.7209644 -4.3204975 1.3658736
7.7354426 -4.3216605 1.3533704
7.7282681 -4.3050551 1.3548839
7.7285318 -4.2981882 1.3663759
7.7467408 -4.2816644 1.3567528
7.7602329 -4.2736645 1.3616241
7.7619691 -4.2738724 1.3556246
7.7562318 -4.2570992 1.3648595
7.7717137 -4.2359786 1.3555456
7.7654257 -4.2244272 1.3594595
7.7751627 -4.2229819 1.3581672
7.6038575 -4.1193171 1.401603
7.6127057 -4.1028795 1.3942056
7.6230526 -4.0921912 1.4028885
7.624877 -4.0892916 1.3973002
7.637063 -4.0788827 1.3889089
7.6341052 -4.0727053 1.389498
7.6451335 -4.058218 1.3960404
7.6453815 -4.0341864 1.3928753
7.656301 -4.0223646 1.3904247
7.6711192 -4.0267138 1.3985749
7.6646304 -4.0154581 1.4057529
7.6849022 -4.0011001 1.3987485
7.6777611 -3.9821267 1.3918046
7.6792884 -3.987046 1.3971242
7.6952119 -3.965481 1.4022088
7.7027297 -3.9525604 1.4028189
7.7108212 -3.9542837 1.3872565
7.70544 -3.9414163 1.4050581
7.7168789 -3.9232717 1.4040056
7.7258525 -3.915936 1.3879204
7.7229609 -3.900702 1.3923998
7.7272325 -3.890794 1.4005378
7.7444844 -3.8736095 1.3969423
7.7347775 -3.860466 1.3977126
7.7503748 -3.8569512 1.3893253
7.7510419 -3.8514569 1.4031283
7.7523041 -3.843394 1.4044698
7.7579885 -3.8262198 1.3879331
7.7614594 -3.8230999 1.3987876
7.7838631 -3.7964842 1.4062165
7.7701659 -3.7982233 1.3981106
7.7809334 -3.7811387 1.3891363
7.6230054 -3.6862626 1.4432229
7.6181645 -3.6727307 1.443001
7.61408 -3.6690044 1.4354947
7.621593 -3.6499989 1.4426758
7.6428938 -3.6351042 1.4271058
7.6455216 -3.6398826 1.4378881
7.651598 -3.6265326 1.4409612
7.6485138 -3.6161067 1.4398133
7.652844 -3.6046901 1.4260823
7.6490526 -3.5878036 1.4385842
7.6562729 -3.5773089 1.4291309
7.6609035 -3.5768018 1.44259
7.665298 -3.5655117 1.4291492
7.6821709 -3.5518265 1.42408
7.6862097 -3.5419426 1.4432648
7.694664 -3.534519 1.4270232
7.6938853 -3.5060921 1.4334764
7.6961651 -3.5058072 1.4396936
7.6972814 -3.4862359 1.4266579
7.7046523 -3.4754839 1.4398327
7.7045097 -3.4825256 1.4328188
7.7148991 -3.4699349 1.4356219
7.7187324 -3.4579337 1.4390175
7.7291098 -3.4340284 1.4253943
7.7344027 -3.4310379 1.4309436
7.7388659 -3.4245319 1.4331987
7.7470722 -3.4037287 1.4331558
7.7417164 -3.405555 1.4426658
7.7425632 -3.3911586 1.4410083
7.7503586 -3.3742704 1.4393574
7.7713141 -3.3623891 1.4399124
7.7652407 -3.3449676 1.4422991
7.7619553 -3.3485465 1.4259212
7.7820497 -3.3265674 1.4426759
7.7885065 -3.3240991 1.4316418
7.7804971 -3.3019567 1.4363275
7.7947278 -3.296382 1.4310235
7.6078782 -3.2041943 1.4697546
7.6114388 -3.1928842 1.4754155
7.613327 -3.1985071 1.4671516
7.6335497 -3.1878886 1.4799501
7.6343122 -3.1680422 1.4793441
7.6374464 -3.1561651 1.4643267
7.6441884 -3.1488616 1.4604495
7.6476698 -3.1397552 1.4681952
7.6401019 -3.1232963 1.4672314
7.6572051 -3.1172299 1.4609838
7.6489897 -3.101599 1.4793316
7.6628299 -3.0868933 1.4783711
7.6623158 -3.0747707 1.461163
7.6735229 -3.0668819 1.4639424
7.6775136 -3.0626719 1.4759309
7.6808834 -3.0597541 1.469153
7.6892209 -3.0345063 1.4790291
7.6936665 -3.0301743 1.4673557
7.6858425 -3.0177915 1.4614794
7.6970396 -3.0126729 1.4710015
7.7019744 -3.0001221 1.4654804
7.8884354 -3.0694561 1.4273243
7.8908267 -3.0519834 1.4272652
7.8959947 -3.047611 1.4244025
7.9039268 -3.0235403 1.4350514
7.903832 -3.0203776 1.437914
7.916944 -3.01314 1.4353141
7.9199166 -2.9857049 1.4263301
8.0950832 -3.0599201 1.4023461
8.1005716 -3.0373056 1.3894134
8.1155672 -3.0339594 1.3982973
8.1050262 -3.0115333 1.3984948
8.1129732 -3.010988 1.4051636
8.1208448 -2.9895318 1.4051974
8.310298 -3.0524356 1.3616278
8.3060198 -3.0313525 1.3668623
8.3245878 -3.021368 1.3683091
8.3205395 -3.0126064 1.3661599
8.3274908 -2.9967413 1.3683522
8.3271027 -2.9996486 1.3618593
8.5187883 -3.0583093 1.3307468
8.5344124 -3.0449803 1.3274091
8.5302162 -3.0279183 1.3332995
8.5326729 -3.0071826 1.3293229
8.5351467 -3.005636 1.3191639
8.7361774 -3.0578389 1.2818351
8.7370338 -3.0502505 1.2795527
8.7393208 -3.0309393 1.2944274
8.7394409 -3.0088897 1.293557
8.7417364 -3.0114245 1.2781633
8.7575226 -2.991477 1.2789896
8.9448614 -3.0438168 1.2445982
8.9429121 -3.0406792 1.2520369
8.9468355 -3.0193088 1.2483133
8.9467649 -2.9996719 1.2542324
8.9565182 -2.9886777 1.2412483
9.1520472 -3.0434451 1.2070172
9.1589022 -3.03756 1.2165769
9.1606131 -3.0157852 1.2159998
9.161437 -3.0159285 1.2206953
9.1668482 -2.984483 1.2131397
9.3599606 -3.0369506 1.1680331
9.3685169 -3.034308 1.1702548
9.3644943 -3.0119755 1.181371
9.376729 -2.9939299 1.1796422
9.3748646 -2.9903302 1.17642
9.5673132 -3.0415888 1.1316298
9.5749407 -3.0302386 1.1366255
9.5721102 -3.0014105 1.1306304
9.5686836 -2.9959743 1.1317203
9.7575788 -3.0480213 1.0948178
9.7713356 -3.0190692 1.1103749
9.7766285 -3.0058076 1.0955247
9.7841234 -3.000798 1.1099508
9.970686 -3.0454118 1.0726998
9.9676113 -3.0381715 1.0626413
9.9812946 -3.0099719 1.0679942
9.9868279 -2.998383 1.0713564
10.185628 -3.0504432 1.0335392
10.190203 -3.0332711 1.0244657
10.195847 -3.0190322 1.0286834
10.18123 -2.9952817 1.0282266
10.390752 -3.046011 0.99073815
10.396879 -3.0376446 1.0012815
10.397412 -3.0148752 0.99121451
10.397335 -2.9994311 0.99447513
10.596088 -3.0490255 0.9553563
10.591341 -3.0225427 0.95056212
10.589935 -3.0097418 0.95637494
10.607351 -2.9966173 0.96516043
7.6169333 -4.9176702 1.3937992
7.6245966 -4.894876 1.3811847
7.6369457 -4.8775887 1.3895524
7.6257739 -4.8818712 1.3907464
7.647047 -4.8638172 1.3977953
7.6391282 -4.856163 1.3959038
7.6550212 -4.8351054 1.3934119
7.6542306 -4.8401284 1.3855079
7.6705408 -4.8243098 1.3939404
7.6744518 -4.8077264 1.3996863
7.6845775 -4.8047419 1.3997402
7.685329 -4.7809434 1.391966
7.6934505 -4.7716308 1.3908467
7.7099252 -4.7603092 1.394803
7.7075787 -4.7545199 1.3861623
7.712266 -4.7434392 1.394515
7.7150469 -4.7432413 1.3932554
7.7353206 -4.7305942 1.3962929
7.7276759 -4.7083821 1.3844601
7.7484479 -4.7089896 1.3985119
7.7549515 -4.6861873 1.3848405
7.7614932 -4.6893339 1.3842502
7.7602458 -4.6710443 1.3822459
7.7778645 -4.6629515 1.380827
7.7794237 -4.6438608 1.394452
7.6033783 -4.545651 1.4236258
7.6244788 -4.5325942 1.4270113
7.6243043 -4.5258751 1.4322706
7.6271529 -4.5133963 1.4289596
7.6381536 -4.4867268 1.4342495
7.6431913 -4.4801192 1.4315412
7.6545429 -4.4735208 1.4348761
7.6652889 -4.4547052 1.4256814
7.654016 -4.4447923 1.4337513
7.6613092 -4.4398255 1.4300747
7.6822124 -4.4284453 1.4326891
7.6770515 -4.4222989 1.4177405
7.6952615 -4.4026465 1.418883
7.6987162 -4.4064507 1.4218668
7.6988444 -4.3855433 1.4208746
7.7042475 -4.3858738 1.4158348
7.7069278 -4.3611131 1.42673
7.7129273 -4.351851 1.4257685
7.7297173 -4.3400927 1.4240389
7.7345624 -4.3272567 1.4165868
7.7357159 -4.3197179 1.4298164
7.7394686 -4.303525 1.4184852
7.7482576 -4.2952933 1.4160906
7.7581739 -4.289763 1.419168
7.7510591 -4.2902446 1.4324194
7.7629366 -4.2714496 1.4345992
7.7697597 -4.2560849 1.4307898
7.7874627 -4.2408166 1.4254838
7.6114187 -4.1404467 1.4563918
7.6262689 -4.135931 1.4541378
7.6136518 -4.1163135 1.4686388
7.6342492 -4.1189785 1.4685398
7.6435008 -4.098876 1.4658718
7.6503429 -4.0948629 1.457925
7.6402478 -4.0839553 1.4586784
7.6433892 -4.0671453 1.4674013
7.648695 -4.0494733 1.4606543
7.670177 -4.0400438 1.458333
7.666338 -4.0398183 1.4511385
7.6781693 -4.0305262 1.4578414
7.6877317 -4.0196199 1.4535363
7.6917801 -4.0138702 1.4559315
7.6957145 -3.9846082 1.4677874
7.6969662 -3.9742279 1.4530064
7.7102556 -3.9796524 1.4584749
7.7042837 -3.9676301 1.4700869
7.7070198 -3.9559813 1.4686971
7.7229939 -3.9485154 1.4660548
7.7166314 -3.9305387 1.4529482
7.7230597 -3.9263654 1.4584358
7.7361755 -3.8982496 1.4641236
7.7449713 -3.8916907 1.4648478
7.7561474 -3.8867874 1.464113
7.7591639 -3.8662078 1.4630291
7.7673845 -3.857899 1.465784
7.7610588 -3.8611071 1.4698163
7.7663298 -3.8471096 1.4547451
7.7701955 -3.8226533 1.4563795
7.7714043 -3.8300598 1.465223
7.7794909 -3.8165236 1.4674642
7.6162367 -3.7087603 1.5022606
7.6153479 -3.7044845 1.4976025
7.6151686 -3.694473 1.4870491
7.6342397 -3.6868701 1.4862694
7.6322117 -3.6764569 1.5029849
7.6329241 -3.6577647 1.4856712
7.6376534 -3.6391816 1.4915262
7.6472969 -3.6420972 1.4910012
7.6585603 -3.6291542 1.4922261
7.6586518 -3.6134589 1.4961362
7.6609697 -3.6095238 1.4903697
7.6628466 -3.5916612 1.4982598
7.6800504 -3.5791466 1.485535
7.6866856 -3.5727155 1.4897796
7.6925263 -3.573451 1.4937967
7.6950679 -3.558599 1.4858582
7.7002802 -3.5441267 1.4858477
7.6913333 -3.5251055 1.4922594
7.7018456 -3.519901 1.5009447
7.7135682 -3.5196698 1.4946491
7.7091861 -3.5021706 1.501605
7.7190223 -3.4878297 1.495733
7.7167335 -3.4813054 1.491678
7.7217045 -3.4731507 1.5033497
7.7309055 -3.4641459 1.5035741
7.7441087 -3.4375749 1.4879321
7.7493577 -3.430752 1.4960369
7.7545819 -3.4178219 1.4924306
7.746202 -3.4193094 1.5032893
7.7664928 -3.39399 1.5036333
7.7604728 -3.3979535 1.4907234
7.7613935 -3.3769667 1.5013945
7.7764273 -3.3631389 1.4878234
7.7673907 -3.3491955 1.4916333
7.7900105 -3.3508918 1.4936678
7.79284 -3.3442104 1.4914863
7.8000121 -3.3170903 1.5053339
7.6142254 -3.2322059 1.5365338
7.6257577 -3.21807 1.5402164
7.6281343 -3.2084088 1.5384045
7.6308398 -3.2095182 1.5218085
7.6406207 -3.1944418 1.5353724
7.6410575 -3.1890521 1.5319301
7.6479087 -3.1774037 1.5315909
7.6385546 -3.1678252 1.5387087
7.6512203 -3.1600924 1.5216544
7.6616898 -3.149847 1.5208603
7.6659913 -3.1289842 1.5367485
7.666256 -3.1211104 1.5361524
7.670188 -3.1153669 1.5345911
7.6722932 -3.0914099 1.5212878
7.6777873 -3.0821493 1.5324218
7.6768303 -3.0769136 1.5383005
7.6924167 -3.0692744 1.525176
7.6876483 -3.0554216 1.5309724
7.6899829 -3.0533206 1.5338378
7.6952481 -3.0451534 1.5362787
7.6997046 -3.0170722 1.5289062
7.7000341 -3.0130994 1.5387251
7.7197523 -3.0095527 1.5235991
7.7178946 -2.9882441 1.5217358
7.9062557 -3.0569961 1.5032099
7.902298 -3.0395355 1.4944359
7.9042034 -3.0307872 1.5025885
7.9129686 -3.0110903 1.4938753
7.927515 -3.0133274 1.4965383
7.9249115 -2.9945524 1.4966381
8.108861 -3.0652461 1.4588602
8.1213923 -3.0498903 1.4695352
8.1237268 -3.0390246 1.4530087
8.1309185 -3.0142105 1.4670366
8.1362314 -3.0087507 1.4527791
8.1382256 -2.9915118 1.46496
8.3161354 -3.0647566 1.4196385
8.3175716 -3.0450683 1.4182025
8.3302784 -3.0350499 1.4234896
8.3256311 -3.0118363 1.4165057
8.3410683 -3.0129867 1.4174628
8.3339338 -3.0058732 1.422461
8.522728 -3.0472689 1.3917818
8.5298014 -3.0388575 1.3898128
8.5508871 -3.0293529 1.381971
8.5376987 -3.022058 1.3800297
8.556674 -3.0057471 1.3816411
8.5455341 -2.9922676 1.3913327
8.7387629 -3.0553703 1.3642061
8.7515316 -3.0420578 1.3638957
8.7572985 -3.0175269 1.3508091
8.7640066 -3.0043333 1.3532044
8.7556953 -2.9918015 1.3491582
8.9581814 -3.0401969 1.3263985
8.9524994 -3.0277543 1.3164581
8.9589577 -3.0327299 1.3218985
8.9634581 -3.0029426 1.3117297
8.969552 -3.0084913 1.3231146
9.1520309 -3.0532489 1.2892801
9.1559649 -3.0267942 1.2917836
9.1595697 -3.0188084 1.2866151
9.1700706 -3.0083342 1.2824315
9.1829491 -2.9903734 1.2785648
9.3589058 -3.0415146 1.2425981
9.3802509 -3.0412021 1.24181
9.3716364 -3.0186701 1.2435539
9.3884449 -3.0158606 1.2425866
9.3750658 -2.9911616 1.243566
9.5806179 -3.0347056 1.2144918
9.5800591 -3.0184875 1.2143182
9.5819845 -3.0229025 1.2093476
9.578723 -3.0010378 1.2220626
9.7791548 -3.0492735 1.1847211
9.7878876 -3.0338423 1.1797923
9.7958574 -3.0213192 1.1821086
9.8030195 -3.0016446 1.1738833
9.7919073 -2.989378 1.1753881
9.9881096 -3.0321507 1.133284
9.9970512 -3.0233901 1.1495908
9.9921217 -2.9994335 1.1487572
10.006998 -2.9977772 1.1501435
10.185505 -3.0399992 1.1048011
10.208166 -3.0172012 1.1118444
10.208689 -3.0099218 1.1006739
10.204263 -2.9989059 1.1083758
10.411064 -3.0402966 1.066873
10.400766 -3.0213757 1.0791967
10.411953 -2.9987292 1.0725416
10.416239 -2.9913781 1.0807098
10.606048 -3.027473 1.0436689
16.562847 0.016141258 0.1735798
16.561638 0.023899265 0.18219931
16.560884 0.061098054 0.16778646
16.565081 0.071693465 0.17129277
16.565264 0.11228757 0.17470902
16.573612 0.12259331 0.1715163
16.560715 0.14272799 0.16633277
16.574686 0.16255146 0.174659
16.570166 0.20278257 0.17817964
16.570307 0.2092291 0.16233996
16.562765 0.23659874 0.17848122
16.573771 0.26277408 0.17926101
16.573362 0.28824395 0.17412017
16.55851 0.31798986 0.17645539
16.567131 0.32803228 0.17626552
16.559135 0.36656728 0.16326238
16.567917 0.37238124 0.16727512
16.57148 0.41237524 0.16799279
16.563339 0.42809021 0.16582337
16.558685 0.44422045 0.16698264
16.558159 0.47311553 0.1723941
16.553743 0.49335355 0.1808639
16.570074 0.51355386 0.17168708
16.561232 0.53930372 0.16914019
16.554693 0.57410926 0.17352039
16.567932 0.58138674 0.17332084
16.548136 0.61794347 0.17582119
16.552319 0.6385957 0.17520218
16.557188 0.65166974 0.16718557
16.559856 0.68068618 0.17218745
16.56365 0.70980525 0.16297349
16.552824 0.73516822 0.17088751
16.550436 0.75755477 0.17589283
16.558838 0.77182406 0.1635399
16.544662 0.80031127 0.1628855
16.554832 0.8228265 0.16640264
16.544773 0.84636652 0.16337162
16.53718 0.87494397 0.17788923
16.548935 0.88927662 0.16237845
16.552643 0.90719485 0.17278293
16.541321 0.92985803 0.1692066
16.540751 0.96267748 0.16789474
16.548063 0.974123 0.16587231
16.54035 0.99501771 0.1750235
7.616189 -4.9305453 1.4645243
7.6197028 -4.9205956 1.4592079
7.6247425 -4.9066081 1.4600424
7.6360545 -4.902832 1.4499223
7.6363778 -4.890141 1.4568326
7.6417775 -4.8852677 1.4499513
7.6423988 -4.8754983 1.4581202
7.6664448 -4.8519168 1.4587994
7.6675987 -4.8496685 1.4547386
7.6788149 -4.8414702 1.4562533
7.6818056 -4.8351955 1.4509742
7.6870918 -4.812295 1.4650282
7.6870465 -4.8112278 1.4624431
7.7078209 -4.805707 1.4529979
7.6984606 -4.786706 1.4655979
7.7159953 -4.769134 1.4524156
7.7266335 -4.7577538 1.4583381
7.7254257 -4.7491274 1.4571676
7.7248821 -4.7461305 1.4475615
7.740263 -4.7386861 1.4554605
7.737143 -4.7150054 1.4589316
7.7487288 -4.7127776 1.4545908
7.754354 -4.697319 1.4605955
7.7573786 -4.6877952 1.4613903
7.7709427 -4.6743264 1.4504454
7.777092 -4.6700025 1.4463229
7.6210198 -4.560266 1.4966042
7.6197376 -4.540061 1.4909608
7.63727 -4.5270343 1.4975368
7.6251812 -4.5252461 1.4807699
7.6409769 -4.5131822 1.4968874
7.6402287 -4.4961219 1.4844276
7.6551247 -4.5000105 1.4966116
7.6560106 -4.4874339 1.4874955
7.6576762 -4.4678369 1.4810152
7.6683822 -4.4686198 1.488017
7.6749506 -4.442965 1.4924657
7.6780024 -4.4449496 1.4864953
7.6953959 -4.4357443 1.4829187
7.6993504 -4.4249554 1.4904883
7.7065234 -4.4046831 1.4994709
7.7097983 -4.3914576 1.4948546
7.7205987 -4.3896189 1.4956808
7.723568 -4.3731627 1.4984066
7.7374063 -4.3612938 1.4900434
7.7247491 -4.3449578 1.4902027
7.739079 -4.3482761 1.4853134
7.7378421 -4.3347516 1.4877275
7.7506199 -4.3100266 1.4886264
7.7598057 -4.3075261 1.4895848
7.7565465 -4.3040166 1.4800771
7.7622542 -4.28338 1.4930485
7.7833309 -4.2780771 1.4971033
7.6124921 -4.1609278 1.5206337
7.6169577 -4.1512809 1.5314775
7.6130457 -4.1403799 1.5278769
7.6292777 -4.141223 1.5301682
7.6406059 -4.1293621 1.5151864
7.6343336 -4.1107664 1.5141233
7.6489449 -4.109014 1.5247462
7.6444998 -4.0965343 1.5280555
7.6505322 -4.0843444 1.5211697
7.6695209 -4.0770621 1.5287468
7.6725497 -4.0538597 1.5276295
7.6653109 -4.052012 1.5255436
7.6889009 -4.0398827 1.5237353
7.6888757 -4.0373116 1.5304521
7.6911263 -4.0291891 1.5183907
7.6983805 -4.0130997 1.5142767
7.7045569 -4.0081458 1.5212598
7.7013407 -3.9933689 1.530059
7.7214189 -3.978276 1.5203757
7.7145963 -3.9698963 1.5272954
7.7153358 -3.9641745 1.5267296
7.7349429 -3.9513638 1.5173156
7.7324495 -3.9406199 1.5293276
7.7481322 -3.9155436 1.533199
7.7505169 -3.9138439 1.5144738
7.7608247 -3.9105022 1.5211104
7.747004 -3.8865817 1.5219659
7.7601509 -3.8714595 1.5268557
7.7620821 -3.8618264 1.5160875
7.7743149 -3.8645685 1.5229408
7.7734518 -3.8521082 1.5247495
7.7920084 -3.8455632 1.5285952
7.6043382 -3.7398329 1.566186
7.6253405 -3.7313454 1.5642806
7.6301994 -3.7259507 1.5532782
7.6363187 -3.7157102 1.5548129
7.6290593 -3.7047379 1.5494559
7.6426406 -3.6860509 1.548401
7.6410971 -3.6708498 1.5661516
7.6487703 -3.668818 1.5503254
7.6632819 -3.6530359 1.5561168
7.6595874 -3.6440692 1.5576032
7.6597238 -3.6313319 1.5667759
7.6636529 -3.622812 1.5538181
7.6656618 -3.6146386 1.5556297
7.6766534 -3.6055362 1.5570489
7.6891646 -3.5888684 1.5588006
7.6963038 -3.5837801 1.5485921
7.702373 -3.5653813 1.5629303
7.7061782 -3.56444 1.5486388
7.6941419 -3.5541034 1.5594609
7.7078824 -3.5325623 1.5485736
7.723094 -3.5159714 1.5597407
7.7274632 -3.5205226 1.5487374
7.7188597 -3.5081215 1.5552107
7.7320528 -3.4897704 1.5600821
7.7266502 -3.4839346 1.55091
7.7429838 -3.4759715 1.5561079
7.7490945 -3.4669356 1.5489795
7.7495279 -3.4590762 1.55206
7.7556548 -3.44822 1.554738
7.7525883 -3.4285753 1.548211
7.7586198 -3.4186559 1.5475218
7.7758036 -3.4092889 1.5515213
7.7819686 -3.3934319 1.5571551
7.7745914 -3.3892739 1.5503664
7.7720709 -3.3753955 1.558633
7.7803631 -3.3700449 1.5640755
7.6128836 -3.2652376 1.5815428
7.6191058 -3.2632742 1.5822856
7.6283941 -3.2600007 1.5830771
7.6203451 -3.2445953 1.5926989
7.6257544 -3.2279449 1.5814192
7.6304598 -3.2188826 1.588679
7.6391497 -3.2084117 1.6009611
7.6334586 -3.1900589 1.5865602
7.640964 -3.1989529 1.5951903
7.6567206 -3.1842656 1.5983167
7.6579056 -3.1607995 1.5971965
7.6627598 -3.1556826 1.5874249
7.6683416 -3.1458347 1.5903058
7.6747003 -3.1285779 1.5979649
7.6706657 -3.1304388 1.5916406
7.6753364 -3.1121073 1.5837386
7.687252 -3.1095831 1.5956612
7.6914349 -3.0972331 1.595284
7.6812019 -3.0818455 1.595354
7.699584 -3.0751541 1.5994462
7.7010775 -3.0517163 1.5963331
7.7014356 -3.0478477 1.5876596
7.7120075 -3.0428057 1.5981501
7.7054448 -3.0357985 1.5952077
7.7065268 -3.0172045 1.5997083
7.7212691 -2.9983034 1.5918386
7.7280941 -2.9918354 1.5957848
7.9106002 -3.0568361 1.5475839
7.90904 -3.0448143 1.5578332
7.9275346 -3.0387144 1.5640476
7.9301062 -3.0154097 1.5629674
7.9295487 -3.0160208 1.5550175
7.9403028 -3.010319 1.5613655
7.9415317 -2.9954236 1.5639704
8.1242638 -3.0531936 1.5206302
8.1271172 -3.0306594 1.5192121
8.1420851 -3.0254986 1.5334941
8.1409826 -3.0057888 1.5233194
8.1454477 -3.0119071 1.5141301
8.1401453 -2.9837835 1.5199986
8.3460779 -3.0452967 1.4843407
8.345973 -3.0433595 1.4908005
8.3379011 -3.0348752 1.4919022
8.3561621 -3.0093527 1.4968336
8.3570108 -3.0097346 1.4824413
8.3482866 -2.9915202 1.4992483
8.5437279 -3.0489974 1.4560919
8.5479269 -3.0251248 1.4550813
8.5619354 -3.0209973 1.4565995
8.5667372 -3.0063658 1.4548825
8.5573912 -2.9950159 1.4482584
8.7522125 -3.0531485 1.4181595
8.7675085 -3.0382123 1.4186932
8.7638893 -3.0292397 1.4131086
8.7651844 -3.0236259 1.4154955
8.7720699 -3.0109282 1.4244442
8.9622545 -3.0563848 1.3968925
8.9766283 -3.0378129 1.3950732
8.9699745 -3.0294678 1.385452
8.9848213 -3.020539 1.378527
8.9779329 -3.0051579 1.391011
8.9844036 -2.9851995 1.378536
9.1815777 -3.0364597 1.3550017
9.1723175 -3.0330644 1.3620043
9.1774549 -3.0125988 1.3623961
9.1849623 -3.0094554 1.3632553
9.3887815 -3.0480371 1.3164588
9.3915176 -3.0350358 1.3295146
9.392416 -3.0329335 1.3184071
9.3836746 -3.0202124 1.3237138
9.38799 -2.998589 1.3118814
9.592576 -3.0545883 1.2936982
9.5969477 -3.0244632 1.2877613
9.5915489 -3.0278423 1.2924206
9.5931349 -3.0103104 1.2847404
9.5950928 -2.9894807 1.2873927
9.8061104 -3.0349925 1.2460736
9.7959585 -3.0231755 1.2584544
9.7988434 -3.0146999 1.259847
9.8106012 -2.999187 1.2608649
9.9961901 -3.0410976 1.2166208
10.001465 -3.0326128 1.2169529
10.002319 -3.0040066 1.2140342
10.017218 -3.0050306 1.2143543
10.205617 -3.0451639 1.1850355
10.217534 -3.0307875 1.1769354
10.212084 -3.0177875 1.1885121
10.219077 -2.9991775 1.1782374
10.407605 -3.0373278 1.1489812
10.42841 -3.0322297 1.1553407
10.430211 -3.0142667 1.1436392
10.421532 -2.9952712 1.1464676
16.538574 -0.98572946 0.1674947
16.545057 -0.96950513 0.17644857
16.533167 -0.9478637 0.17233981
16.537291 -0.92666167 0.17526196
16.548586 -0.89418763 0.17804278
16.549496 -0.87796992 0.16324392
16.543453 -0.84519863 0.17986163
16.551975 -0.82106805 0.16258329
16.54014 -0.79383373 0.16784003
16.555286 -0.76973855 0.16421613
16.542101 -0.75664711 0.17509004
16.548412 -0.73844767 0.17910978
16.543646 -0.71347994 0.18169053
16.554737 -0.68569881 0.16239101
16.548719 -0.66789979 0.1724814
16.565451 -0.63043582 0.17570364
16.54735 -0.6202262 0.16860965
16.565836 -0.60267681 0.16255696
16.567011 -0.57810932 0.18064773
16.55341 -0.53951293 0.1797412
16.556152 -0.51518673 0.16883215
16.569736 -0.50560081 0.17302708
16.567308 -0.48180136 0.17909278
16.567429 -0.44789711 0.1698413
16.568218 -0.44096601 0.17528917
16.559065 -0.41822726 0.17509997
16.573101 -0.39447975 0.18201809
16.560011 -0.35310584 0.16338216
16.560837 -0.33138394 0.16620903
16.559721 -0.32405731 0.16452646
16.557667 -0.29474992 0.16406319
16.564671 -0.27258787 0.17007789
16.575836 -0.25355151 0.17678314
16.573036 -0.2150601 0.17428274
16.560953 -0.19641325 0.17560266
16.574286 -0.18752058 0.17654969
16.567396 -0.1451599 0.17813173
16.567392 -0.13642524 0.17797445
16.56872 -0.10736935 0.1764251
16.572842 -0.079901494 0.17908773
16.575251 -0.054928247 0.16794248
16.577162 -0.043358698 0.17584337
16.565056 -0.020997975 0.17966421
16.579922 0.0012880029 0.29995024
16.591951 0.028139204 0.29467502
16.58527 0.04804353 0.29517466
16.579502 0.080811732 0.29491681
16.595285 0.093361892 0.30027515
16.590879 0.12705803 0.2915706
16.58489 0.14472696 0.28721493
16.581532 0.1646861 0.28471333
16.586996 0.1864721 0.29066193
16.580328 0.21609965 0.29585186
16.57745 0.24027392 0.29713985
16.593733 0.25649449 0.30213127
16.584711 0.28608122 0.28387919
16.596155 0.30998111 0.29524767
16.587309 0.32977614 0.29601878
16.583788 0.36530897 0.28733867
16.591532 0.37503025 0.29318035
16.574886 0.40160254 0.29583427
16.575706 0.43388051 0.29712769
16.582445 0.43976507 0.28490245
16.574339 0.46307695 0.2937057
16.58749 0.50301147 0.2955842
16.5856 0.51429331 0.28390458
16.585424 0.53742212 0.29298055
16.576586 0.57213992 0.29870787
16.588488 0.58380508 0.29682496
16.571674 0.60371304 0.30152091
16.580673 0.62750798 0.28964746
16.57229 0.65268826 0.2869111
16.585171 0.68520254 0.28691921
16.565794 0.7102406 0.28709996
16.575188 0.72909045 0.28407687
16.566427 0.74674344 0.28919828
16.565954 0.76494741 0.29431206
16.574526 0.79507089 0.29100829
16.568792 0.81788486 0.29623544
16.561144 0.84470916 0.29823738
16.558159 0.86138552 0.30090225
16.563269 0.89056772 0.28561673
16.565609 0.91354913 0.29971594
16.567926 0.93810451 0.29572502
16.570391 0.95303708 0.28745714
16.569801 0.98022527 0.29371679
16.554298 1.0079894 0.29505643
7.6120162 -4.9514041 1.5157796
7.6221499 -4.9507494 1.5240415
7.6363049 -4.9311676 1.516121
7.627099 -4.9150019 1.5280286
7.6374125 -4.9073558 1.5314883
7.6438379 -4.8942065 1.5148295
7.6599531 -4.8786449 1.5187831
7.6629968 -4.8721323 1.531994
7.6635671 -4.8658977 1.5218939
7.6766901 -4.8516417 1.5254422
7.6858745 -4.851932 1.5159867
7.6961279 -4.829 1.5165654
7.6946282 -4.818809 1.526096
7.7051926 -4.8047056 1.5211529
7.7076502 -4.8071556 1.5132064
7.713552 -4.7900319 1.5277505
7.7227802 -4.7836294 1.5271878
7.7359471 -4.7610059 1.5224599
7.7423096 -4.7646189 1.513279
7.7385573 -4.7419009 1.5276573
7.758338 -4.7367759 1.5310388
7.7486477 -4.7281599 1.5266364
7.7595215 -4.7077909 1.5216992
7.7599106 -4.7035899 1.5201306
7.7753415 -4.703649 1.5253683
7.6138644 -4.5824742 1.5493175
7.6157203 -4.561029 1.5565645
7.6169987 -4.5530896 1.5556632
7.6335344 -4.5454454 1.5603672
7.6408744 -4.5481963 1.5569984
7.6425776 -4.5377946 1.5479543
7.6476474 -4.5236945 1.5567168
7.6483002 -4.5053186 1.5550294
7.6640005 -4.4931359 1.5467151
7.6781178 -4.4920893 1.5475047
7.6774573 -4.4701262 1.5565884
7.6883903 -4.4727011 1.5564979
7.6865549 -4.4603777 1.5537184
7.7038035 -4.4378839 1.547946
7.7057409 -4.4344001 1.5487763
7.7042947 -4.4155483 1.5493537
7.713789 -4.4179468 1.553367
7.7120314 -4.4059987 1.5450838
7.7285709 -4.3846412 1.5583017
7.7367811 -4.3754416 1.5618758
7.7457662 -4.3731637 1.5567145
7.7438192 -4.366199 1.5582702
7.7417674 -4.3473005 1.5614328
7.7569208 -4.3373699 1.5563644
7.7662868 -4.3317027 1.5640458
7.7764678 -4.3136683 1.5598364
7.767211 -4.3123102 1.562477
7.7819524 -4.2988663 1.546306
7.6155901 -4.1796703 1.5930659
7.6151028 -4.173985 1.5859066
7.618175 -4.1654267 1.5902399
7.6360712 -4.1449108 1.5907439
7.6355081 -4.1525283 1.5793437
7.6380925 -4.1310582 1.5870632
7.6555939 -4.1262741 1.5896304
7.6607618 -4.1173444 1.5794042
7.6617055 -4.1036925 1.5796998
7.6652746 -4.081305 1.5825944
7.672658 -4.0784645 1.5784782
7.6744447 -4.061954 1.5894269
7.6890574 -4.0481992 1.5783058
7.6879883 -4.0423613 1.5770642
7.6874084 -4.0428843 1.5775604
7.6954131 -4.0266061 1.5888737
7.7111225 -4.0185947 1.5943108
7.709384 -4.0111694 1.5780085
7.7174044 -3.9885387 1.5846814
7.7257051 -3.9880629 1.583057
7.7368855 -3.9659126 1.59358
7.7239347 -3.9676692 1.5899125
7.7419176 -3.9404922 1.5892911
7.7487645 -3.9400482 1.5837911
7.7543545 -3.9258335 1.5870434
7.7604256 -3.9092479 1.5958414
7.7577949 -3.9025722 1.5819104
7.7605863 -3.9032393 1.5846567
7.7670603 -3.881475 1.5792774
7.7801919 -3.8769841 1.5836102
7.7916842 -3.8668721 1.5793216
7.6169147 -3.7674677 1.6148384
7.6151094 -3.7636437 1.6144036
7.612668 -3.7384872 1.623618
7.624712 -3.7332399 1.6162447
7.6399937 -3.7274053 1.6146467
7.6440582 -3.7096708 1.6289064
7.6341767 -3.6945987 1.6116736
7.6470265 -3.6984913 1.6253719
7.6544824 -3.6746762 1.6127204
7.666256 -3.6647775 1.6193327
7.6537266 -3.6582723 1.6267062
7.6643572 -3.638828 1.6272875
7.6745381 -3.6270661 1.6224015
7.6739187 -3.6284869 1.6121316
7.6859107 -3.6198378 1.6170578
7.69629 -3.6123207 1.6290729
7.7009144 -3.5998669 1.6255071
7.7082906 -3.57973 1.6273885
7.7093501 -3.5772893 1.6224174
7.7177429 -3.5682123 1.6166706
7.7127333 -3.5567873 1.6267473
7.7150822 -3.539839 1.6255791
7.7179971 -3.5378022 1.6254767
7.736011 -3.5214624 1.6132505
7.7237406 -3.498193 1.6189632
7.7363806 -3.4895923 1.6214756
7.7410207 -3.4814003 1.6257174
7.7420802 -3.4708498 1.6193647
7.7450061 -3.4642425 1.6247143
7.7629457 -3.4542301 1.6283956
7.7551231 -3.4342005 1.6127493
7.7573624 -3.4367797 1.6232921
7.7784185 -3.421387 1.6251055
7.779357 -3.4129081 1.6124855
7.788054 -3.4016128 1.6123549
7.7824483 -3.3825753 1.6100382
7.6183834 -3.3049853 1.6574613
7.6193919 -3.2902513 1.652293
7.6140332 -3.2774444 1.6429245
7.6140089 -3.2715354 1.6527544
7.637651 -3.2582715 1.651793
7.6256323 -3.247576 1.6574248
7.6441412 -3.240617 1.6476151
7.6444488 -3.2174969 1.6554434
7.6521215 -3.2104421 1.6437192
7.6596489 -3.1937399 1.6601784
7.6648445 -3.1848776 1.6445719
7.6651068 -3.1796138 1.6530846
7.6601863 -3.1643012 1.6437832
7.6658821 -3.1535897 1.6497631
7.6813931 -3.1437988 1.6583728
7.6759276 -3.1305745 1.6470375
7.6760788 -3.123374 1.6520146
7.6864057 -3.1203837 1.6494586
7.6845455 -3.114224 1.6432981
7.6909466 -3.1050253 1.6431743
7.6937914 -3.0951045 1.6612407
7.701015 -3.0693796 1.6538928
7.7167363 -3.073019 1.6511734
7.7031417 -3.0553916 1.6484745
7.7155113 -3.0466669 1.6448698
7.7164755 -3.0278065 1.6437867
7.7260895 -3.0131788 1.6591951
7.7206659 -3.0125935 1.6468784
7.7326708 -2.9982224 1.6500001
7.9224987 -3.0531945 1.6192518
7.9282889 -3.0579836 1.6200324
7.9321303 -3.0398583 1.6157985
7.9286079 -3.0303056 1.6171795
7.9423509 -3.0186272 1.6254367
7.9333797 -2.9988432 1.6116612
7.9407883 -3.0023439 1.6259825
8.1317854 -3.0500681 1.5918208
8.133585 -3.0375738 1.5798106
8.1430521 -3.0372784 1.5913905
8.1556253 -3.0153425 1.5886165
8.1497755 -3.0118895 1.5900035
8.164691 -2.9888532 1.57846
8.34062 -3.0616355 1.5530661
8.3527451 -3.0365894 1.5606245
8.3531113 -3.0247264 1.5568932
8.3596849 -3.0096507 1.5585818
8.3605652 -3.0124459 1.5510644
8.3596077 -2.9977038 1.5446922
8.5524511 -3.04424 1.5149192
8.5711241 -3.0356748 1.5280626
8.5670061 -3.0171738 1.5132923
8.5642576 -3.0079565 1.5301855
8.5699501 -2.9922569 1.5309718
8.7688599 -3.0538943 1.4928195
8.7691145 -3.0339506 1.4872228
8.7656221 -3.0316617 1.4850465
8.7838001 -3.0127065 1.4884142
8.7744436 -2.9989052 1.4948573
8.7786989 -3.0022681 1.4895909
8.972331 -3.034853 1.4486103
8.972352 -3.0318975 1.4665283
8.9775848 -3.0159135 1.4617137
8.9996939 -2.9984441 1.4606431
9.0025711 -2.992542 1.4511738
9.1868868 -3.0529809 1.4170794
9.1984081 -3.0385668 1.4253817
9.1877365 -3.0102041 1.4203995
9.2004137 -3.0154107 1.4169735
9.1995153 -3.0005581 1.4179332
9.4010305 -3.044102 1.3853474
9.4062767 -3.0305901 1.3955344
9.4094229 -3.0160778 1.3891757
9.4077349 -3.0036721 1.3877506
9.5929937 -3.0525608 1.3673446
9.6008139 -3.0283442 1.3686256
9.6068621 -3.0168552 1.351506
9.8094778 -3.0594566 1.3375869
9.7988911 -3.0541456 1.3379761
9.8048592 -3.0339282 1.3203852
9.8117676 -3.0240705 1.3274353
9.8184128 -3.0132117 1.334891
9.8152256 -3.0034342 1.3237466
10.014435 -3.0371587 1.2995483
10.023506 -3.0199797 1.3056526
10.024493 -3.0192361 1.3025812
10.026741 -2.9966812 1.2976
10.220943 -3.0405638 1.2634578
10.224534 -3.0224996 1.2732947
10.228494 -3.0227301 1.26967
10.234843 -3.0002954 1.2622179
10.417628 -3.0509341 1.2395922
10.43852 -3.0332067 1.2253885
10.428248 -3.0092301 1.2213639
10.446098 -3.0004296 1.2405462
16.558315 -0.98638427 0.28921196
16.551277 -0.95668668 0.28368506
16.554678 -0.9414078 0.29504499
16.558306 -0.92471677 0.29546779
16.569555 -0.89659697 0.28712687
16.569801 -0.86531597 0.30040041
16.560373 -0.84366482 0.28630665
16.562284 -0.83121264 0.2921662
16.573595 -0.81185627 0.29108286
16.561264 -0.77949905 0.30055442
16.571594 -0.74690002 0.29199514
16.578533 -0.74271351 0.29002663
16.579914 -0.71646923 0.30022827
16.572622 -0.68790895 0.28401035
16.56572 -0.66937733 0.29279989
16.570446 -0.63184792 0.28975624
16.568413 -0.62495959 0.28524786
16.572252 -0.59734339 0.29007417
16.581921 -0.57956618 0.29113761
16.570473 -0.555237 0.30143756
16.588463 -0.52166402 0.30121419
16.577864 -0.50220478 0.30205357
16.585262 -0.48238623 0.28601202
16.58283 -0.45084843 0.29540408
16.584148 -0.4271687 0.30019972
16.574224 -0.41968796 0.29939547
16.581223 -0.39513275 0.30234894
16.583683 -0.36759683 0.28978682
16.590935 -0.33122075 0.29186893
16.579218 -0.32708785 0.29514605
16.57777 -0.28572661 0.28886092
16.596066 -0.27569637 0.29889882
16.595169 -0.23896566 0.28561798
16.578197 -0.22533292 0.30073673
16.590586 -0.21101607 0.29639608
16.587738 -0.18722565 0.29639623
16.584053 -0.15700537 0.29781076
16.58329 -0.12486362 0.28361961
16.589931 -0.10597418 0.30266225
16.578625 -0.079273619 0.30269483
16.590561 -0.054462034 0.30094498
16.59618 -0.031762846 0.28608119
16.591805 -0.010336704 0.28480336
16.613529 0.01684697 0.41524884
16.610922 0.033062909 0.4156296
16.603943 0.06615179 0.41665462
16.616932 0.075309314 0.40475345
16.611301 0.1034889 0.42184719
16.61145 0.11812839 0.41468325
16.610607 0.14130984 0.41107258
16.609764 0.17631033 0.40912595
16.60714 0.19684471 0.40673086
16.609619 0.2129508 0.42261416
16.610788 0.25134772 0.41946113
16.601135 0.26715419 0.40934911
16.61183 0.29602951 0.40915114
16.603518 0.31797379 0.41493589
16.603271 0.33440149 0.40572557
16.600088 0.35112146 0.40798032
16.609707 0.38717625 0.41024226
16.595684 0.40259841 0.42433071
16.59968 0.43563807 0.41577992
16.60125 0.45143139 0.4201619
16.598671 0.46870047 0.41976795
16.592907 0.4966549 0.41200802
16.596996 0.51567543 0.40995148
16.600857 0.54678696 0.40666783
16.590471 0.55808836 0.41664109
16.590841 0.58667326 0.42016414
16.593433 0.60537773 0.41657248
16.598257 0.63059109 0.40523422
16.597136 0.66036659 0.42376763
16.587431 0.6723091 0.41492712
16.602076 0.70230192 0.42018941
16.596294 0.72719193 0.41024068
16.58272 0.75686711 0.41614801
16.587059 0.77112943 0.41000336
16.588079 0.79576355 0.41199771
16.579042 0.82155913 0.41941556
16.593496 0.85077089 0.42237771
16.584326 0.86566073 0.40739411
16.583784 0.88031703 0.41902816
16.581743 0.90618896 0.4194482
16.590832 0.92765844 0.40670577
16.585148 0.96433151 0.41569942
16.589485 0.98844814 0.41121578
16.579695 0.99795187 0.41784334
7.6127653 -4.9596572 1.5913546
7.6190634 -4.9652224 1.585112
7.6256452 -4.9535356 1.5941827
7.6324592 -4.9371958 1.5914465
7.640079 -4.9185696 1.5899736
7.6546707 -4.9064794 1.5793505
7.6644583 -4.9032736 1.5946351
7.6729145 -4.8907924 1.5868706
7.6667261 -4.8878293 1.5838673
7.6766381 -4.8728881 1.5808175
7.6833086 -4.8543849 1.5795417
7.6827688 -4.8565178 1.5820776
7.695971 -4.8389883 1.5856675
7.6982293 -4.8215485 1.5949546
7.7177367 -4.823379 1.5922161
7.7157555 -4.817492 1.5909059
7.7231364 -4.7886777 1.5821306
7.7257872 -4.7782521 1.5951552
7.7406583 -4.7808447 1.5804527
7.752511 -4.7603402 1.5899913
7.7412987 -4.7599654 1.5873235
7.7487955 -4.7469158 1.5918038
7.7588129 -4.7274342 1.5830853
7.7724056 -4.7124496 1.5810685
7.77527 -4.7046981 1.5864742
7.606379 -4.6032624 1.6179079
7.6250219 -4.5837827 1.6164918
7.6348743 -4.5683479 1.6147258
7.6377363 -4.5647225 1.6195825
7.6458812 -4.5559101 1.6141493
7.6435499 -4.54496 1.6182873
7.658536 -4.5331488 1.624662
7.6579871 -4.51794 1.6196965
7.6687055 -4.5157437 1.6188844
7.6773915 -4.497273 1.6149832
7.6714683 -4.4852667 1.6192775
7.6860662 -4.4810348 1.6124288
7.6992326 -4.4733524 1.610383
7.690618 -4.4491949 1.6213218
7.7068458 -4.4432654 1.6104234
7.7176247 -4.4460244 1.6198163
7.7125268 -4.4201407 1.6103532
7.7137885 -4.4211335 1.6254226
7.7300696 -4.3977213 1.6120031
7.7255239 -4.3919206 1.6263601
7.7370615 -4.3783264 1.6220207
7.7528787 -4.3764029 1.6112019
7.7618322 -4.3675661 1.6173452
7.7687244 -4.3535819 1.6169168
7.7665405 -4.3495941 1.6116803
7.7734432 -4.3210354 1.612938
7.7697234 -4.3237681 1.6293246
7.603785 -4.2154698 1.6448528
7.6255074 -4.1932425 1.6421229
7.6137958 -4.1817098 1.6544124
7.636426 -4.1847725 1.6495064
7.6347022 -4.1781368 1.655726
7.6421447 -4.1486516 1.6599755
7.6357155 -4.1383619 1.6473941
7.6488428 -4.1363297 1.6479768
7.6567192 -4.1334529 1.646286
7.6658382 -4.1203389 1.6510218
7.671329 -4.1064506 1.6572593
7.6814346 -4.0967188 1.6551077
7.688796 -4.0845633 1.6538645
7.6884313 -4.0756264 1.6589258
7.683146 -4.0542483 1.6599818
7.7040653 -4.0512471 1.6598744
7.7092195 -4.0404801 1.6593996
7.7017765 -4.0223756 1.6502919
7.7149014 -4.0221696 1.6533877
7.7263207 -4.0186052 1.6589161
7.7224607 -3.9952955 1.6476434
7.7248235 -3.9876101 1.6554052
7.745019 -3.9782794 1.6446173
7.7439566 -3.9750135 1.6520529
7.7479405 -3.9627185 1.6501453
7.7529655 -3.9351749 1.6405095
7.7578673 -3.9281332 1.6509035
7.76228 -3.914175 1.648657
7.7775693 -3.9127176 1.6558632
7.7759395 -3.9054518 1.6558732
7.7798228 -3.8876414 1.6484244
7.7924185 -3.8730495 1.6578845
