# .PCD v0.7 - Point Cloud Data file format
VERSION 0.7
FIELDS x y z
SIZE 4 4 4
TYPE F F F
COUNT 1 1 1
WIDTH 1572
HEIGHT 1
VIEWPOINT 0 0 0 1 0 0 0
POINTS 1572
DATA ascii
-2.5804071 3.4152138 1.9881682
-2.5839424 3.4278395 1.9811385
-2.5734642 3.4100971 1.9819977
-2.5897694 3.4195054 1.9863861
-2.5896997 3.4040096 1.9742577
-2.6015396 3.3999519 1.9898798
-2.6057849 3.399225 1.9769182
-2.6099555 3.3933084 1.9871963
-2.6167133 3.386791 1.9764699
-2.6103592 3.3825629 1.9893609
-2.6213722 3.3803096 1.9928066
-2.6312509 3.3792753 1.9924862
-2.6281543 3.3734689 1.9780383
-2.6241934 3.3761015 1.97662
-2.6358387 3.363543 1.9833338
-2.6396077 3.3638792 1.9896247
-2.6477489 3.3646994 1.97883
-2.6488469 3.3660729 1.9857665
-2.6596615 3.3654079 1.9898401
-2.6611972 3.3558109 1.9733467
-2.669837 3.3399096 1.9782676
-2.6750257 3.3388333 1.9858284
-2.6805296 3.3455522 1.9912635
-2.680476 3.3409255 1.9830188
-2.6818357 3.3293417 1.9859096
-2.6964762 3.3386722 1.9928371
-2.6848204 3.3245394 1.9842917
-2.7039542 3.3139815 1.9808334
-2.6961462 3.3172767 1.9804301
-2.7042592 3.3236985 1.9741565
-2.7088604 3.3061378 1.9757148
-2.7085357 3.3080404 1.9799364
-2.7206445 3.3090861 1.974623
-2.727313 3.2948267 1.9884356
-2.7222209 3.3038442 1.9744235
-2.7342327 3.2828524 1.9735076
-2.7393117 3.278142 1.9822309
-2.7529306 3.2789183 1.9841747
-2.7500024 3.2721181 1.9931989
-2.747472 3.2818148 1.9924362
-2.75121 3.2715151 1.9779108
-2.7533844 3.2661397 1.9890924
-2.7713315 3.2732494 1.9851303
-2.7745869 3.2582796 1.9907262
-2.784024 3.2529852 1.989163
-2.787468 3.2602572 1.990438
-2.7918222 3.2470233 1.990839
-2.7874479 3.2447379 1.975859
-2.8011241 3.2499425 1.977928
-2.8057709 3.2422345 1.9735492
-2.8111749 3.2353396 1.9827327
-2.8110988 3.2308166 1.9904089
-2.8198354 3.2328868 1.9890696
-2.8125288 3.2162368 1.9766413
-2.8196208 3.2146795 1.982806
-2.8282702 3.2142026 1.9801364
-2.8356392 3.2138901 1.9881327
-2.842602 3.2024655 1.9777497
-2.8445389 3.2018726 1.9764842
-2.8444014 3.2011356 1.9914292
-2.8486369 3.1994917 1.9834048
-2.8436835 3.1824152 1.9747885
-2.8510482 3.1810882 1.9921803
-2.8597469 3.1915486 1.9768661
-2.8608682 3.1793921 1.9839448
-2.8758192 3.1830556 1.974503
-2.8734341 3.1638141 1.9887117
-2.8830471 3.1620686 1.9754647
-2.8830373 3.1628392 1.9856
-2.8842876 3.1481948 1.9789797
-2.8905871 3.1537566 1.9747031
-2.9049056 3.1487083 1.9773439
-2.9078343 3.1407259 1.9826579
-2.9133656 3.1484699 1.9824383
-2.9142056 3.1395123 1.9740747
-2.9079611 3.140018 1.9733931
-2.9111528 3.127317 1.9774948
-2.92013 3.1294055 1.9838821
-2.9223487 3.115901 1.9750769
-2.9344263 3.1255379 1.9756706
-2.9331183 3.113261 1.9858755
-2.9360814 3.1110461 1.9750874
-2.9363976 3.1102769 1.9803785
-2.9513943 3.108345 1.9774815
-2.9466047 3.0899365 1.9897008
-2.9501729 3.0821302 1.9865055
-2.954417 3.0954838 1.9746952
-2.9745536 3.0842063 1.9890656
-2.968297 3.0750508 1.9740298
-2.97084 3.0781524 1.9927349
-2.9727836 3.0668907 1.9832735
-2.9845161 3.0769897 1.9757134
-2.987031 3.0710895 1.9915065
-2.9842489 3.0545044 1.9894962
-3.0043581 3.047015 1.993212
-2.9922421 3.0602574 1.9932616
-3.0033154 3.0535505 1.9908115
-3.0061932 3.0509956 1.9812363
-3.0146947 3.03898 1.9866641
-3.0182261 3.0286984 1.9793577
-3.0230467 3.0207448 1.9849603
-3.0173225 3.0253239 1.9848379
-3.0391529 3.0116477 1.9829978
-3.0251839 3.0250075 1.9887609
-3.0332193 3.002506 1.9912289
-3.037533 3.0163627 1.9911397
-3.0417912 3.003382 1.9885492
-3.0484934 2.9917541 1.9876161
-3.064765 2.9958491 1.9788851
-3.0556028 3.0006311 1.9840965
-3.053741 2.9848053 1.985584
-3.0662706 2.9789107 1.9758862
-3.0789165 2.9753866 1.9767537
-3.0733967 2.9700263 1.9752282
-3.0821075 2.9608197 1.9754544
-3.0883446 2.9714825 1.9737964
-3.0946648 2.9620645 1.9834228
-3.0835693 2.9501152 1.9856919
-3.093401 2.9460595 1.9763325
-3.0919576 2.9553254 1.9760377
-3.1052966 2.9506066 1.9842054
-3.1171422 2.9375052 1.9907722
-3.1186795 2.9358995 1.9781147
-3.119343 2.9239488 1.9844027
-3.121526 2.9274166 1.9857954
-3.1234767 2.9287708 1.982168
-3.1270795 2.907922 1.9734454
-3.1410496 2.9222801 1.9771022
-3.1327446 2.9109118 1.9810377
-3.1337926 2.9050858 1.9785793
-3.1551294 2.8900139 1.9757477
-3.1482923 2.8871837 1.9841666
-3.1548822 2.8868971 1.9753368
-3.1541235 2.8900218 1.9789194
-3.1670709 2.8750322 1.9903384
-3.1586192 2.8821547 1.987486
-3.1737888 2.8697312 1.9881649
-3.1776748 2.867388 1.9875877
-3.1778977 2.8573945 1.9800333
-3.1741788 2.8503911 1.9910501
-3.1929123 2.8460829 1.9913977
-3.1944709 2.852638 1.9933233
-3.1876044 2.8366227 1.9793762
-3.1895616 2.8453798 1.9929733
-3.2079301 2.8451972 1.976006
-3.2148731 2.8374677 1.9905919
-3.2046621 2.8185637 1.9771906
-3.2137661 2.8197627 1.9858882
-3.2234411 2.8247216 1.9890395
-3.220664 2.8173759 1.9896406
-3.2268641 2.8152671 1.9903921
-3.2327101 2.8155639 1.9821627
-3.2366242 2.806685 1.9823878
-3.234479 2.7998004 1.9758452
-3.2387304 2.7984931 1.9736007
-3.239943 2.7941818 1.9881129
-3.2465632 2.7840145 1.9882129
-3.2465782 2.7886696 1.9740093
-3.2578893 2.7675705 1.9892672
-3.2660427 2.7731621 1.9816877
-3.2535887 2.7564619 1.9765129
-3.2603769 2.757817 1.9761541
-3.275388 2.7591534 1.9914409
-3.2701676 2.7465236 1.9843732
-3.2714834 2.7535248 1.9805336
-3.2750373 2.7431901 1.9769237
-3.2840726 2.7301049 1.9876926
5.0164437 -4.8861365 1.3242902
5.0201745 -4.8768396 1.339887
5.0243597 -4.8825383 1.3229415
5.0298514 -4.8642697 1.3329024
5.0486689 -4.8520732 1.3274975
5.0535035 -4.8612075 1.3267539
5.0587592 -4.8491111 1.3353653
5.0660915 -4.8309712 1.3333108
5.0722141 -4.8428569 1.3209926
5.0813022 -4.8190908 1.325543
5.0705395 -4.8169861 1.3387429
5.0815611 -4.8179765 1.3342518
5.0881701 -4.8015981 1.3370646
5.0978236 -4.8065352 1.331139
5.0974278 -4.7994514 1.3303936
5.1116176 -4.7743206 1.333488
5.1250534 -4.7707109 1.3216434
5.1270909 -4.7665372 1.3208936
5.1270642 -4.7629981 1.3212039
5.1347089 -4.7571192 1.3382164
5.146894 -4.7487411 1.3302608
5.1522694 -4.7360692 1.334232
5.1531429 -4.7235069 1.3274894
5.1568198 -4.7279992 1.3287084
5.174561 -4.7195859 1.3299005
5.1715465 -4.7036715 1.3291035
5.1916165 -4.7009997 1.3247863
5.1998315 -4.7029591 1.3375044
5.2072868 -4.6916046 1.3266132
5.2150426 -4.6792536 1.3344433
5.2198005 -4.6813564 1.3234849
5.2165928 -4.6647129 1.3380224
5.2173457 -4.6538143 1.337937
5.2313461 -4.6458473 1.3261647
5.2465553 -4.6467381 1.335602
5.2429466 -4.6372323 1.3337409
5.2585306 -4.6342349 1.3273295
5.2497869 -4.629591 1.3317271
5.2737513 -4.6240501 1.3202392
5.2668142 -4.6173019 1.3338523
5.2676973 -4.6123338 1.3381038
5.2776113 -4.5971017 1.3317308
5.282053 -4.5876346 1.3289796
5.2863984 -4.5706749 1.3269088
5.2989616 -4.5650034 1.336652
5.3009515 -4.5694284 1.3285967
5.3210702 -4.5647464 1.3362253
5.3147674 -4.555275 1.3211753
5.3328514 -4.5482965 1.3243349
5.339437 -4.5347013 1.326902
5.3396258 -4.5266595 1.3270876
5.3440552 -4.5151296 1.3351468
5.3621016 -4.5055747 1.3253056
5.3573861 -4.4980793 1.3250479
5.3705897 -4.504416 1.323076
5.3735261 -4.4951477 1.3292851
5.3883963 -4.4921355 1.3327726
5.3908849 -4.4817905 1.3383193
5.398313 -4.4597158 1.3234236
5.3888903 -4.4573984 1.3346933
5.4020243 -4.461226 1.3265657
5.4153333 -4.4469471 1.3225203
5.4166903 -4.4409342 1.3205736
5.4281964 -4.4259386 1.3386569
5.4194341 -4.4240313 1.3229293
5.428689 -4.4254689 1.3289871
5.4441428 -4.4183073 1.3305655
5.4430733 -4.394917 1.3349882
5.4475398 -4.3903489 1.3339769
5.4571004 -4.381443 1.3277646
5.4579196 -4.385632 1.3301983
5.4706006 -4.3627305 1.3393756
5.4792261 -4.3646798 1.327022
5.4858937 -4.3613205 1.3221111
5.490634 -4.3529105 1.3315462
5.4996362 -4.3414216 1.3319736
5.4946852 -4.3406448 1.3319842
5.511302 -4.3270926 1.3277974
5.512331 -4.3152189 1.3205833
5.5123377 -4.2999182 1.3346707
5.5261216 -4.3099217 1.336956
5.5423284 -4.2933569 1.3345212
5.5477018 -4.2942691 1.3225071
5.5407104 -4.2746053 1.326214
5.5487981 -4.2762818 1.3306836
5.5663095 -4.2550263 1.3389864
5.5642376 -4.264781 1.3204019
5.5621653 -4.243968 1.3276968
5.5758958 -4.2481642 1.3391849
5.5824008 -4.2383804 1.3382839
5.5829825 -4.22083 1.3396815
5.5858393 -4.213079 1.3299377
5.6062498 -4.2059493 1.3315669
5.5946355 -4.1917953 1.3251373
5.6067166 -4.1955276 1.3292997
5.6232572 -4.1877117 1.3269777
5.6280894 -4.1679192 1.327153
5.634326 -4.1761403 1.3203849
5.6278467 -4.1565619 1.3216562
5.6328444 -4.1563973 1.3249379
5.6369305 -4.1415601 1.3379891
5.6424026 -4.1297641 1.331002
5.6581206 -4.1234446 1.3233469
5.6554565 -4.1146159 1.3220396
5.6663518 -4.1195707 1.3291858
5.6813984 -4.1138396 1.336326
5.6741118 -4.0891199 1.3354278
5.6869893 -4.0839958 1.3384697
5.6930881 -4.0911727 1.3332435
5.7004471 -4.0791621 1.3203267
5.7110767 -4.0688658 1.3343842
5.714746 -4.0588856 1.3323666
5.7114177 -4.0589657 1.328789
5.7204227 -4.0474763 1.326153
5.7281094 -4.0308475 1.3306668
5.7229314 -4.0249171 1.3330083
5.7448821 -4.0120068 1.3321581
5.7459235 -4.011941 1.3285125
5.7499957 -4.0114884 1.3297627
5.7488308 -3.9893777 1.3350878
5.7547374 -3.9823267 1.3227658
5.7546906 -3.9772849 1.3324727
5.772615 -3.9612386 1.3341404
5.7669501 -3.9618437 1.3393302
5.7786384 -3.960407 1.3331736
5.7948294 -3.9497826 1.3249646
5.7933502 -3.9428301 1.3216752
5.7910099 -3.9204481 1.3304526
5.8050127 -3.919594 1.3316759
5.8002543 -3.9054949 1.3269957
5.8208094 -3.911067 1.3213444
5.8290315 -3.9022529 1.332705
5.8269491 -3.8810704 1.3320742
5.8265233 -3.8910971 1.3227928
5.8312755 -3.874969 1.3268948
5.8498602 -3.8681719 1.3335602
5.8402243 -3.8483651 1.3391095
5.8472877 -3.8563981 1.3389646
5.8631167 -3.8359168 1.3315895
5.8601584 -3.825671 1.3302219
5.872508 -3.8203356 1.3351828
5.8791947 -3.8122327 1.3208507
5.8772311 -3.8116555 1.3395866
5.8746247 -3.7969363 1.3201736
5.8827257 -3.7828848 1.3287591
5.8949175 -3.7756584 1.3360039
5.8937631 -3.7834654 1.3349109
5.8981462 -3.7695956 1.3376323
5.9023733 -3.7652719 1.332675
5.9192133 -3.7492704 1.3297961
5.9146748 -3.7462716 1.3240775
5.9350853 -3.7419269 1.3382792
5.9411521 -3.7248755 1.3248683
5.9459434 -3.7157483 1.3379794
5.9513102 -3.7038269 1.336937
5.945251 -3.7050092 1.334909
5.946425 -3.6926298 1.3368542
5.9664941 -3.6811395 1.3244421
5.9692736 -3.6706829 1.3281196
5.9670835 -3.6686356 1.3395568
5.9820032 -3.6563649 1.3257438
5.9711928 -3.64891 1.3280193
5.9745722 -3.6406028 1.3390824
5.9845295 -3.6327076 1.3310018
5.987586 -3.6246376 1.3265644
5.9895883 -3.6278069 1.3326592
6.009551 -3.6149709 1.3228408
6.0114474 -3.607223 1.336213
6.0209198 -3.6018412 1.3317344
6.0140581 -3.5837831 1.320989
6.0186219 -3.5759277 1.3341929
6.0293608 -3.5639935 1.3265231
6.0423636 -3.5537786 1.3388245
6.0464177 -3.5586946 1.3306783
6.0423799 -3.5456297 1.3222524
6.0538921 -3.5356266 1.3222998
6.0514879 -3.5307133 1.3268192
6.0592537 -3.5089447 1.3307154
6.0603795 -3.5027328 1.3316151
6.0770149 -3.5084002 1.3221877
6.0628934 -3.4945095 1.3322234
6.0819635 -3.4748735 1.3257942
6.0733523 -3.4672177 1.3211734
6.0970306 -3.4604781 1.3232236
6.0925508 -3.4627357 1.3299186
6.0996332 -3.4584279 1.3381896
6.1067514 -3.4414599 1.3229399
6.0983768 -3.4416499 1.3210179
6.1138868 -3.4256263 1.3368602
6.1102843 -3.4178669 1.3385805
6.1172428 -3.4091177 1.3257303
6.1342249 -3.4061744 1.3240474
6.1247659 -3.3967075 1.3215456
6.1306744 -3.3884151 1.3373014
6.1386209 -3.3694432 1.3223109
6.1532507 -3.3682184 1.3231329
6.1561394 -3.3646927 1.3324208
6.1637659 -3.354347 1.3330097
6.1494589 -3.3332851 1.3211068
6.1709824 -3.3206072 1.328441
6.1742139 -3.3257411 1.3359954
6.1645832 -3.3186505 1.3379575
6.1732578 -3.3057649 1.3208443
6.0079746 -3.1998944 1.3701413
6.0097513 -3.2028499 1.3831879
6.0165257 -3.1958864 1.3688974
6.0241098 -3.1707327 1.3695639
6.0209708 -3.1626387 1.3720009
6.0384088 -3.1535263 1.3669181
6.043932 -3.1475534 1.3859248
6.0367775 -3.1429994 1.3712029
6.0371656 -3.132715 1.3749704
6.0595045 -3.1183825 1.3830156
6.0647182 -3.1225038 1.3765061
6.0525503 -3.1093235 1.3786598
6.0734177 -3.093832 1.3793896
6.0599823 -3.095207 1.3768795
6.0672021 -3.084161 1.3740634
6.0768471 -3.0801051 1.3719536
6.0813971 -3.0749419 1.3674043
6.0849419 -3.0613375 1.3789907
6.0937533 -3.0517373 1.372437
6.0863204 -3.0441794 1.371785
6.1069202 -3.0357771 1.3785748
6.1009994 -3.0238996 1.3701019
6.0972199 -3.0155008 1.3686715
6.1141586 -3.0048707 1.377411
6.1085753 -2.991343 1.3687353
6.1201639 -2.992481 1.3756485
6.3042941 -3.0788951 1.3325851
6.309319 -3.0602789 1.3213133
6.3059182 -3.0571258 1.3311566
6.3159509 -3.0456686 1.3200666
6.3053198 -3.0378621 1.3288819
6.3214664 -3.0202155 1.3210715
6.3291273 -3.0105758 1.333151
6.3353457 -3.0082126 1.3273457
6.3302917 -2.9956362 1.3265474
6.5122733 -3.0789895 1.2894181
6.525548 -3.0734832 1.2895367
6.5224128 -3.0472391 1.2794894
6.5279932 -3.0486703 1.2838069
6.5234046 -3.0443311 1.2907875
6.5277128 -3.0348728 1.2767743
6.5408239 -3.0135059 1.2916015
6.5461116 -3.0087037 1.2872565
6.5434661 -3.0018961 1.2764567
6.5550032 -2.984344 1.2894095
6.7225986 -3.0655878 1.2268397
6.7429614 -3.0567374 1.2273614
6.7434297 -3.0353017 1.2450405
6.7538376 -3.0325525 1.2321954
6.7485499 -3.0186465 1.2345908
6.7502294 -3.0246737 1.2373395
6.7578826 -3.0018191 1.2323444
6.7603502 -2.9978926 1.2430348
6.9362216 -3.0596998 1.1847439
6.9436278 -3.055028 1.1815432
6.9439735 -3.0438085 1.1888295
6.9484019 -3.0365043 1.1955792
6.9533386 -3.0329967 1.1943715
6.9559412 -3.0233328 1.1865139
6.9656849 -3.0031955 1.1831574
6.9778104 -3.005604 1.1843628
7.1513033 -3.0614655 1.1523396
7.1612625 -3.0619154 1.1414866
7.1618981 -3.0484421 1.1382827
7.1708956 -3.0318453 1.1500679
7.1766782 -3.0191722 1.1433839
7.1697335 -3.0063264 1.1343094
7.1895242 -3.0127857 1.1390421
7.1880932 -3.0008717 1.1437323
7.3782706 -3.0583229 1.092181
7.3657022 -3.0527055 1.0951694
7.3743243 -3.0364156 1.0894662
7.3775754 -3.0344479 1.0933337
7.3899598 -3.0161121 1.1006892
7.3991251 -3.0130327 1.09465
7.4000616 -3.0084105 1.0912868
7.5745034 -3.0680952 1.0440997
7.5797544 -3.0588133 1.0471106
7.5897236 -3.0351601 1.0520205
7.5843682 -3.0249932 1.0443527
7.5941129 -3.0116692 1.0520245
7.6068316 -3.0139828 1.0457032
7.613832 -2.9972904 1.0510603
7.7855954 -3.063817 0.99779147
7.7838888 -3.0537703 1.0039674
7.7961278 -3.0469897 1.0044585
7.8049884 -3.0301588 1.0080884
7.813313 -3.0123522 1.0104297
7.8046336 -3.0088375 1.0058482
7.8208489 -2.9949241 1.0008512
7.9909797 -3.0450971 0.95192337
8.007266 -3.0369146 0.95675451
8.0172148 -3.025933 0.94767791
8.0125055 -3.0282848 0.95284057
8.0211773 -3.0166149 0.95718539
8.0160103 -2.9969621 0.95744061
8.2134943 -3.0607662 0.9169839
8.212512 -3.0321407 0.91011804
8.2138548 -3.0364056 0.91587895
8.2305994 -3.0286503 0.90465927
8.222332 -3.0165434 0.90196675
8.2317867 -2.9924128 0.91629761
8.4087963 -3.0491276 0.86377829
8.4140663 -3.0479798 0.86440241
8.4244823 -3.0223749 0.86551958
8.4192276 -3.0061367 0.85510653
8.4342117 -2.9987743 0.857777
8.4353886 -2.9966578 0.85762382
8.6329737 -3.0424604 0.8150844
8.6331034 -3.0304787 0.81550568
8.6419964 -3.0309801 0.81656706
8.6281805 -3.0062258 0.8102864
8.6486788 -2.991385 0.82236022
8.8270464 -3.0392673 0.77717566
8.842371 -3.0369868 0.77251697
8.8387957 -3.0241888 0.77234501
8.8447905 -3.0206177 0.76777798
8.8534374 -3.0000639 0.77356422
7.5018878 1.2151096 1.2502551
7.4990635 1.2395749 1.2459679
7.5080638 1.2419401 1.254498
7.5075183 1.263868 1.24014
7.5039444 1.2707796 1.2423866
7.503727 1.2719746 1.2387918
7.4947371 1.291862 1.2397614
7.4952869 1.3059026 1.2431699
7.5010486 1.3068974 1.2417159
7.4988723 1.3138955 1.2485572
7.483871 1.3261669 1.2489578
7.4967909 1.3373147 1.2433531
7.4854088 1.3591779 1.2496455
7.2908301 1.3275943 1.2926439
7.2936392 1.3285452 1.2868466
7.2986813 1.3510379 1.2917835
7.2801142 1.3663143 1.2861493
7.2825027 1.3639289 1.2840997
7.2882853 1.3691078 1.2925916
7.2925997 1.3939281 1.2976305
7.2837415 1.4055791 1.2844927
7.2752695 1.4119966 1.2920569
7.2811785 1.4088933 1.2910413
7.273366 1.4247994 1.2826328
7.2832932 1.4453566 1.2850051
7.2674098 1.4528118 1.2997024
7.2764487 1.46357 1.2995108
7.2598391 1.4586008 1.2867715
7.0702209 1.4426739 1.3342954
7.0800796 1.4513465 1.3312383
7.0749636 1.4530876 1.3296778
7.0766959 1.4682975 1.344383
7.065979 1.4713719 1.3458358
7.0742321 1.4886029 1.3330485
7.0540633 1.497745 1.3306746
7.056253 1.513001 1.3456154
7.0531263 1.5193076 1.3411763
7.0497942 1.5310307 1.3416328
7.053709 1.5461205 1.3346691
7.0598903 1.5530692 1.3265151
7.0430007 1.5569156 1.330242
7.0445366 1.5645219 1.3393217
7.0407639 1.5834522 1.3416214
7.0384307 1.5926907 1.3313006
7.0432959 1.6038291 1.3402731
7.045774 1.5992397 1.334656
7.043179 1.6136197 1.3455026
7.0361314 1.6267775 1.3382325
7.0295267 1.6459739 1.3362153
7.0359445 1.6534886 1.3313129
7.0341945 1.6462647 1.340426
7.0161576 1.6627415 1.3273174
7.0271869 1.6776241 1.3433141
7.0205026 1.6923655 1.3387275
7.0234833 1.6941782 1.3354607
7.0154228 1.7006886 1.3377887
7.0217319 1.7068372 1.3446841
7.0188737 1.7281848 1.3349279
7.0087318 1.7251881 1.3345618
6.9965591 1.7508835 1.3319075
6.9994702 1.7571168 1.3322293
6.6335554 1.6728296 1.429719
6.6125765 1.6761447 1.4218099
6.6275811 1.695104 1.4188522
6.6179867 1.699387 1.4279201
6.6051126 1.6979659 1.4337147
6.6145535 1.7052237 1.4358774
6.610877 1.732007 1.4296108
6.5974312 1.7310457 1.4305739
6.6036067 1.7403225 1.427462
6.6071148 1.7549349 1.4208163
6.5909319 1.763996 1.4349052
6.601738 1.7743971 1.4230764
6.6046224 1.7821351 1.4209778
6.5845361 1.7826234 1.433936
6.5935049 1.7925949 1.4362503
6.5882554 1.8143778 1.4166031
6.585156 1.8148674 1.434523
6.5757771 1.8243077 1.4222687
6.3996363 1.7902062 1.4753258
6.3881559 1.7938989 1.4685453
6.390017 1.8038436 1.4816233
6.3859549 1.807042 1.4759032
6.3900518 1.815585 1.4687252
6.3720374 1.8265151 1.4728431
6.3869686 1.8289 1.4777436
6.384202 1.8485342 1.4752417
6.3817759 1.8475807 1.4640473
6.3772569 1.8597728 1.473115
6.3604717 1.8660734 1.4710324
6.3714867 1.8833708 1.4637332
6.3557091 1.8850189 1.4774729
6.3529973 1.905107 1.4655088
6.3645525 1.911806 1.473189
6.3489175 1.9230174 1.4629039
6.3573885 1.9316994 1.4661119
6.3507471 1.9401662 1.4800662
6.3415914 1.9487706 1.4641823
6.3412294 1.9554327 1.4716094
6.1637387 1.910551 1.5217037
6.1504173 1.9163727 1.5149776
6.1497846 1.9290303 1.5210297
6.1428795 1.9216019 1.5183033
6.1439986 1.928367 1.5134132
6.1327858 1.942148 1.5108755
6.1312761 1.9470625 1.5081644
6.1329622 1.9680113 1.5250685
6.1285906 1.962492 1.5217292
6.1283236 1.9793108 1.5162078
6.1354713 1.9875348 1.5143112
6.1274576 2.0050817 1.5096598
6.1127057 2.0046523 1.509093
6.1239944 2.0199862 1.5125287
6.1125445 2.0191193 1.514164
6.1161928 2.0297318 1.5210186
6.117291 2.0415385 1.5242298
6.1156669 2.0377476 1.5198355
6.1109347 2.0523131 1.5213717
6.1028514 2.0693512 1.5111802
6.0892344 2.0762889 1.5206699
6.0937095 2.0779767 1.5191678
5.9091864 2.0246506 1.5539452
5.9085078 2.0281808 1.5702815
5.911253 2.043061 1.5572238
5.8956223 2.0444009 1.5662555
5.9068346 2.0696626 1.5585744
5.9012465 2.0761349 1.5585872
5.8912525 2.0807223 1.5646542
5.8827834 2.0800853 1.5592519
5.8841114 2.0887022 1.5522841
5.874918 2.1046767 1.5585047
5.8842106 2.1033573 1.5659417
5.8830252 2.1241772 1.5686752
5.8781648 2.1305721 1.5580587
5.8802352 2.124177 1.5605561
5.871326 2.1518469 1.560093
5.8747239 2.1567929 1.5578846
5.8581238 2.1546204 1.5720493
5.867579 2.1668658 1.5573668
5.8516207 2.1833375 1.5630955
5.8486829 2.1735253 1.5565968
5.851954 2.1959269 1.5605807
5.8426514 2.2000761 1.557191
5.8360705 2.2023089 1.5720065
5.8388615 2.2095675 1.5522414
5.6620202 2.1617055 1.6172088
5.6469197 2.1691442 1.613701
5.6496 2.1629722 1.5998477
5.6464338 2.1692567 1.6100709
5.6485744 2.1825953 1.6086013
5.6364326 2.1960201 1.609159
5.6377811 2.1957519 1.6039623
5.6431026 2.2092276 1.6147628
5.6250234 2.2191803 1.5996482
5.6217489 2.2349939 1.6036491
5.6186981 2.2391658 1.6008272
5.6153598 2.2312326 1.5975633
5.6285028 2.2489862 1.6002511
5.6077819 2.2665911 1.6013513
5.6172729 2.2693651 1.6079221
5.6052833 2.2630363 1.6000543
5.6138406 2.2811065 1.6040587
5.5971904 2.2875593 1.6136836
5.5913296 2.299005 1.6054105
5.5903435 2.3102593 1.6051043
5.5933475 2.3015568 1.6011277
5.5935187 2.3126214 1.6013803
5.590415 2.3199446 1.6115528
5.5899882 2.3296735 1.6115012
5.5906506 2.3520312 1.6063985
5.5778732 2.3455482 1.6071467
5.5772171 2.3507822 1.5981491
5.4011717 2.2865431 1.6530366
5.3942294 2.2953672 1.6463189
5.3790035 2.3063979 1.6430528
5.383461 2.3036356 1.6432861
5.3839316 2.3242583 1.64679
5.384644 2.3250024 1.649828
5.3755188 2.3285556 1.6548102
5.3663311 2.3360178 1.6543701
5.3720307 2.3539603 1.6596711
5.3584676 2.3545148 1.6624351
5.3558969 2.361686 1.6491865
5.3629589 2.3650985 1.6572508
5.3432932 2.3764794 1.6488384
5.3403506 2.3955224 1.6501613
5.3376312 2.3982508 1.6446089
5.3384051 2.4049175 1.6523069
5.3422065 2.405695 1.656069
5.3309798 2.4205313 1.659809
5.339303 2.424324 1.6540112
5.3329163 2.4378211 1.6612927
5.3292837 2.432025 1.6482743
5.3123918 2.436579 1.6512023
5.3235536 2.444766 1.6580495
5.306293 2.4533195 1.6564826
5.3103452 2.4624727 1.6501919
5.3088341 2.4757297 1.6431202
5.315011 2.4761283 1.6493828
5.3049397 2.488651 1.6430433
5.2985978 2.4928575 1.6530627
5.2864485 2.5140486 1.6491503
5.1055269 2.4315505 1.6972612
5.1077361 2.4387445 1.6972629
5.1128635 2.4405034 1.6980367
5.1048284 2.4484143 1.6999539
5.0952163 2.4638004 1.7036191
5.0993037 2.4611089 1.6931409
5.0963092 2.4680381 1.6956656
5.0995674 2.4883499 1.7033222
5.0964766 2.4857845 1.7077991
5.083395 2.494544 1.706086
5.086391 2.5019097 1.6979364
5.0722442 2.5148635 1.6898555
5.0780892 2.5163331 1.6964122
5.0646977 2.513166 1.7037637
5.0732141 2.5237949 1.6993897
5.0653858 2.5419295 1.7052176
5.0670695 2.5404978 1.6908728
5.0512676 2.5457625 1.6897428
5.0431128 2.5513842 1.6989551
5.0394254 2.5673821 1.6898394
5.0540147 2.5698438 1.7010068
5.0404444 2.581636 1.6980501
5.0387836 2.5827608 1.6894902
5.0436697 2.5939918 1.690695
5.0358973 2.5972462 1.6954658
5.0237417 2.6161892 1.6913129
5.0174036 2.6203425 1.698675
5.0167112 2.612231 1.7042537
5.0148792 2.6195111 1.6884105
5.0222492 2.6266599 1.7015268
5.000494 2.631964 1.6900712
5.0098968 2.6472743 1.7033796
4.9963326 2.6645091 1.6907893
4.9941993 2.6702256 1.7024117
4.9932609 2.6717751 1.690275
4.9970837 2.6847837 1.6900729
4.9967437 2.6750793 1.7070209
4.9837561 2.6883173 1.6888592
4.9763374 2.7033672 1.6909846
5.1443067 2.8023372 1.6480267
5.1340117 2.810559 1.648634
5.1322517 2.811857 1.6575737
5.1437898 2.8232741 1.6567756
5.1227274 2.8162506 1.6547265
5.1332774 2.831991 1.6472647
5.131681 2.8352664 1.6458545
5.1098723 2.8419237 1.6477879
5.1250019 2.8593252 1.6560125
5.1019597 2.8530493 1.6523457
5.1010327 2.8672528 1.6478168
5.1023822 2.8750522 1.64434
5.1043291 2.8849916 1.6549966
5.0952058 2.8903797 1.6499112
5.0852742 2.8986261 1.6506486
5.0932837 2.9013529 1.6599784
5.2429442 3.0031211 1.6001971
5.2419271 3.0105696 1.6051799
5.2428327 3.0171077 1.6004326
5.2319527 3.0245738 1.6022834
5.2373958 3.0350933 1.6112173
5.2382998 3.050952 1.6008357
5.2357173 3.052757 1.6132842
5.2237806 3.0494485 1.6040171
5.2267485 3.0602283 1.6158983
5.210444 3.0830469 1.6034138
5.2034588 3.0904429 1.6089132
5.2019262 3.0810058 1.6145439
5.2053661 3.0966692 1.5994015
5.2040486 3.1056576 1.6044196
5.1845722 3.1043041 1.6126575
5.3610802 3.208298 1.5642164
5.3599954 3.2339592 1.5555366
5.3513489 3.2319295 1.5562667
5.3334246 3.2371235 1.5605003
5.3473711 3.250278 1.5602828
5.3288231 3.2607234 1.5601972
5.3357639 3.2539217 1.5634166
5.3283253 3.2748563 1.5550474
5.3257337 3.2787797 1.5684206
5.3081498 3.2875423 1.5532004
5.3187933 3.2900786 1.554522
5.3062296 3.2960064 1.554044
5.304976 3.2977746 1.5640817
5.3044415 3.3061159 1.5718645
5.2881308 3.3129115 1.56536
5.4565177 3.4293716 1.5166208
5.4397383 3.4338362 1.5188944
5.4461675 3.4554007 1.5146797
5.4442172 3.4589226 1.5069712
5.4356294 3.4694197 1.5206152
5.4318109 3.4751301 1.5093913
5.4293032 3.4728565 1.5166975
5.4263072 3.4939191 1.5183806
5.4133382 3.4990482 1.5210202
5.4081416 3.4924772 1.5230768
5.3964295 3.5139885 1.510527
5.4012122 3.5234969 1.5148462
5.388258 3.5242212 1.513141
5.5540943 3.6344635 1.4621315
5.549047 3.6544826 1.4792874
5.5376325 3.6555016 1.4745847
5.5349832 3.6588418 1.4800465
5.5396295 3.6640253 1.4790156
5.525948 3.6810896 1.4755652
5.5148954 3.6778178 1.4780021
5.5258889 3.6877053 1.4744153
5.5043216 3.7072566 1.4728086
5.5070629 3.6987455 1.4644051
5.5080881 3.7179575 1.4720585
5.5033374 3.7171836 1.4719959
5.6569376 3.8394551 1.4199804
5.6444659 3.8549991 1.4288281
5.6374445 3.8602831 1.4351455
5.6293817 3.8569908 1.4308206
5.6378574 3.8677616 1.4355243
5.6287589 3.8746519 1.4224231
5.6160626 3.885112 1.4211881
5.6217484 3.9034615 1.4237641
5.6190205 3.9079945 1.417881
5.6039348 3.9129457 1.4235606
5.5887752 3.9154711 1.4344683
5.7463408 4.0427179 1.3878018
5.7530794 4.0366702 1.3837969
5.7461247 4.047925 1.3886408
5.7348332 4.0530314 1.3764037
5.7282348 4.0744262 1.3832129
5.7285242 4.0685225 1.3726457
5.7275667 4.0937142 1.3725989
5.7091746 4.1015968 1.3892637
5.7048883 4.0998249 1.3830661
5.7062702 4.108335 1.3715875
5.6985493 4.1203556 1.3877071
5.8471646 4.2390213 1.3445218
5.8338342 4.2422962 1.3298293
5.845336 4.259922 1.3322455
5.8245893 4.2566018 1.3280665
5.8306408 4.2792349 1.330002
5.8261137 4.2865858 1.3291548
5.8215284 4.2812309 1.3282245
5.8135962 4.297287 1.3375638
5.7994556 4.3004336 1.327463
5.7938247 4.3215785 1.3414408
5.7843027 4.3192987 1.3318636
5.7768278 4.3295898 1.3374151
-1.8343182 4.5196533 1.8753816
-1.7603627 4.3416891 1.9242146
-1.6900796 4.1559181 1.9675592
-1.7118341 4.1517901 1.9648979
-1.7144322 4.1490355 1.9687767
-1.7179575 4.1443191 1.960615
-1.71214 4.1514421 1.9675119
-1.7164199 4.1389275 1.9674735
-1.7267187 4.1428938 1.9770842
-1.7465912 4.1453996 1.9689229
-1.7409089 4.1317534 1.9604126
-1.7401841 4.1243711 1.9767394
-1.7558666 4.1190729 1.9698981
-1.7534451 4.117795 1.9613168
-1.7736816 4.1196899 1.9723767
-1.7700359 4.1238275 1.9611237
-1.7745482 4.1195469 1.959406
-1.7921602 4.1167479 1.9675933
-1.7898071 4.1094074 1.9621749
-1.7978399 4.1079493 1.9616988
-1.7940303 4.1179237 1.9700205
-1.7987275 4.1143713 1.9734118
-1.8070945 4.1008797 1.9739652
-1.8222991 4.0955505 1.9757088
-1.8260815 4.0957222 1.9618237
-1.8388003 4.1052732 1.9745605
-1.8427687 4.0960426 1.9655092
-1.8484511 4.0949264 1.9761589
-1.8459427 4.0818868 1.9619766
-1.8488491 4.086534 1.9688523
-1.8522279 4.0807076 1.968227
-1.8672813 4.0758963 1.9665813
-1.8789399 4.0684271 1.9739846
-1.8700413 4.0714593 1.9786069
-1.8793954 4.0764112 1.965957
-1.8826309 4.0743427 1.9654226
-1.893126 4.0740008 1.9782294
-1.8926686 4.073668 1.9725002
-1.9015579 4.0615315 1.9763194
-1.9046257 4.0521727 1.967382
-1.920814 4.0651159 1.9752216
-1.917624 4.0486822 1.960862
-1.9160758 4.0462637 1.9616534
-1.9271206 4.038413 1.9681044
-1.9335393 4.046874 1.9621432
-1.9526039 4.0377622 1.976757
-1.9521993 4.0438137 1.9736809
-1.9589841 4.0359774 1.9729313
-1.9514943 4.0249028 1.9627124
-1.9601815 4.0364079 1.9658101
-1.9778022 4.0373688 1.9645339
-1.9675792 4.0271592 1.9695152
-1.9917121 4.0241342 1.9747765
-1.9950498 4.0156965 1.9748942
-1.9919326 4.0264692 1.9661876
-1.9947727 4.0238018 1.9710916
-2.002995 4.0071602 1.9647774
-2.0142894 4.0093513 1.9733652
-2.0063298 4.0046449 1.9736246
-2.0285847 3.9968617 1.9681431
-2.0277381 3.9970632 1.9663841
-2.0281639 3.9930894 1.9771851
-2.0436044 3.990581 1.9677386
-2.0337794 3.9903288 1.9726399
-2.0438328 3.9987843 1.9711069
-2.0625889 3.9899859 1.9697074
-2.0564368 3.9785478 1.9744749
-2.0565951 3.9813936 1.9642497
-2.0681612 3.9777737 1.9721429
-2.0794642 3.9774694 1.9750848
-2.0762444 3.9635785 1.961068
-2.0947797 3.9748244 1.9659253
-2.1025097 3.9761887 1.9711295
-2.0996823 3.9729328 1.9789448
-2.1119492 3.9651742 1.9780864
-2.1057453 3.9642062 1.9713084
-2.1209366 3.9549329 1.9759787
-2.1113563 3.9510405 1.9663889
-2.1319971 3.9411161 1.9760815
-2.1247404 3.9454195 1.9683794
-2.1345377 3.9384694 1.9697037
-2.1383474 3.9385064 1.9651992
-2.1572959 3.9363317 1.9649919
-2.1510358 3.9424989 1.9644693
-2.1569562 3.9219091 1.9791363
-2.1637309 3.9330294 1.9757913
-2.1772795 3.9344604 1.9661369
-2.1661532 3.9309697 1.9755614
-2.1846125 3.9123318 1.9780406
-2.1933751 3.90644 1.9678099
-2.1898355 3.9162364 1.9736235
-2.2049673 3.9077041 1.9624761
-2.2045991 3.9057002 1.9721638
-2.2044339 3.8954294 1.971036
-2.2047873 3.9047065 1.9723436
-2.210469 3.8926733 1.9678043
-2.2194915 3.8925517 1.9677362
-2.2381639 3.8890121 1.9672254
-2.2274077 3.8924649 1.9711322
-2.2341678 3.8926022 1.9722105
-2.2511544 3.8817225 1.966156
-2.2423229 3.8811495 1.9746475
-2.2646344 3.8663793 1.9642214
-2.2572536 3.8772044 1.9666179
-2.2709963 3.8731022 1.9613926
-2.263427 3.8687396 1.9672431
-2.2803924 3.8607717 1.9760883
-2.2774215 3.8595443 1.9645178
-2.2949569 3.8544815 1.9595315
-2.2885811 3.8480625 1.9778218
-2.3011224 3.8500569 1.968379
-2.2997139 3.8462782 1.9615173
-2.3098092 3.8455789 1.9630473
-2.3103261 3.8376467 1.9785714
-2.3284419 3.8413541 1.9731702
-2.3317785 3.8380084 1.9665905
-2.3292601 3.8230703 1.9752349
-2.3378921 3.836472 1.9658511
-2.3380897 3.8177025 1.9746113
-2.3432691 3.8106687 1.9601668
-2.3501537 3.8164489 1.9709387
-2.3664765 3.8089883 1.961161
-2.3696563 3.8167791 1.9739208
-2.3713014 3.8093946 1.9619927
-2.377418 3.8092313 1.9770237
-2.388931 3.7910643 1.9719682
-2.3870189 3.8007438 1.9752412
-2.3964579 3.7871151 1.9751899
-2.3952761 3.7986076 1.9596508
-2.4053295 3.7902353 1.9603667
-2.4098225 3.7802882 1.9701592
-2.4035389 3.7793238 1.975795
-2.4070284 3.7804801 1.9725326
-2.4177532 3.7652874 1.9652044
-2.4204013 3.7692695 1.9610388
-2.4280138 3.7670255 1.9620397
-2.4406772 3.7719753 1.9760609
-2.4500625 3.7527637 1.9598016
-2.4394944 3.7600067 1.9783903
-2.4444609 3.7624645 1.9719697
-2.4687064 3.7456927 1.9789723
-2.4631546 3.740463 1.9683881
-2.4719622 3.7369981 1.9623452
-2.4840274 3.7480574 1.9645019
-2.4834161 3.7417133 1.9740404
-2.4869654 3.7329962 1.9647417
-2.4895089 3.736851 1.9638073
-2.4980264 3.7165508 1.9670829
-2.5027983 3.712044 1.9610305
-2.5089765 3.7277915 1.9608721
-2.5015705 3.7045097 1.9673854
-2.5071568 3.7119904 1.97212
-2.5233228 3.7158699 1.9768478
-2.5255263 3.7128856 1.9761002
-2.5255685 3.6957092 1.972481
-2.536067 3.7001753 1.9636248
-2.5358593 3.6872849 1.9621108
-2.556581 3.6910591 1.9637907
-2.5540223 3.6952384 1.9644655
-2.5575109 3.678412 1.9643968
-2.5611529 3.6741588 1.9645624
-2.5582764 3.6694815 1.9757321
-2.5706606 3.6737962 1.9743117
-2.5783117 3.6610599 1.9734449
-2.5867054 3.673429 1.9789467
-2.5787134 3.6604424 1.9724668
-2.5995722 3.6528013 1.9766558
-2.6019404 3.6495712 1.9681854
-2.6026235 3.6540279 1.9674683
-2.6026266 3.6401186 1.9735054
-2.6226931 3.6476855 1.9788773
-2.6225891 3.6432414 1.9631673
-2.6313102 3.6315212 1.9753742
-2.6214466 3.6372526 1.9784542
-2.6324446 3.6196878 1.9775202
-2.6379359 3.6152081 1.9672232
-2.6499016 3.6149571 1.9729159
-2.6576734 3.6174207 1.9790165
-2.6539102 3.6042786 1.9732188
-2.6508591 3.6162059 1.9771641
-2.6617656 3.6131339 1.9723353
-2.667295 3.5952282 1.9667288
-2.6685293 3.5936584 1.9730755
-2.6775513 3.5870042 1.968834
-2.6834879 3.594399 1.9707154
-2.6903536 3.5813441 1.9718117
-2.687511 3.5813601 1.9763584
-2.6989701 3.5786357 1.9670774
-2.7043235 3.5847006 1.96837
-2.7154694 3.5788376 1.9653126
-2.7226646 3.5670841 1.962913
-2.7146833 3.5548115 1.9663445
-2.7323031 3.5663104 1.9719498
-2.7235711 3.5537872 1.9746518
-2.7390749 3.5603225 1.9685061
-2.7326922 3.5449817 1.9730703
-2.745208 3.5374682 1.9614221
-2.7531714 3.5434744 1.9708282
-2.7504108 3.5291014 1.9700848
-2.7663522 3.5285511 1.967271
-2.7653453 3.5257688 1.9765031
-2.7667327 3.5159261 1.9772693
-2.7646832 3.5134161 1.9733475
-2.7770231 3.5245855 1.9607229
-2.7866554 3.5051932 1.9784607
-2.782428 3.5171204 1.9646919
-2.7936308 3.5014629 1.9672503
-2.7964766 3.5027683 1.9596632
-2.8099108 3.4917548 1.9615576
-2.8040829 3.4897153 1.9667634
-2.821063 3.4935925 1.9730555
-2.8088057 3.4809868 1.9733801
-2.8157768 3.4753296 1.975077
-2.8266642 3.4822264 1.9718325
-2.8301704 3.4843791 1.9730916
-2.8359334 3.4756417 1.9701805
-2.8354597 3.4605789 1.9755217
-2.852422 3.4675422 1.9660844
-2.8569658 3.4659379 1.9695568
-2.8596096 3.4550223 1.9749198
-2.8570423 3.4519823 1.9680967
-2.8681769 3.4460492 1.9726117
-2.8789816 3.4379897 1.9754196
-2.8680837 3.4438818 1.9690815
-2.8804245 3.4311008 1.9688599
-2.8915007 3.4373851 1.9638717
-2.8854825 3.4289651 1.967798
-2.8941174 3.4284 1.9626719
-2.8921838 3.428102 1.9599321
-2.9067721 3.409966 1.9702744
-2.9159918 3.4191976 1.9615809
-2.912029 3.4020889 1.9709653
-2.9235454 3.3989644 1.9763077
-2.9322481 3.3915215 1.9715668
-2.9272833 3.3965151 1.9780761
-2.9225345 3.3952045 1.9749072
-2.9427679 3.3846788 1.9673629
-2.9390693 3.3902793 1.9633044
-2.9404912 3.3825681 1.9630059
-2.9446471 3.3650181 1.9686356
-2.9584548 3.3629923 1.9675679
-2.9609504 3.3696675 1.9734691
-2.9740558 3.3695586 1.9603302
-2.961813 3.3654737 1.9638391
-2.9743052 3.3510747 1.976439
-2.9802823 3.3461399 1.9718326
-2.9894226 3.3456814 1.9608113
-2.9861012 3.3336251 1.9595073
-2.9868324 3.3448451 1.9746161
-2.9878564 3.3366015 1.9763054
-3.0032449 3.3192368 1.9601055
-2.9996951 3.3240573 1.9747245
-3.0102382 3.3204474 1.9733846
-3.0139143 3.3137498 1.9721164
-3.0140755 3.3192232 1.9606122
-3.0216312 3.3033772 1.9683428
-3.033787 3.3030429 1.9597909
-3.0369587 3.2906759 1.9633654
-3.0414281 3.3022177 1.9623489
-3.0507827 3.29737 1.9772846
-3.0384424 3.2817624 1.9790573
-3.0622957 3.274327 1.9698592
-3.0515242 3.2809653 1.9612663
-3.0620863 3.2685385 1.9701971
-3.0739112 3.260555 1.9688293
-3.077234 3.2696152 1.9758496
-3.0728199 3.2511125 1.9667765
-3.076952 3.2540255 1.9695835
-3.0775034 3.2570503 1.9681859
-3.0790653 3.255296 1.9662005
-3.0856857 3.2504513 1.9728738
-3.0905273 3.2463169 1.9763845
-3.1045606 3.2375116 1.9708127
-3.1071811 3.2226954 1.9770993
-3.1208646 3.2206001 1.9596945
-3.1159098 3.2197216 1.9756479
-3.1239285 3.2077904 1.9774032
-3.1210144 3.2162549 1.9663825
-3.1352873 3.2086895 1.9627038
-3.1309514 3.2040777 1.9615941
-3.1285949 3.197355 1.9599698
-3.1395588 3.1902945 1.9785471
-3.147006 3.1936977 1.9726615
-3.1600189 3.178972 1.9763083
-3.146739 3.1750479 1.9622149
-3.1508577 3.1805577 1.9716042
-3.1590168 3.1625221 1.9734299
-3.1654143 3.1718676 1.9680939
-3.1828265 3.1714013 1.9595723
-3.1839111 3.1597257 1.9708252
-3.1860993 3.154855 1.9597479
-3.1899054 3.1434631 1.9660087
-3.195128 3.1490605 1.9600775
-3.1862299 3.146075 1.9638317
-3.1936789 3.1407938 1.9680791
-3.195215 3.135812 1.9622599
-3.2073555 3.1270826 1.9628346
-3.217664 3.1163614 1.9771905
-3.2133024 3.1126275 1.975522
-3.2174559 3.1122019 1.966626
-3.2303503 3.1139755 1.9773136
-3.2343156 3.0963237 1.9610697
-3.2320139 3.0978236 1.9748894
-3.2356369 3.0925901 1.9701965
-3.2354996 3.0842698 1.9647011
-3.2511084 3.0787694 1.9787084
-3.2525301 3.0854781 1.9684774
-3.2533708 3.0862215 1.9720219
-3.2598491 3.0756636 1.9763356
-3.2679896 3.0652828 1.9647329
-3.2650197 3.0663323 1.9594188
-3.2713559 3.0677347 1.960974
-3.2739296 3.0557506 1.9685565
-3.2826769 3.0444489 1.9754386
-3.2761109 3.0375836 1.9785397
-3.2950339 3.0394027 1.9606855
-3.2999432 3.0440865 1.9740911
-3.2950771 3.0322101 1.9727974
-3.3066599 3.0181289 1.9655091
-3.3139226 3.020175 1.9724094
-3.3127816 3.0094521 1.9649341
-3.3169482 3.0166476 1.9634423
-3.3195529 3.005518 1.9745535
-3.3145688 3.0098827 1.9789557
-3.3226962 3.005049 1.9610919
-3.3277159 2.9855213 1.9696518
-3.3305833 2.9853072 1.9675063
-3.3400385 2.9941754 1.9781009
-3.350781 2.9756706 1.979237
-3.348805 2.9741066 1.9670476
-3.3599224 2.9778805 1.9687693
-3.3585083 2.9616783 1.9623269
-3.3585796 2.9670553 1.9694008
-3.3675332 2.9615939 1.9654912
-3.3720779 2.9521761 1.9614056
5.210968 -4.9748182 1.3443737
5.2145524 -4.9823961 1.3459179
5.2220373 -4.9626045 1.3438672
5.2308259 -4.963171 1.3373863
5.2293296 -4.9624529 1.3306218
5.2427149 -4.9417753 1.3263122
5.2544456 -4.9456763 1.3364152
5.2633901 -4.9238243 1.3446159
5.2680273 -4.923449 1.3375357
5.2760768 -4.914115 1.3408293
5.271368 -4.9140668 1.33957
5.2766328 -4.8973918 1.34347
5.2834315 -4.9001794 1.339889
5.2881694 -4.881115 1.3284595
5.306416 -4.8904743 1.3304559
5.3178878 -4.8733654 1.3458282
5.3250394 -4.8714318 1.3299884
5.3222837 -4.8674507 1.3286796
5.3277187 -4.8457179 1.3404154
5.3460631 -4.8428121 1.3341451
5.3476906 -4.831481 1.3405733
5.3480482 -4.8217402 1.3363171
5.3522954 -4.8120461 1.3419046
5.3729515 -4.8044496 1.339178
5.3821673 -4.8054309 1.3397039
5.3733692 -4.801755 1.3299412
5.3799329 -4.7977309 1.3347046
5.3906465 -4.7832565 1.336033
5.4000406 -4.7701306 1.3316677
5.4011598 -4.7654333 1.3427727
5.4159985 -4.7658715 1.337764
5.4172544 -4.7527037 1.3350413
5.4342442 -4.7420311 1.3345487
5.436811 -4.7374334 1.3341795
5.4366403 -4.730341 1.3453463
5.4369845 -4.7187572 1.332697
5.447556 -4.7073102 1.3365699
5.4628801 -4.7118387 1.3274064
5.4595218 -4.6936531 1.3438487
5.4717879 -4.7010159 1.3374586
5.4751482 -4.6801991 1.3430916
5.4934893 -4.6847734 1.3343439
5.4890966 -4.6789951 1.3287116
5.5042009 -4.6572771 1.3401102
5.4989257 -4.6623454 1.3310252
5.504806 -4.6536751 1.3459387
5.5180264 -4.6410279 1.344705
5.5151091 -4.6396413 1.3313386
5.5230174 -4.6281862 1.3285455
5.5473576 -4.6110282 1.330767
5.5452962 -4.6170621 1.3261744
5.5488577 -4.5912971 1.3293672
5.5636601 -4.5964556 1.3306885
5.5728197 -4.5930305 1.3260694
5.5733671 -4.5813904 1.3287139
5.5848188 -4.5703688 1.3323522
5.5911732 -4.5526156 1.3409514
5.5962825 -4.5642567 1.3432426
5.5880151 -4.5544567 1.3292849
5.5969434 -4.546773 1.3447721
5.6080823 -4.5275955 1.326503
5.6146178 -4.531292 1.3262678
5.6243353 -4.506609 1.3331342
5.6353631 -4.4991794 1.3356767
5.6417603 -4.4976048 1.3421011
5.6307917 -4.4909701 1.3317802
5.6434503 -4.4843616 1.3314368
5.6446972 -4.4790134 1.3316672
5.6682239 -4.4682913 1.3339039
5.6577821 -4.454989 1.3360218
5.6628165 -4.4568849 1.3295056
5.6695709 -4.4385715 1.3314731
5.6760788 -4.4368558 1.3302941
5.6894422 -4.4304171 1.3287067
5.705337 -4.4238739 1.3408473
5.7076454 -4.4145823 1.3317671
5.6996212 -4.3989038 1.3414309
5.7112427 -4.3882389 1.32857
5.7230835 -4.3802962 1.3385493
5.7171502 -4.3890343 1.3339401
5.7333231 -4.3789654 1.3395358
5.742969 -4.3683591 1.3355372
5.7545714 -4.35745 1.3453372
5.7449832 -4.3393722 1.3336507
5.7537971 -4.3315825 1.3405733
5.7547398 -4.3276577 1.328845
5.7665911 -4.3179178 1.3448441
5.768095 -4.3227067 1.3435483
5.7767267 -4.3017936 1.3422264
5.7953267 -4.292942 1.3441894
5.7893062 -4.2940345 1.3282357
5.8088698 -4.2915864 1.3348944
5.8044238 -4.2836308 1.3444597
5.8097663 -4.2713466 1.3440915
5.8234115 -4.256321 1.343493
5.8239675 -4.2464137 1.3387914
5.8327842 -4.2507048 1.335793
5.8375883 -4.2395306 1.3399608
5.8410854 -4.2257519 1.336988
5.8432493 -4.2193894 1.3348048
5.8473644 -4.2050529 1.343459
5.855515 -4.1971459 1.3264825
5.8703127 -4.199667 1.3293744
5.8746643 -4.182817 1.3364552
5.8786359 -4.1782813 1.3304577
5.8819981 -4.1791387 1.3262554
5.8806472 -4.1571164 1.3296416
5.896286 -4.1562157 1.3360733
5.8960814 -4.137732 1.3281466
5.9128928 -4.1429882 1.338437
5.9075093 -4.1300206 1.3349108
5.9107685 -4.1147833 1.3311299
5.9170394 -4.1106172 1.3366578
5.9261909 -4.1079569 1.3308576
5.9424119 -4.0871711 1.3414066
5.9326234 -4.0888581 1.3429041
5.9386215 -4.0777197 1.3382212
5.9479938 -4.0767541 1.3262284
5.9637861 -4.0617933 1.3444998
5.9716406 -4.0558105 1.3292882
5.9697738 -4.0409889 1.3388091
5.9643688 -4.0286741 1.3353245
5.9751716 -4.0358429 1.3277547
5.9914908 -4.0196033 1.3345859
5.981998 -4.0128741 1.3339354
6.0030422 -4.0016537 1.3433228
6.0055728 -3.9901435 1.3355653
6.0034084 -3.9949577 1.3404824
6.0092397 -3.9896648 1.3320609
6.0133305 -3.9621913 1.3413152
6.0221982 -3.9622469 1.3370758
6.020575 -3.9533579 1.3368284
6.0354557 -3.9393051 1.3410813
6.0427547 -3.9345605 1.3332353
6.0368729 -3.9249246 1.3437715
6.0503292 -3.9198482 1.3371741
6.0531611 -3.917834 1.3337245
6.0682235 -3.9035647 1.3370906
6.0681911 -3.8890333 1.3373718
6.0797257 -3.8959682 1.336741
6.0805025 -3.8795812 1.3276609
6.0770283 -3.8703511 1.3390689
6.0932946 -3.871763 1.3361208
6.093802 -3.8513863 1.3295006
6.1064515 -3.8423898 1.344092
6.1096258 -3.8454247 1.3353279
6.1061902 -3.8311028 1.3401383
6.1192937 -3.8271821 1.3307709
6.1157508 -3.8087451 1.3274798
6.1324778 -3.804214 1.3287914
6.1285615 -3.7843339 1.3380198
6.1355534 -3.7933445 1.3280008
6.1339417 -3.771493 1.3280846
6.1493692 -3.7745266 1.3400524
6.158165 -3.7502916 1.332516
6.1615405 -3.7482517 1.3334372
6.1561394 -3.7350039 1.3401649
6.1755366 -3.7339983 1.3422904
6.1655545 -3.7218685 1.3343225
6.0055079 -3.6176186 1.387592
6.013382 -3.6035421 1.3869525
6.0304728 -3.6077714 1.3887498
6.0375328 -3.5988984 1.3838387
6.0246649 -3.5798717 1.3873265
6.0437531 -3.577311 1.3864745
6.0352931 -3.5566254 1.3790804
6.0477424 -3.5665786 1.3763447
6.0469079 -3.5423605 1.3860178
6.0681868 -3.5333385 1.3792166
6.0614862 -3.5228035 1.3873392
6.0627995 -3.5294442 1.3811526
6.0634613 -3.5240319 1.382344
6.0859084 -3.4965856 1.3840085
6.0834332 -3.5070219 1.3762931
6.0844331 -3.4833727 1.3827245
6.0845695 -3.4731746 1.3814209
6.0973001 -3.4755063 1.3817363
6.1072831 -3.46364 1.3778352
6.1069274 -3.4554505 1.3745143
6.1197586 -3.4389057 1.3732802
6.1207004 -3.4459798 1.3769498
6.1154437 -3.4373126 1.3775696
6.1313663 -3.4311066 1.3771664
6.1289415 -3.4122729 1.3778509
6.1387897 -3.3973238 1.3737017
6.135057 -3.3871114 1.3712609
6.1500092 -3.3890297 1.3779919
6.1452641 -3.3858147 1.3880858
6.1566067 -3.3677928 1.3778591
6.1646161 -3.3617656 1.3756605
6.1713796 -3.3596106 1.3778642
6.1618004 -3.3475139 1.3802049
6.1728292 -3.3442845 1.3802147
6.1834426 -3.328258 1.3905144
6.0032458 -3.2347009 1.4324569
6.0102415 -3.2223189 1.4308107
6.0147848 -3.1997275 1.4186825
6.0260477 -3.2066114 1.4211992
6.0273924 -3.1868715 1.4331609
6.0384989 -3.1838288 1.4225664
6.0473948 -3.1787176 1.425537
6.0384827 -3.1678684 1.4320076
6.0518999 -3.1506608 1.4331043
6.0453148 -3.1474986 1.421618
6.0490174 -3.1376972 1.4226239
6.069407 -3.1254058 1.4276286
6.0681386 -3.1330652 1.4268355
6.0747299 -3.1139443 1.4307628
6.0838265 -3.0979493 1.4260279
6.0848732 -3.0953069 1.4359275
6.0753131 -3.0882156 1.4225239
6.0887117 -3.074472 1.431549
6.0885692 -3.0717351 1.4293548
6.0895114 -3.0599954 1.4218898
6.0989556 -3.0489531 1.435787
6.1093941 -3.0419095 1.4335303
6.104825 -3.0405111 1.4351629
6.1194515 -3.0368862 1.4274588
6.1179929 -3.0285177 1.427286
6.1117873 -3.0234442 1.421286
6.1154699 -3.01226 1.4339014
6.1257367 -2.9919949 1.4317789
6.2999811 -3.0818539 1.3786614
6.3171744 -3.0691442 1.3740338
6.3268905 -3.0512724 1.3719486
6.3304915 -3.0472324 1.3884012
6.3318233 -3.0320194 1.3777401
6.3347759 -3.0264268 1.3821865
6.3300114 -3.0265272 1.3864777
6.3450623 -3.0170555 1.3873129
6.3341007 -3.0081122 1.3907967
6.355742 -2.9931011 1.3860043
6.5313921 -3.0662215 1.3432378
6.523129 -3.0629721 1.3296273
6.5302253 -3.0542889 1.3450853
6.535224 -3.0462744 1.3357737
6.5366621 -3.0411854 1.3328599
6.5474267 -3.0173893 1.3267171
6.5626249 -3.0225902 1.3316469
6.5621014 -2.9969611 1.3372151
6.5624003 -2.9865017 1.3428875
6.7433457 -3.0596015 1.2894824
6.7424235 -3.0561261 1.2825748
6.7439656 -3.0452011 1.2898138
6.7518845 -3.0314541 1.2966274
6.7552476 -3.0369704 1.282341
6.7692862 -3.0252972 1.284023
6.7603974 -3.0070958 1.3003747
6.7653532 -2.9979198 1.2823931
6.7752256 -2.9934781 1.2809025
6.968832 -3.0717072 1.255483
6.9700284 -3.051331 1.2540624
6.9630499 -3.0361621 1.2467139
6.9691505 -3.0237236 1.2408811
6.9824762 -3.0276253 1.2393801
6.9826021 -3.0124099 1.2429416
6.9884276 -3.0073888 1.2487491
6.9959221 -2.9954758 1.243325
7.178803 -3.0595903 1.192394
7.1847472 -3.0609992 1.201704
7.1891866 -3.0311606 1.2021061
7.1934366 -3.0244026 1.193179
7.1962523 -3.0288861 1.2097096
7.1917052 -3.0115187 1.2089616
7.2013111 -3.0050614 1.1945884
7.2094026 -2.9827008 1.2057016
7.3809357 -3.0534956 1.146857
7.3984723 -3.0459678 1.1554285
7.3905702 -3.038789 1.1469157
7.3969665 -3.0299413 1.1469914
7.4126587 -3.020915 1.146897
7.4087381 -3.0118856 1.163546
7.4158764 -2.9842739 1.1456912
7.6001477 -3.0584388 1.1099335
7.6031413 -3.0539401 1.1158445
7.6117468 -3.0255411 1.114078
7.6114511 -3.0296803 1.1062452
7.6175394 -3.0205505 1.115639
7.612185 -3.0035758 1.1019043
7.6183023 -2.9844429 1.1067046
7.8058028 -3.0450842 1.0649683
7.8119712 -3.0423603 1.0671806
7.8147736 -3.0366933 1.066674
7.819706 -3.011553 1.0546764
7.8141093 -3.0076871 1.0565832
7.8344083 -2.9994688 1.0562882
8.0148382 -3.0655055 1.0160035
8.0256042 -3.0397029 1.0194801
8.0257492 -3.0434639 1.0093132
8.0321436 -3.0253012 1.0276549
8.0233221 -3.0051394 1.0259671
8.0379934 -3.0030727 1.0161142
8.0348616 -2.9824524 1.021033
8.2337923 -3.0490718 0.97494739
8.2382193 -3.037312 0.96706468
8.2445364 -3.0294559 0.97648746
8.2305431 -3.0072701 0.97867531
8.2414932 -2.9985871 0.97548717
8.4389582 -3.0606761 0.93210959
8.4432783 -3.0536907 0.92094809
8.4459238 -3.0397489 0.93875217
8.4468651 -3.0153427 0.92742062
8.4379377 -3.0182602 0.92550141
8.4539118 -2.9890079 0.93368781
8.6326351 -3.0447104 0.87691516
8.6399431 -3.0329506 0.88176185
8.6566563 -3.019407 0.87730795
8.6555414 -3.0191197 0.89004445
8.6512213 -3.0086129 0.87585622
8.6687508 -2.9980531 0.87689346
8.8392477 -3.032685 0.83486283
8.8434744 -3.0267668 0.83071035
8.8563519 -3.0139942 0.83186269
8.8672934 -3.0094492 0.83048373
8.8664045 -2.993973 0.84673983
7.5161381 1.216217 1.2941372
7.5235124 1.2271242 1.3045653
7.5247655 1.2433741 1.2973616
7.5123944 1.2391753 1.2966149
7.52069 1.2576041 1.2981381
7.5200105 1.2753695 1.3082938
7.5195026 1.2797171 1.2946522
7.514739 1.2946812 1.3065889
7.509275 1.3021162 1.3068448
7.5139308 1.3111886 1.2950902
7.5107846 1.3235093 1.3050594
7.5120244 1.3248931 1.2954453
7.5036774 1.3492337 1.2915931
7.508112 1.3429215 1.2930565
7.491785 1.3666375 1.3024653
7.4969673 1.3714217 1.2991588
7.4922905 1.3774599 1.3097214
7.493957 1.4005113 1.3047723
7.4875464 1.3998899 1.2967846
7.4813766 1.4057304 1.3073987
7.4834375 1.430245 1.299865
7.4954534 1.4378341 1.3032494
7.4778404 1.438926 1.3005111
7.4763608 1.4663167 1.301
7.4763298 1.4592596 1.294747
7.4856935 1.4792778 1.3028226
7.4717355 1.4965272 1.3064839
7.4683261 1.497366 1.3027464
7.4799528 1.5137309 1.3079404
7.4635773 1.5258778 1.3085301
7.4578009 1.522052 1.3031926
7.4644771 1.5322227 1.2950052
7.4545226 1.5467761 1.2974732
7.4618154 1.5618595 1.2968985
7.4495826 1.5789365 1.2988359
7.4510822 1.5874158 1.3103635
7.4606428 1.5839909 1.3087156
7.4538503 1.5992244 1.2974843
7.443306 1.6081673 1.2921988
7.4379411 1.6228317 1.3086438
7.4531512 1.6338317 1.3108497
7.4430094 1.6536336 1.2928159
7.4446659 1.6456218 1.2989279
7.4287758 1.667058 1.309719
7.4322963 1.678431 1.3071856
7.4377398 1.6934879 1.3027333
7.4346967 1.7003042 1.3044609
7.4299908 1.7025411 1.3110298
7.4340396 1.7164612 1.2961524
7.4327884 1.7272584 1.3055533
7.4279675 1.7355225 1.2955716
7.4253378 1.755916 1.2950121
7.4246602 1.7602514 1.2960643
7.4100804 1.7709967 1.3081794
7.4062772 1.7875772 1.3012975
7.3999257 1.7919301 1.2991058
7.4091082 1.7955831 1.2933667
7.4000034 1.8168885 1.2995043
7.3974528 1.8246145 1.3092051
7.4000111 1.8334761 1.2993495
7.3919554 1.8399179 1.3074079
6.6365256 1.6573161 1.4807886
6.6381645 1.6642392 1.4728854
6.6408424 1.6790271 1.4853873
6.6356225 1.6924708 1.484133
6.6235085 1.7020371 1.4768984
6.629189 1.7032734 1.4829872
6.629118 1.7179075 1.480055
6.6151714 1.7325081 1.4745262
6.6109128 1.7321978 1.4675395
6.616786 1.7463776 1.4766791
6.6107044 1.7450657 1.4817346
6.602715 1.7677025 1.4844619
6.6068091 1.7753403 1.4727292
6.6033926 1.7800943 1.4851954
6.5987091 1.7950824 1.4779863
6.6067781 1.7981129 1.4827757
6.6009226 1.8034467 1.472964
6.5921226 1.8172213 1.4685216
6.4096818 1.777187 1.5183595
6.4084134 1.7771268 1.5293335
6.3962717 1.793411 1.5297741
6.389173 1.8041446 1.5236335
6.4047894 1.8214242 1.5159162
6.3886604 1.8177519 1.5237416
6.3849854 1.8318731 1.5173476
6.3940892 1.8365535 1.5247796
6.3879695 1.8378816 1.5283448
