# .PCD v0.7 - Point Cloud Data file format
VERSION 0.7
FIELDS x y z
SIZE 4 4 4
TYPE F F F
COUNT 1 1 1
WIDTH 1509
HEIGHT 1
VIEWPOINT 0 0 0 1 0 0 0
POINTS 1509
DATA ascii
6.4124622 4.076169 0.47674453
6.4017401 4.0779104 0.45926088
6.5637817 4.186698 0.40197507
6.5504332 4.2036638 0.40527022
6.5568695 4.2189736 0.40019351
6.5396266 4.2230315 0.41179308
6.5345073 4.2321434 0.40650934
6.5345974 4.2356286 0.40041724
6.5380244 4.2456441 0.40742233
6.5283742 4.2523365 0.40721473
6.5099759 4.2689314 0.39882514
6.5016174 4.280477 0.40323797
6.4957623 4.2799101 0.40544713
6.49613 4.2918353 0.41547588
6.4997807 4.2960501 0.41167685
6.4783416 4.3088884 0.40280625
6.4884892 4.3224854 0.41392586
6.473341 4.3220649 0.39941776
6.4720879 4.3309751 0.40582007
6.4578271 4.3561516 0.40981835
6.463346 4.3488598 0.40132314
6.4404631 4.3591514 0.41529337
6.4419804 4.3695431 0.39962506
6.4456944 4.3862696 0.40681866
6.4394245 4.3926268 0.409172
6.4293427 4.4035373 0.41531679
6.4103785 4.4106016 0.40602058
6.4225211 4.428535 0.40727356
6.5561728 4.5390406 0.34489405
6.5600343 4.5537515 0.34219962
6.5478806 4.5600367 0.34320867
6.5472193 4.5695071 0.34551322
6.5405159 4.5665755 0.34922168
6.5381308 4.573451 0.3406778
6.5229268 4.600162 0.34952044
6.5100636 4.6029091 0.34031186
6.5033326 4.612823 0.34921384
6.5072923 4.6210217 0.3471044
6.4924927 4.6329985 0.3387695
6.4988217 4.6351547 0.33600014
6.4824438 4.6514893 0.35037977
6.4870625 4.6535063 0.34510222
6.4739733 4.6551766 0.34777418
6.4645796 4.6808314 0.34821147
6.4666295 4.6776643 0.34625864
6.4575095 4.6880293 0.33796129
6.4391685 4.6980705 0.35049433
6.4497166 4.7184916 0.3421523
6.4381433 4.710546 0.33672169
6.418222 4.7353749 0.34439123
6.4155188 4.7302842 0.33934802
6.4071832 4.7362828 0.34728384
6.5658884 4.8686371 0.28433964
6.5547638 4.8853445 0.28155148
6.544064 4.8906102 0.28658563
6.5313988 4.8932767 0.27298272
6.5304236 4.9041357 0.28042826
6.5219684 4.9120884 0.27931148
6.5251589 4.9150262 0.28127471
6.5029058 4.9246135 0.27910179
6.5083094 4.9380813 0.2828823
6.5086575 4.9498091 0.28371477
6.4969282 4.9545197 0.27500233
6.485764 4.9748845 0.27385655
-2.831136 -4.240808 1.2875619
-2.8352981 -4.2435236 1.2873291
-2.8190944 -4.2520285 1.2881092
-2.8121383 -4.2604766 1.2981105
-2.8058462 -4.2531009 1.2985495
-2.8103178 -4.2648602 1.2921578
-2.799304 -4.2757177 1.299932
-2.8033726 -4.2809625 1.2911928
-2.7879839 -4.2850819 1.2940379
-2.7920191 -4.2731714 1.2929455
-2.7668874 -4.2821975 1.2887543
-2.7782526 -4.2813234 1.2858169
-2.7698452 -4.2901888 1.2983361
-2.7606525 -4.2980466 1.2863603
-2.7614529 -4.3055668 1.2857045
-2.7418089 -4.3035178 1.2972258
-2.7485514 -4.3164201 1.3018174
-2.727514 -4.3193617 1.2850837
-2.7352107 -4.3128905 1.288142
-2.7200568 -4.3164363 1.2870135
-2.7259901 -4.3208375 1.3007532
-2.7161093 -4.3225956 1.2992531
-2.7091603 -4.3419447 1.2927654
-2.6896873 -4.3381038 1.3022891
-2.6821845 -4.3410721 1.2881538
-2.6953323 -4.35041 1.29992
-2.6769536 -4.35251 1.3026278
-2.6739779 -4.3595972 1.2862297
-2.6677308 -4.3604112 1.30013
-2.6584203 -4.3521061 1.2943035
-2.650233 -4.3557754 1.2878864
-2.6483006 -4.3756099 1.3035128
-2.6478634 -4.3745465 1.3035837
-2.6339085 -4.3800664 1.2912805
-2.630425 -4.3841457 1.2997856
-2.6210716 -4.3874397 1.3027208
-1.8411185 -3.0764322 1.7954851
-1.8390994 -3.0894356 1.7967439
-1.8334748 -3.0822773 1.8009313
-1.8339462 -3.0918987 1.7971576
-1.8202407 -3.0994287 1.7934403
-1.8129486 -3.0911272 1.7936058
-1.8100265 -3.0884943 1.798543
-1.8070301 -3.0980182 1.8016601
-1.7963332 -3.1101747 1.8043896
-1.7971277 -3.0990994 1.807508
-1.7949836 -3.1130259 1.8033133
-1.7882411 -3.1092465 1.8086947
-1.7802364 -3.1041594 1.8038082
-1.7880405 -3.1238639 1.8118677
-1.7796149 -3.114187 1.7949589
-1.7749032 -3.1215453 1.808907
-1.7700225 -3.1303129 1.8080373
-1.7602011 -3.1204183 1.800187
-1.7672592 -3.1241653 1.8027173
-1.7515843 -3.1330483 1.7988544
-1.7527876 -3.1241324 1.8035898
-1.7581822 -3.1328228 1.7946237
-1.7381918 -3.1378605 1.7932578
-1.7430847 -3.1350582 1.7946942
-1.7399144 -3.1481895 1.8083082
-1.7336497 -3.1409717 1.7970587
-1.7334335 -3.1532395 1.7995301
-1.7140837 -3.1400554 1.7943788
-1.7225807 -3.1583028 1.8079567
-1.708544 -3.1452515 1.7951219
-1.627914 -2.9911005 1.8571883
-1.6132308 -2.9932845 1.8695014
-1.6075107 -2.9998653 1.8592283
-1.6031533 -2.9957297 1.8742033
-1.5973564 -2.9928176 1.8584867
-1.5979424 -3.0080383 1.8724211
-1.5897747 -3.0074434 1.8765152
-1.5791324 -3.0119028 1.8762144
-1.5936384 -3.0092671 1.8600812
-1.5745634 -3.0170052 1.8594081
-1.56832 -3.0189807 1.8686055
-1.5635283 -3.0104582 1.8578892
-1.5664206 -3.0204031 1.8628566
-1.5595828 -3.0101819 1.8742183
-1.5577669 -3.018358 1.8707449
-1.5516646 -3.0313175 1.8742977
-1.5516248 -3.0203097 1.8606864
-1.5474879 -3.0228631 1.8648508
-1.5436488 -3.0241296 1.8738803
-1.5359398 -3.0305307 1.8573948
-1.5289009 -3.0349016 1.8611513
-1.5326616 -3.0386965 1.8756422
-1.5271356 -3.029603 1.8623937
-1.5166392 -3.0378938 1.8615664
-1.514778 -3.048594 1.8747568
-1.5163873 -3.03742 1.8571758
-1.5144409 -3.0504377 1.8727846
-1.5061028 -3.0435529 1.868016
-1.4935974 -3.0570662 1.8641514
-1.4920596 -3.047111 1.8760499
-1.4870043 -3.0543606 1.8657359
-1.4781895 -3.0496171 1.8737794
-1.4748809 -3.063597 1.8730631
-1.4848179 -3.0713332 1.8661965
-1.4755793 -3.0614634 1.8707644
-1.4731475 -3.0574613 1.8686348
-1.4682938 -3.0757742 1.8756104
-1.4678283 -3.0700133 1.8715874
-1.4521285 -3.076014 1.8761618
-1.4602907 -3.0647476 1.8727963
-1.4565514 -3.0726986 1.8642801
-1.4431232 -3.0761111 1.8626002
-1.4416487 -3.0804937 1.8690273
-1.4408877 -3.0790954 1.8697993
-1.4269905 -3.0927429 1.8625159
-1.4285226 -3.0882466 1.8613034
-1.4321814 -3.0831871 1.8638411
-1.408862 -3.0819554 1.8741966
-1.4095626 -3.0893202 1.8606021
-1.4056861 -3.0891464 1.8603191
-1.4051723 -3.0895352 1.8741241
-1.3931721 -3.1008005 1.8665494
-1.402849 -3.0948992 1.8566188
-1.3860959 -3.0925472 1.8701075
-1.3885682 -3.1006112 1.8719634
-1.3783212 -3.1145234 1.8603244
-1.3692838 -3.1164134 1.8757477
-1.3777062 -3.1193056 1.8743993
-1.3757703 -3.1072228 1.8676767
-1.3674263 -3.1155908 1.8631127
-1.3593624 -3.1077752 1.8601383
-1.3574911 -3.1122918 1.867871
-1.3431917 -3.1108208 1.8634717
-1.3388203 -3.116935 1.8633847
-1.3409574 -3.1298625 1.857188
-1.3412361 -3.1168866 1.8590271
-1.3331513 -3.1192198 1.8609185
-1.3296405 -3.1343243 1.8618538
-1.3274754 -3.1318448 1.8568019
-1.3120303 -3.1253755 1.8653058
-1.3211466 -3.1351998 1.8635433
-1.3132347 -3.1275125 1.8591757
-1.3175874 -3.1298881 1.8581848
-1.3063369 -3.1322577 1.8729792
-1.2951709 -3.1411321 1.8567395
-1.290199 -3.1346555 1.8753632
-1.2833855 -3.1444671 1.8735349
-1.294678 -3.1551437 1.8584771
-1.2850326 -3.1480334 1.8677679
-1.2804369 -3.1498587 1.8653908
-1.2673346 -3.145184 1.875046
-1.2759924 -3.1569834 1.8742393
-1.2690152 -3.1575241 1.8729012
-1.2630264 -3.1512055 1.871032
-1.2622408 -3.1581144 1.8621204
-1.2576923 -3.164448 1.8615115
-1.2545177 -3.1683669 1.8729106
-1.233169 -3.1679797 1.8754472
-1.1775329 -2.9858387 1.9304227
-1.1621928 -2.9999237 1.9218529
-1.1692276 -2.985316 1.9397533
-1.1466048 -3.0037777 1.9276433
-1.1447864 -2.9996765 1.9367757
-1.1443038 -2.9940033 1.9340034
-1.1456883 -2.9919639 1.9260925
-1.1359822 -3.0097973 1.9336123
-1.1268827 -3.0088804 1.9389716
-1.1263816 -3.0110414 1.92647
-1.123342 -3.011338 1.9213431
-1.1288459 -3.0004795 1.923774
-1.1229173 -3.0008428 1.9224497
-1.119086 -3.002773 1.9242949
-1.1073626 -3.0070765 1.9318668
-1.1065046 -3.0150914 1.9267312
-1.1084168 -3.0086873 1.9252491
-1.0982376 -3.0167754 1.9275413
-1.1005366 -3.0199647 1.9323522
-1.097474 -3.0268559 1.9365982
-1.0869108 -3.0149128 1.9221379
-1.0814724 -3.0326812 1.9401203
-1.0736011 -3.0287304 1.9393178
-1.067052 -3.0251603 1.9381578
-1.0586555 -3.0340807 1.934261
-1.062685 -3.0263593 1.9239098
-1.0518481 -3.0247686 1.9215177
-1.0624909 -3.0372193 1.9325866
-1.0508398 -3.0361912 1.9220091
-1.0543755 -3.0363257 1.9260775
-1.0336633 -3.0301239 1.92362
-1.0474093 -3.0427129 1.9249197
-1.0431707 -3.0316617 1.9316895
-1.0197327 -3.0382948 1.923543
-1.0174526 -3.040767 1.9279835
-1.0190675 -3.051506 1.9216472
-1.0110314 -3.0556476 1.9383973
-1.0053855 -3.0546741 1.9241866
-1.0086687 -3.0462933 1.9324877
-1.0025274 -3.0456939 1.9221323
-0.99231565 -3.04863 1.9394506
-1.0045594 -3.0495625 1.9256461
-0.99550164 -3.050508 1.9243526
-0.97967207 -3.0522697 1.9378805
-0.99198711 -3.0560074 1.9303845
-0.97985959 -3.065618 1.9335916
-0.97406656 -3.0514529 1.9340932
-0.9715215 -3.0559037 1.9369988
-0.96318513 -3.0679016 1.9297097
-0.96654588 -3.0580244 1.9244384
-0.96026009 -3.0622034 1.9376433
-0.95665413 -3.0628963 1.9313223
-0.94685084 -3.0588033 1.9254563
-0.93833899 -3.0631547 1.9392231
-0.93629754 -3.0640969 1.9306406
-0.94175017 -3.0771892 1.9338301
-0.92399389 -3.0687685 1.9325616
-0.92573416 -3.0820842 1.928213
-0.92456698 -3.071347 1.933231
-0.91068715 -3.0682559 1.9294848
-0.92207676 -3.0831664 1.9229122
-0.90025973 -3.0787601 1.9369934
-0.90476179 -3.0888417 1.9365082
-0.89512819 -3.0747042 1.9330063
-0.89172602 -3.0828199 1.9298908
-0.89690447 -3.0806851 1.9350055
-0.87889165 -3.0850925 1.9298577
-0.88214552 -3.0955405 1.9327049
-0.86974639 -3.0891232 1.9275939
-0.87232751 -3.0931301 1.9268726
-0.87865311 -3.0928326 1.9325333
-0.87154961 -3.0950253 1.9238868
-0.87036324 -3.0860295 1.9264393
-0.84966034 -3.0917113 1.9244038
-0.8524577 -3.0983036 1.9355208
-0.85836875 -3.0943892 1.9300351
-0.83916348 -3.0967784 1.9213985
-0.84510428 -3.1067395 1.9235644
-0.82819617 -3.1086214 1.9333918
-0.83639753 -3.0974059 1.9204506
-0.82531857 -3.0968397 1.9290391
-0.82857728 -3.1134946 1.9366612
-0.82048088 -3.1132903 1.9344991
-0.80983037 -3.1167114 1.9278696
-0.80121374 -3.10726 1.9358555
-0.80147851 -3.1080515 1.9289579
-0.80722725 -3.1139712 1.9208672
-0.80161107 -3.1101668 1.9240053
-0.79382741 -3.1137915 1.9264451
-0.79621482 -3.1099555 1.9212782
-0.79154193 -3.119381 1.9378494
-0.77827895 -3.1164069 1.938931
-0.77739233 -3.1096797 1.9213766
-0.7786662 -3.1166468 1.9215546
-0.76656824 -3.119344 1.9323313
-0.76648277 -3.1266541 1.9234577
-0.75329328 -3.1240628 1.9297998
-0.74819309 -3.1202066 1.9210752
-0.7399534 -3.1329195 1.9298494
-0.74927229 -3.1323745 1.9235761
-0.74375665 -3.1315126 1.9289885
-0.7416684 -3.1217453 1.9384798
-0.73849714 -3.1354504 1.935797
-0.7328788 -3.1347899 1.9272395
-0.72708106 -3.1263938 1.9370713
-0.71050513 -3.1222758 1.9206735
-0.72280127 -3.1293335 1.9279412
-0.70875406 -3.1356575 1.9401333
-0.70342994 -3.1381102 1.9206746
-0.70933032 -3.1342511 1.9228169
-0.7015025 -3.1292477 1.9268709
-0.68826097 -3.1465285 1.9217362
-0.68552685 -3.1450121 1.9239341
-0.6854741 -3.1422527 1.9278238
-0.67397755 -3.1380725 1.9211351
-0.67264777 -3.1416948 1.9395837
-0.6677146 -3.1419928 1.9319878
-0.65551233 -3.1326246 1.9390749
-0.65111655 -3.1423149 1.9247103
-0.66617823 -3.1422896 1.9351994
-0.6590963 -3.1388216 1.9316806
-0.64795899 -3.1464989 1.9318635
-0.64195514 -3.1558301 1.9345392
-0.63375223 -3.149498 1.9209446
-0.64165837 -3.15606 1.9324943
-0.63625187 -3.1456842 1.9213798
-0.63239557 -3.1547687 1.9309191
-0.61613387 -3.1560457 1.9307722
-0.61278397 -3.1573231 1.9218744
-0.60379738 -3.1580594 1.9339355
-0.60432053 -3.1561124 1.9303917
-0.60836118 -3.147428 1.9400917
-0.59221774 -3.1571412 1.9213755
-0.59339744 -3.163054 1.9299003
-0.58817053 -3.1612763 1.9327657
-0.59139282 -3.1584976 1.9269034
-0.58572841 -3.1562686 1.9328467
-0.57052362 -3.1621854 1.9383972
-0.57546455 -3.1691608 1.9235483
-0.56930202 -3.17156 1.9288352
-0.57107735 -3.1588933 1.9369345
-0.55639535 -3.1546795 1.9345776
-0.55201221 -3.158736 1.9233609
-0.54634416 -3.1683869 1.9270787
-0.55215025 -3.1572268 1.9334151
-0.53508979 -3.1737061 1.923365
-0.54389071 -3.1689391 1.9363726
-0.52674717 -3.1733868 1.9242858
-0.52405214 -3.1671958 1.9260397
-0.51620477 -3.1792643 1.9262047
-0.52306968 -3.1775305 1.9398402
-0.52183425 -3.1655388 1.9384872
-0.50295466 -3.1735892 1.9338691
-0.51529074 -3.1803973 1.9203857
-0.50390798 -3.177439 1.9388415
-0.50618792 -3.1818483 1.921591
-0.49851686 -3.1794879 1.9298742
-0.49783722 -3.1844146 1.9344703
-0.48924342 -3.1710777 1.9260116
-0.47889477 -3.1743259 1.9262328
-0.46838024 -3.1688726 1.9289296
-0.4359763 -2.9990904 1.9878751
-0.43343922 -2.982353 1.9959787
-0.43551928 -2.9823887 1.9979974
-0.43108192 -2.9954798 1.9836918
-0.42818791 -2.9952898 1.9856877
-0.42254353 -2.9918685 1.9907488
-0.40861517 -2.9922087 1.9915817
-0.41008988 -2.9883971 1.986444
-0.40002245 -2.9986796 1.9987441
-0.409733 -3.0028915 1.9971775
-0.39674592 -2.9873972 1.9985386
-0.38833377 -2.9935498 1.9972653
-0.39181718 -3.0059669 1.9965787
-0.39328104 -2.9981325 2.0034175
-0.38904977 -2.9915905 1.9910572
-0.38282177 -3.0035913 2.0027227
-0.37153202 -3.005852 1.9946471
-0.37940857 -2.9937766 1.9909763
-0.3724221 -2.9958234 1.9976101
-0.35313478 -2.9917712 2.0006135
-0.35541338 -2.9989235 1.9996866
-0.3563301 -3.0018559 1.9931769
-0.35851941 -3.0124648 1.9948138
-0.34139469 -3.0087311 1.9848433
-0.33743036 -3.0049608 2.0019667
-0.34582573 -2.9991579 1.9876355
-0.34255481 -3.0062613 1.9915839
-0.32735884 -3.0054383 1.9881424
-0.31583309 -3.0018263 2.0031826
-0.31767288 -3.0031252 2.0027978
-0.31650874 -3.0109019 1.9957776
-0.3162708 -3.0037949 1.986336
-0.30254185 -3.0030777 1.9867908
-0.3071754 -3.0094371 1.9914783
-0.30177894 -3.0160341 2.0004294
-0.29925844 -3.0152287 1.995671
-0.29106852 -3.0153558 1.9842907
-0.27892962 -3.0044909 1.9942094
-0.29023162 -3.0063047 1.98821
-0.28649271 -3.0141635 2.0013754
-0.28313807 -3.005064 1.9872226
-0.26680315 -3.019933 2.0006287
-0.25990927 -3.0052803 1.9951985
-0.25256014 -3.0194688 1.9838493
-0.26052293 -3.0124691 1.9863378
-0.25953403 -3.0071578 1.9900603
-0.24330308 -3.0178664 1.9940785
-0.23845188 -3.0206459 1.9893786
-0.24368156 -3.0189381 2.0032759
-0.23491022 -3.0177028 1.9897197
-0.23297283 -3.0173247 1.9856622
-0.2251879 -3.0248239 1.987129
-0.22399628 -3.0096424 2.0036361
-0.22823454 -3.0113249 1.9863364
-0.22382154 -3.0251844 1.996412
-0.21691954 -3.0222695 1.9921687
-0.20629467 -3.0073385 1.9975809
-0.21165118 -3.0117719 2.0005715
-0.20170712 -3.025651 1.9856219
-0.19786532 -3.0149753 1.992254
-0.18757941 -3.0265791 1.9996046
-0.1813506 -3.0146155 1.9997902
-0.1736546 -3.0256782 1.9954861
-0.16945109 -3.0251975 1.9898221
-0.16254695 -3.0245225 1.9906154
-0.16556683 -3.0211649 1.9946345
-0.1728297 -3.0114021 1.9938895
-0.15468006 -3.0112159 1.9890101
-0.15353946 -3.0253062 1.9905447
-0.14734809 -3.0197756 2.0030422
-0.15452437 -3.0281804 1.9842174
-0.13434981 -3.0145779 1.9976317
-0.13398921 -3.0175018 2.0002527
-0.1379324 -3.0204444 2.003618
-0.12753937 -3.0207057 1.9879161
-0.11635277 -3.0282102 1.9958236
-0.12114682 -3.0272009 1.9937398
-0.12668565 -3.0122659 1.9920824
-0.11710362 -3.0204146 1.9965687
-0.10598671 -3.0265963 1.9868139
-0.10237196 -3.0241792 1.9888767
-0.097581878 -3.0258126 1.9847583
-0.099377386 -3.031311 1.9979265
-0.098551638 -3.0249782 1.9883566
-0.094360292 -3.0324783 1.9987241
-0.085870713 -3.0130181 2.00178
-0.06947346 -3.0225787 1.9860318
-0.075159773 -3.0219047 1.9853996
-0.062503412 -3.0158758 1.9967937
-0.065360531 -3.0229571 2.0021753
-0.057972267 -3.0306513 1.9901372
-0.048521098 -3.0177832 1.9966229
-0.063188292 -3.0309386 1.9977618
-0.044687103 -3.0274963 1.985379
-0.035755645 -3.024091 1.9856355
-0.036456607 -3.0164249 1.9854859
-0.03410165 -3.0165901 1.9959036
-0.02749474 -3.0266705 1.9871172
-0.021519965 -3.0283237 1.9844755
-0.024150915 -3.0170631 1.9948624
-0.021400247 -3.0226438 1.9976592
-0.010687633 -3.0230026 1.9934223
-0.013489217 -3.0222585 1.9961224
-0.015151895 -3.0272429 2.002351
-0.0091973851 -3.0275257 1.9920653
-0.0029862812 -3.0327396 1.9895205
0.0030752281 -3.0198286 1.986879
0.019554455 -3.0245407 1.9942198
0.0072471811 -3.0275085 1.9999642
0.012298251 -3.0173376 1.99702
0.027736217 -3.0286465 1.9885402
0.025970953 -3.033473 1.9997405
0.03996877 -3.0253317 1.9917179
0.036666591 -3.0230839 1.9987383
0.039593022 -3.0191119 1.985497
0.052233733 -3.0331597 1.9870573
0.042329516 -3.0253766 2.0015383
0.049783755 -3.0253446 1.9913104
0.064578712 -3.0218508 1.9981124
0.065118015 -3.0175366 1.9950771
0.062713027 -3.0220151 2.0007188
0.071828067 -3.0324893 2.0015137
0.072143219 -3.0331964 1.9904238
0.084435761 -3.0214362 2.00155
0.083748505 -3.0309799 1.99661
0.089819871 -3.0321136 1.9975787
0.097451426 -3.0273817 1.9862809
0.099563673 -3.0194259 1.9949594
0.091447897 -3.0209053 1.98707
0.11013398 -3.0260756 2.0034275
0.10578459 -3.0178809 1.9952332
0.10707669 -3.024801 1.9964855
0.10916351 -3.015636 1.9969454
0.12016021 -3.0184081 1.9890745
0.12228282 -3.0260968 1.9915627
0.11946533 -3.0319436 1.9928144
0.13761631 -3.0143881 1.9986893
0.14446925 -3.0189495 1.9924051
0.14000031 -3.0158556 1.9845208
0.14764181 -3.0183046 1.9913397
0.15164055 -3.0293312 1.9862207
0.14744475 -3.0232944 1.9940432
0.16450086 -3.0193989 1.9908866
1.1157714 -4.9978094 1.2860746
1.1281643 -4.9879169 1.2921509
1.1230433 -4.9850655 1.2922182
1.1391718 -4.9882865 1.2896731
1.1411729 -4.9888783 1.3023926
1.1568877 -4.9781613 1.2980263
1.1647159 -4.9840264 1.2910255
8.2455244 2.9557991 0.1477516
8.2316656 2.9690418 0.14753833
8.241128 2.9801123 0.16108692
8.2366953 2.9876616 0.1539274
8.231122 3.0010235 0.14440483
8.2321129 3.0149851 0.14311665
8.0344238 2.9491553 0.21853074
8.0276079 2.966027 0.20425108
8.0377817 2.9872375 0.22018258
8.0366554 2.9859567 0.21988933
8.0217133 3.0086708 0.21082501
8.0234203 3.0216391 0.22350956
7.8469954 2.9611914 0.27791041
7.8420997 2.967217 0.26624486
7.8300295 2.9718316 0.27646503
7.8284211 2.9816151 0.26917636
7.8255095 2.9963615 0.27010942
7.8158631 3.0084095 0.27670443
7.8119221 3.0147657 0.2733061
7.6266584 2.9754014 0.33956245
7.6184211 2.973757 0.33520713
7.6211047 2.9780002 0.33263388
7.6164579 2.9879174 0.34544098
7.624064 3.0170574 0.33334747
7.6199894 3.0182607 0.33494779
7.6061201 3.0220046 0.335417
7.4283891 2.9765277 0.40185699
7.4282331 2.9758108 0.40730846
7.4146581 2.995347 0.40821895
7.4176698 2.9910684 0.40761799
7.4047904 3.0026815 0.39473444
7.4075408 3.0211217 0.39546162
7.4077039 3.0390739 0.39547956
7.2247982 2.9766097 0.45615035
7.2257471 2.9862092 0.46527606
7.208282 2.9861426 0.46753672
7.2112722 3.0091212 0.4641906
7.198555 3.016078 0.46977669
7.1912751 3.013608 0.46455419
7.2048917 3.0383129 0.46471387
7.0227456 2.9604046 0.5282867
7.0029531 2.9831052 0.5178389
7.0038738 2.9901748 0.51502162
7.0047994 2.994421 0.53161997
7.0042481 3.0037496 0.52775347
6.9928088 3.0197616 0.5337618
6.9836168 3.0229259 0.53269595
6.9910655 3.0375488 0.52853996
6.8097749 2.9732194 0.59400648
6.7976656 2.9823298 0.59200919
6.8057032 2.9886601 0.59598523
6.7951665 2.9993267 0.59288281
6.7941685 3.0150566 0.58707702
6.7903404 3.0158679 0.59574986
6.7830973 3.0202978 0.58399004
6.7719746 3.037472 0.5784865
6.7668467 3.0496511 0.58639729
6.587296 2.9754422 0.64132059
6.5970292 2.9762831 0.65590543
6.5900826 2.9891462 0.65011197
6.5811257 2.9941916 0.64116573
6.5761323 3.0128586 0.65340883
6.5680237 3.0146992 0.65191048
6.5740962 3.036896 0.64175785
6.5688291 3.0360475 0.64657539
6.5717893 3.0482874 0.63911331
6.5692329 3.0596235 0.65438235
6.554575 3.0689902 0.64404732
6.5526938 3.0722315 0.64535898
6.5453849 3.0926805 0.65034562
6.5322695 3.0883396 0.65119523
6.5301957 3.1031852 0.64153504
6.5403519 3.1141143 0.64454454
6.5289969 3.1153219 0.64058602
6.5274763 3.1354799 0.64661998
6.5107613 3.1428292 0.65574044
6.5065708 3.151866 0.64704996
6.5176373 3.150501 0.65858489
6.4983554 3.171524 0.64422584
6.5003729 3.1695199 0.64118636
6.5073647 3.178695 0.64468265
6.495193 3.1901033 0.65390712
6.4933486 3.1959879 0.64494962
6.4945011 3.2148502 0.64809424
6.4716825 3.2165377 0.64229786
6.474885 3.2258677 0.65475768
6.4671955 3.2353785 0.64716727
6.4708028 3.2403388 0.64913094
6.4659328 3.2504137 0.64304286
6.466691 3.2669148 0.64588207
6.444397 3.2748287 0.64883405
6.4455867 3.2950051 0.65413815
6.4359889 3.2977839 0.65627676
6.4374204 3.306174 0.64823389
6.4419842 3.3162177 0.65284097
6.4207392 3.3139482 0.65774679
6.431941 3.3284862 0.64313835
6.4155407 3.3311415 0.64447147
6.4210911 3.3534486 0.64686716
6.4205408 3.3610487 0.65675789
6.4028177 3.3709021 0.64556289
6.4080338 3.3665051 0.64555097
6.5666428 3.4658592 0.57719719
6.5591526 3.4826875 0.59038669
6.5636067 3.488677 0.58464557
6.5526552 3.4980311 0.58766729
6.546597 3.5032096 0.59626585
6.5459175 3.5166221 0.57856488
6.5465579 3.5202324 0.59422272
6.5295815 3.5279522 0.58853877
6.5224833 3.5426207 0.58377296
6.5241776 3.54719 0.58568156
6.525847 3.5669641 0.5892452
6.5212831 3.5640817 0.58048707
6.5098968 3.5904996 0.58857501
6.4927559 3.5908253 0.57688034
6.4986248 3.5899644 0.5812344
6.4930792 3.6133082 0.58987796
6.48982 3.6221902 0.59301555
6.4822059 3.6190059 0.59476364
6.4688954 3.6336458 0.5820778
6.4708066 3.6549151 0.58486569
6.4746137 3.662802 0.57833904
6.4619718 3.6710858 0.57984823
6.4605594 3.6729565 0.57870066
6.4472222 3.6826725 0.58881092
6.4421778 3.6832557 0.58899933
6.4414749 3.7033048 0.58347785
6.4294033 3.7051187 0.57779145
6.4404564 3.724355 0.57988095
6.4332452 3.7353299 0.5875777
6.4133353 3.7332778 0.58751816
6.4162011 3.7401068 0.58632684
6.412528 3.7593811 0.58440799
6.4103513 3.762342 0.59535533
6.5708489 3.873503 0.52488804
6.5574751 3.8685477 0.5281474
6.5442772 3.8880262 0.52247286
6.5455451 3.9005823 0.52963644
6.5411139 3.9093533 0.5270679
6.5387592 3.9160874 0.52651304
6.5240884 3.9280989 0.514952
6.5293455 3.9281754 0.52127337
6.5133986 3.9497905 0.51792943
6.5155206 3.9544532 0.52861434
6.5085769 3.9610159 0.52511019
6.5132866 3.959589 0.52750438
6.5012431 3.9703608 0.52023852
6.4835124 3.9878097 0.51639754
6.4929328 3.9862494 0.53220415
6.4797721 4.0077696 0.52562904
6.4660435 4.0200663 0.52195704
6.4607415 4.0230808 0.52926093
6.4617481 4.0356212 0.52908683
6.4593987 4.035769 0.52448994
6.447721 4.0544715 0.51737815
6.452527 4.0633945 0.51976937
6.4397144 4.0657973 0.52386999
6.4396238 4.0760064 0.51636499
6.4356794 4.0811839 0.51825291
6.4275289 4.0987625 0.53262168
6.4127913 4.1081862 0.53025621
6.4143686 4.1178951 0.52188164
6.4032378 4.1142097 0.51703197
6.5517168 4.2367644 0.46118867
6.5556459 4.2505107 0.45718127
6.5524507 4.2546997 0.45310479
6.5516334 4.2517257 0.46244726
6.5349045 4.274322 0.45302212
6.5306578 4.2786484 0.45980644
6.528286 4.2805114 0.45520869
6.5202708 4.2933354 0.47108251
6.5098772 4.3134484 0.46772051
6.511096 4.3081551 0.47173664
6.507453 4.3172808 0.46640089
6.490087 4.3362284 0.46566817
6.4887013 4.3378863 0.45998922
6.4832268 4.3446455 0.46220905
6.4870815 4.3606071 0.45790675
6.4814992 4.3782659 0.46882048
6.462688 4.3795094 0.47249493
6.4592667 4.3787069 0.45989978
6.4517064 4.3934927 0.45833266
6.4407716 4.3954921 0.46239504
6.4338408 4.4198551 0.46651438
6.4415612 4.4128728 0.46052116
6.4285369 4.4305372 0.46713412
6.4298205 4.448772 0.47146323
6.413312 4.4569192 0.46271902
6.4124885 4.4655542 0.46260715
6.5585198 4.5701709 0.39258748
6.5521078 4.5889692 0.39488944
6.5530877 4.5863156 0.40297621
6.5324874 4.5988474 0.40407008
6.5359373 4.6105809 0.40054363
6.5234933 4.6161809 0.4010596
6.525044 4.6349139 0.41027337
6.5131946 4.6411014 0.40876389
6.5056615 4.6569624 0.40645248
6.5093718 4.658196 0.40383539
6.4929571 4.675715 0.40819314
6.4886441 4.6731935 0.40220854
6.4866204 4.6780372 0.40443817
6.4726706 4.6886783 0.41007668
6.4598022 4.7091794 0.39833483
6.4633946 4.70366 0.40308762
6.4474907 4.7261267 0.3974773
6.4407878 4.7231927 0.4089672
6.4525628 4.7391863 0.40724054
6.4420137 4.7453642 0.39767814
6.4288354 4.7616138 0.39657456
6.420002 4.7600498 0.40389889
6.4251719 4.7829728 0.40702501
6.5649414 4.8921323 0.32962614
6.5577955 4.9015112 0.34583849
6.5388951 4.921032 0.34751701
6.5447345 4.93121 0.34265694
6.5449505 4.9412599 0.34586656
6.5366445 4.9496717 0.33608317
6.5265985 4.9541335 0.34349987
6.5069776 4.9520292 0.33819795
-2.845649 -4.2625828 1.3288925
-2.8386087 -4.2677712 1.3361431
-2.8222299 -4.2690315 1.3355027
-2.8215299 -4.2817316 1.323889
-2.8059406 -4.2816424 1.3343399
-2.8092852 -4.2781038 1.3248175
-2.7965486 -4.278811 1.3380018
-2.7925496 -4.2967544 1.3234361
-2.7910612 -4.2849326 1.3304654
-2.7903008 -4.2897334 1.3421953
-2.7733986 -4.2923436 1.3305149
-2.7808805 -4.3138704 1.3376166
-2.7611063 -4.3049822 1.3274205
-2.7619672 -4.321362 1.3284783
-2.7544363 -4.3081264 1.3335713
-2.756449 -4.3242154 1.3261404
-2.7479789 -4.3135529 1.341931
-2.7263191 -4.3248816 1.323699
-2.7192194 -4.3407178 1.3412011
-2.7250853 -4.341795 1.3378062
-2.7192161 -4.3319774 1.3356969
-2.7050219 -4.3356533 1.3359475
-2.7037206 -4.3455729 1.3289654
-2.69261 -4.3423767 1.3294737
-2.7004366 -4.3576779 1.3270791
-2.6831648 -4.3610258 1.3324491
-2.6733186 -4.3619428 1.332327
-2.6676767 -4.3672442 1.3247126
-2.6602614 -4.3714962 1.3250902
-2.655339 -4.3676696 1.3282098
-2.653806 -4.3840342 1.3249584
-2.6543772 -4.3722701 1.3418336
-2.6346927 -4.3852763 1.3325833
-2.6419849 -4.3932486 1.330315
-2.6287639 -4.3951287 1.3365228
-2.6179323 -4.3858242 1.3231514
-1.8428347 -3.0865297 1.8296912
-1.8285695 -3.0928407 1.837613
-1.821915 -3.0978417 1.8250258
-1.8348795 -3.1040306 1.8199999
-1.8247207 -3.0948024 1.8223357
-1.8178097 -3.1122663 1.8201529
-1.8140199 -3.1161716 1.8286729
-1.799477 -3.1135004 1.8329211
-1.8071988 -3.1037445 1.8389809
-1.8087093 -3.1092987 1.8380283
-1.8035876 -3.1247926 1.8338089
-1.7889906 -3.1303487 1.8258582
-1.7864685 -3.1135809 1.8354803
-1.77653 -3.1341124 1.8214812
-1.7716138 -3.1288228 1.8392719
-1.7843584 -3.1209636 1.8221544
-1.7792823 -3.1336598 1.8236811
-1.7656828 -3.1361618 1.8304224
-1.7678316 -3.1307378 1.8294567
-1.7639171 -3.1311798 1.8254683
-1.7609518 -3.1508596 1.828511
-1.7422025 -3.1403053 1.8285167
-1.7514005 -3.1515949 1.827803
-1.7309728 -3.1573157 1.8290648
-1.7445408 -3.1624939 1.838117
-1.7403147 -3.1647933 1.8375229
-1.6418316 -2.9996912 1.8888545
-1.6334225 -2.9919515 1.898033
-1.618269 -2.9907479 1.8951118
-1.6240778 -2.990021 1.8942184
-1.6138719 -2.9907229 1.8961095
-1.6206203 -2.9970734 1.8910127
-1.6073596 -2.9970231 1.8970779
-1.6148096 -3.0009496 1.8998677
-1.6009945 -3.0028524 1.8999187
-1.598124 -3.0049405 1.9001036
-1.5958446 -3.0043314 1.901112
-1.5843641 -3.0194986 1.8921534
-1.5837018 -3.0237007 1.886686
-1.5859576 -3.0179036 1.8842272
-1.5691037 -3.0260954 1.8833423
-1.5703558 -3.0252335 1.8983768
-1.5767014 -3.0353124 1.895726
-1.5569788 -3.0370455 1.8914067
-1.5544634 -3.029171 1.8874369
-1.5518938 -3.0426369 1.8836256
-1.5491364 -3.0380371 1.8826638
-1.5453676 -3.0461736 1.8887696
-1.5505542 -3.0378678 1.892902
-1.5412053 -3.036041 1.8850545
-1.5343121 -3.0415866 1.8912321
-1.5283008 -3.0526137 1.9004827
-1.527252 -3.0542188 1.8818595
-1.528851 -3.0603366 1.8837025
-1.5147665 -3.0481775 1.8956133
-1.5046486 -3.0576906 1.8962456
-1.4983391 -3.0486908 1.8836591
-1.5129883 -3.0601697 1.8851117
-1.5015289 -3.0610862 1.8970394
-1.4859341 -3.0569072 1.8929576
-1.4981841 -3.070092 1.8854877
-1.4842533 -3.0615251 1.8891425
-1.4810692 -3.0761721 1.8933382
-1.4765052 -3.0766838 1.8935558
-1.4700954 -3.0673797 1.8880662
-1.4717718 -3.0722296 1.8951914
-1.4728131 -3.0750444 1.8934382
-1.4664381 -3.076786 1.8823221
-1.4586076 -3.0913489 1.8923993
-1.4588464 -3.0746005 1.8887595
-1.4431643 -3.0943882 1.8940328
-1.4349493 -3.0845346 1.8899649
-1.4430765 -3.0957892 1.8933361
-1.4270052 -3.0867748 1.8982754
-1.4307135 -3.0956485 1.8945926
-1.4199086 -3.0904999 1.888128
-1.4219757 -3.0906961 1.9009106
-1.4257933 -3.108824 1.8940072
-1.4207242 -3.1034312 1.894591
-1.4055749 -3.1025894 1.893967
-1.3940629 -3.1103806 1.895593
-1.3972747 -3.114275 1.8891045
-1.4045516 -3.1106174 1.8933872
-1.3884547 -3.1152122 1.8887038
-1.3874156 -3.107842 1.8971604
-1.3900567 -3.1139963 1.8927733
-1.3791597 -3.1265497 1.8901912
-1.3754774 -3.1272554 1.8914768
-1.3786957 -3.1272299 1.9001447
-1.3613276 -3.1163955 1.8916378
-1.3645809 -3.1183925 1.8973169
-1.3462054 -3.1279471 1.9010729
-1.3543158 -3.1291273 1.8904514
-1.3381408 -3.1385622 1.8971943
-1.3466465 -3.1313121 1.8932602
-1.3466932 -3.1310601 1.885119
-1.3311243 -3.1442707 1.8863649
-1.3381348 -3.1381612 1.8888397
-1.3238571 -3.1396348 1.8932687
-1.3209088 -3.1481085 1.8904544
-1.3064649 -3.1442056 1.8875597
-1.3063393 -3.1463001 1.8970205
-1.3024552 -3.1408808 1.8872051
-1.3091899 -3.1436648 1.8898531
-1.2891792 -3.1593359 1.8816429
-1.2931 -3.1594369 1.8955705
-1.2851595 -3.1483552 1.8981673
-1.2759706 -3.1486731 1.8887469
-1.2843043 -3.1591046 1.8997201
-1.2682066 -3.1509819 1.884081
-1.2749206 -3.152812 1.8941998
-1.2645268 -3.1589158 1.884073
-1.2646698 -3.1655374 1.9012083
-1.1841279 -2.9867489 1.9595295
-1.1916798 -2.9888074 1.9618769
-1.1874397 -2.9991968 1.9459475
-1.1692696 -3.0060577 1.9629178
-1.1685004 -2.9881449 1.9613823
-1.1771493 -3.0029829 1.951221
-1.1548227 -3.0061433 1.9509819
-1.1681329 -3.0004401 1.9507061
-1.151322 -3.0087681 1.9461137
-1.1446356 -3.0016665 1.956681
-1.1408117 -3.0089507 1.9512625
-1.1407977 -3.0079727 1.9454558
-1.1384342 -3.0069425 1.9509245
-1.1319978 -3.0119326 1.9511908
-1.128589 -3.0203466 1.951023
-1.1267135 -3.0216043 1.9576639
-1.114997 -3.0247328 1.9627856
-1.1235175 -3.0253713 1.9552456
-1.1123115 -3.0134006 1.961007
-1.1056957 -3.0189476 1.9554935
-1.1085104 -3.0248773 1.9443133
-1.0967414 -3.0350018 1.955723
-1.090777 -3.0269735 1.9497687
-1.0993418 -3.0367222 1.9604239
-1.0876379 -3.0272775 1.9442595
-1.0760999 -3.0401747 1.9484254
-1.0779188 -3.0255754 1.951045
-1.0746138 -3.0437186 1.9546027
-1.0788467 -3.0348799 1.9517014
-1.0573162 -3.0436518 1.9448174
-1.0612971 -3.0394671 1.9535625
-1.0564561 -3.0477443 1.9537358
-1.0602033 -3.0342898 1.9634842
-1.0499028 -3.0336351 1.9450247
-1.0489448 -3.0455139 1.957545
-1.0441493 -3.0500939 1.958697
-1.0351858 -3.0407341 1.9559714
-1.0236007 -3.0523131 1.9566197
-1.028456 -3.0523708 1.947618
-1.0162104 -3.0551457 1.9513496
-1.0108469 -3.0461514 1.9607652
-1.0167363 -3.0565681 1.9633973
-1.0024502 -3.054986 1.9609711
-0.99841392 -3.0673597 1.9606812
-0.99283504 -3.0630333 1.9499882
-0.99473399 -3.058172 1.9561847
-0.99547893 -3.0686095 1.9532046
-0.99894756 -3.0717261 1.9601032
-0.98176581 -3.0639641 1.9483957
-0.97358394 -3.0682251 1.9553591
-0.98166853 -3.0713933 1.9527566
-0.98033559 -3.0647228 1.9611713
-0.97636867 -3.0680408 1.9525958
-0.954826 -3.071599 1.9530687
-0.95357132 -3.0738566 1.9592836
-0.96300775 -3.0822933 1.9517697
-0.94624573 -3.0757575 1.9552224
-0.95246196 -3.0769744 1.9569564
-0.93177783 -3.0852959 1.9478441
-0.94279933 -3.0897236 1.9558567
-0.9268555 -3.0865259 1.9620813
-0.93351239 -3.0862873 1.9563503
-0.93175274 -3.0863755 1.9486691
-0.9185667 -3.0892169 1.9587919
-0.92490602 -3.0951014 1.9480128
-0.9050287 -3.0947218 1.9501468
-0.9126634 -3.0818815 1.9601606
-0.89684361 -3.099561 1.9502953
-0.89928806 -3.1008613 1.9534405
-0.89084303 -3.0974903 1.9534838
-0.89438361 -3.1024842 1.9580448
-0.89169782 -3.0984459 1.9441581
-0.87474138 -3.0969603 1.9514909
-0.88546431 -3.1066031 1.957284
-0.86606288 -3.1069016 1.9584883
-0.87743872 -3.0916405 1.9613621
-0.86667883 -3.1083338 1.9583596
-0.86590344 -3.093529 1.9589553
-0.85499161 -3.1054921 1.959522
-0.84093291 -3.1133351 1.9447253
-0.84682924 -3.1090455 1.9461941
-0.84816295 -3.1063988 1.9529546
-0.8433817 -3.1111259 1.962448
-0.83126605 -3.1109083 1.9635398
-0.83335561 -3.1156228 1.9455687
-0.83423913 -3.1160488 1.9440877
-0.81224728 -3.1100521 1.9471364
-0.81325638 -3.107619 1.9462069
-0.81366819 -3.1186147 1.9545256
-0.81351161 -3.119894 1.956206
-0.80815011 -3.1114137 1.9633747
-0.80131829 -3.1286128 1.9543829
-0.78772438 -3.1253777 1.9618506
-0.78463548 -3.1143761 1.9507167
-0.78045315 -3.1298146 1.9560428
-0.77424049 -3.1304891 1.9621112
-0.76950723 -3.1335254 1.9553387
-0.7817238 -3.1219263 1.9521556
-0.77486819 -3.1350963 1.9591269
-0.75969255 -3.1324682 1.945963
-0.76283497 -3.128839 1.9624176
-0.75880712 -3.1227398 1.9628049
-0.74376959 -3.1274102 1.9475529
-0.74126285 -3.1333566 1.9444222
-0.7498886 -3.1394873 1.9469665
-0.73318684 -3.1437733 1.949944
-0.73041511 -3.127696 1.9509864
-0.73441446 -3.1282063 1.9447231
-0.72159547 -3.1462338 1.9463791
-0.72180372 -3.1334598 1.9517461
-0.71517444 -3.1482038 1.9618193
-0.71208924 -3.1432974 1.9590625
-0.7086153 -3.147732 1.9527
-0.70039195 -3.1340401 1.9614495
-0.6952979 -3.1333559 1.9451208
-0.68765819 -3.1403527 1.9455522
-0.6970396 -3.1489625 1.9631011
-0.6853773 -3.1459577 1.9611739
-0.67997694 -3.1545215 1.9622471
-0.67291921 -3.1476822 1.9571161
-0.68049312 -3.1586041 1.9582566
-0.65799242 -3.1508324 1.945313
-0.65824729 -3.14398 1.948938
-0.66486335 -3.1532989 1.9472522
-0.66272861 -3.1619194 1.9472417
-0.65692127 -3.1472976 1.9612193
-0.6506812 -3.146456 1.9475658
-0.64689094 -3.1583519 1.9578897
-0.64502662 -3.1492491 1.9606164
-0.6220879 -3.157491 1.9511424
-0.62427896 -3.157711 1.9517009
-0.6253283 -3.1598356 1.9609789
-0.61931998 -3.1666219 1.9580511
-0.60968536 -3.1644323 1.9467403
-0.60173541 -3.1645169 1.9477382
-0.61379468 -3.1632051 1.9442813
-0.59187526 -3.1600652 1.9625833
-0.60360813 -3.157548 1.9499003
-0.58501589 -3.1575809 1.947225
-0.58369583 -3.1590908 1.9572064
-0.59184849 -3.1672087 1.9478602
-0.57944155 -3.160794 1.9572757
-0.57775545 -3.1727903 1.960785
-0.57899606 -3.1595728 1.947358
-0.57154632 -3.162827 1.9547139
-0.56309754 -3.1625638 1.9442433
-0.55810446 -3.1648052 1.9577682
-0.55480838 -3.1632049 1.9546593
-0.54419422 -3.1674392 1.9523606
-0.53625429 -3.1747811 1.9493889
-0.53833187 -3.1747043 1.9591299
-0.52975452 -3.166651 1.95611
-0.53176063 -3.1813428 1.9619118
-0.53025633 -3.1817074 1.9617434
-0.52217799 -3.1790559 1.9591264
-0.50674278 -3.1723902 1.9575723
-0.50177705 -3.1851673 1.9545703
-0.50328553 -3.179085 1.9539557
-0.50790179 -3.1868267 1.949888
-0.49481574 -3.1910672 1.9592534
-0.48470047 -3.1818254 1.949464
-0.48484322 -3.1884475 1.9484903
-0.48800495 -3.1815181 1.9535811
-0.48536381 -3.1775274 1.9590571
-0.48289025 -3.1899028 1.9479284
-0.46303275 -3.1912882 1.944203
-0.46472833 -3.1921544 1.9484318
-0.46942502 -3.1789765 1.9594682
-0.45473534 -3.1948631 1.9634819
-0.44411239 -3.1821129 1.9439677
-0.44412324 -3.1836982 1.9544016
-0.45392263 -3.1898773 1.9589138
-0.44469479 -3.1836705 1.9510494
-0.43037531 -3.199276 1.9478636
-0.43057889 -3.196862 1.9529839
-0.42191029 -3.1990459 1.957394
-0.41696626 -3.1873813 1.9616072
-0.42779249 -3.1848705 1.9596612
-0.4075816 -3.1921282 1.9624852
-0.40335616 -3.1932216 1.9587097
-0.39864415 -3.1987858 1.9539933
-0.40349734 -3.1986098 1.9437357
-0.40383762 -3.1936679 1.9603165
-0.39204139 -3.1988688 1.9619174
-0.38343024 -3.1887364 1.9465514
-0.38969806 -3.1943998 1.9496146
-0.37155494 -3.1995842 1.9449492
-0.36919793 -3.2000606 1.9633949
-0.36878616 -3.204793 1.9551773
-0.36554962 -3.2097673 1.9464543
-0.36608785 -3.1944981 1.9527489
-0.35134178 -3.2085512 1.9597949
-0.34685263 -3.2074144 1.9523522
-0.34578195 -3.1989522 1.9602715
-0.3431097 -3.2063503 1.9588798
-0.33580273 -3.2044885 1.9523754
-0.32543188 -3.2089567 1.9612309
-0.3197259 -3.1955416 1.9501477
-0.31557351 -3.2061894 1.9548641
-0.31963801 -3.198076 1.9551318
-0.3124249 -3.2149768 1.9511877
-0.31891653 -3.2016082 1.9537038
-0.29836157 -3.2082279 1.9578632
-0.30524871 -3.1982551 1.9509853
-0.30421588 -3.210089 1.9572035
-0.28457406 -3.1990952 1.9457713
-0.29143614 -3.2022109 1.9503527
-0.28944221 -3.2041016 1.9488244
-0.27853078 -3.2063212 1.9571176
-0.28290236 -3.2170877 1.953987
-0.26700586 -3.2051239 1.9544123
-0.27505276 -3.2041349 1.9486566
-0.2605831 -3.2070754 1.9567251
-0.26195353 -3.2013876 1.9552042
-0.25020128 -3.2191522 1.9622811
-0.25223038 -3.2017608 1.9607769
-0.24569111 -3.215718 1.956576
-0.23457003 -3.2121685 1.9508971
-0.22497672 -3.2221951 1.963405
-0.22708982 -3.2210815 1.9455466
-0.23233299 -3.2085602 1.9600459
-0.21715039 -3.208575 1.9559218
-0.20772313 -3.21861 1.9492385
-0.21022686 -3.2145059 1.9486182
-0.21425103 -3.2231402 1.9506019
-0.21119785 -3.2182953 1.9503396
-0.18964848 -3.2114027 1.9564761
-0.19229965 -3.2178817 1.9465121
-0.18062924 -3.21926 1.9468652
-0.17645058 -3.2072449 1.9486693
-0.17012994 -3.2249668 1.9633257
-0.16930957 -3.2120001 1.9582922
-0.17261307 -3.2141011 1.9635421
-0.16259943 -3.223201 1.9532086
-0.1532058 -3.2208204 1.9545465
-0.16182803 -3.219883 1.9610291
-0.15071233 -3.2218924 1.9546975
-0.15345979 -3.2110498 1.9621742
-0.1461709 -3.2130342 1.9485533
-0.13852863 -3.2153373 1.9472221
-0.12908204 -3.2158179 1.9484373
-0.12497868 -3.2199764 1.9628808
-0.12590858 -3.2119372 1.9554793
-0.12158827 -3.2183833 1.9592271
-0.10760131 -3.2199354 1.9455984
-0.11227623 -3.2146094 1.9531441
-0.11046828 -3.2226677 1.9589108
-0.094991624 -3.2179737 1.9557443
-0.092038035 -3.2104919 1.9508114
-0.10270514 -3.2198684 1.9437869
-0.094703265 -3.2242999 1.9564871
-0.085486032 -3.2291296 1.9452277
-0.081824988 -3.2193909 1.9622004
-0.08556544 -3.2298341 1.9529133
-0.065557867 -3.2107928 1.9622543
-0.059178799 -3.2209287 1.9570953
-0.065253884 -3.2137599 1.9440454
-0.065562107 -3.2156172 1.9558506
-0.049036741 -3.2190244 1.9552928
-0.057444159 -3.217602 1.9455069
-0.052875981 -3.2126818 1.951432
-0.035607476 -3.223048 1.9526634
-0.029598182 -3.2142572 1.9437634
-0.026616151 -3.2137113 1.9445436
-0.032921162 -3.2176623 1.9444823
-0.029885065 -3.2197387 1.9543959
-0.012007981 -3.212395 1.9515829
-0.0071807038 -3.2298644 1.9470109
-0.010548174 -3.2153134 1.9591236
0.0055265701 -3.213675 1.9527444
-0.0081845438 -3.2119737 1.9513648
0.0040294211 -3.2175093 1.9596921
0.017474893 -3.2215409 1.9568768
0.022020258 -3.2270961 1.9546679
0.027345803 -3.2234621 1.9485624
0.032610103 -3.2212975 1.9604282
0.027787913 -3.2257617 1.9596795
0.040152784 -3.2299044 1.9614965
0.027945554 -3.2219205 1.9578935
0.047851041 -3.2223678 1.9559516
0.041377153 -3.2210319 1.9557273
0.053523667 -3.2119882 1.9499776
0.053997371 -3.214005 1.9602
0.051655717 -3.2159824 1.9448646
0.067105129 -3.21714 1.9531544
0.076448873 -3.2175393 1.9635937
0.077658363 -3.2272668 1.9495474
0.078118905 -3.2291353 1.9513305
0.080396384 -3.2277169 1.9610637
0.079070725 -3.2108986 1.9503093
0.095802993 -3.2250602 1.960844
0.092310868 -3.2115808 1.9603695
0.10306888 -3.2221332 1.9578191
0.10404906 -3.2195327 1.9532259
0.10969366 -3.2259884 1.947403
0.10362794 -3.2276053 1.9611026
0.10800128 -3.2125182 1.9449904
0.11832806 -3.2214756 1.9469191
0.13043784 -3.2126603 1.9501691
0.1322805 -3.2096753 1.950134
0.14336851 -3.214463 1.9558278
0.14499098 -3.227247 1.9548852
0.14613871 -3.2137775 1.9632679
0.14473575 -3.2238319 1.9541225
0.15873924 -3.2127457 1.9583868
0.16691962 -3.2122288 1.9608929
8.6707077 2.9621539 0.10359523
8.6659422 2.9876349 0.1043003
8.6464672 2.9936032 0.10068089
8.4713964 2.9502859 0.14941123
8.4638586 2.9593198 0.1507241
8.4530325 2.9827754 0.16447049
8.4552517 2.9821234 0.15001877
8.4520388 3.0005054 0.16449362
8.4452448 3.0227072 0.14679633
8.2538157 2.9665601 0.21007672
8.2689228 2.9737022 0.20601504
8.2647181 2.9855213 0.2158467
8.2568789 2.987236 0.21384524
8.2394381 3.0122917 0.21889201
8.2395535 3.0139248 0.22116654
8.062088 2.9631913 0.27583885
8.0573225 2.9842458 0.2773219
8.0580902 2.9862516 0.28539824
8.0533171 3.0056446 0.28389353
8.0508318 3.0172276 0.27863455
8.0308676 3.0280411 0.26899692
7.8485041 2.9716232 0.34040579
7.8543725 2.9784396 0.34127766
7.8382249 2.9919868 0.33570185
7.8471084 2.9898379 0.34026167
7.8382511 3.0133059 0.32826713
7.8433084 3.0161371 0.34609094
7.6520801 2.9552214 0.39543295
7.6467619 2.9821024 0.39220068
7.6399245 2.9906726 0.38933286
7.6478133 3.0034695 0.40606576
7.64605 2.9964318 0.40234083
7.6349378 3.0193913 0.39448005
7.6246824 3.0303459 0.38922009
7.4517622 2.9639504 0.45161325
7.4405599 2.9830167 0.46579719
7.4373484 2.9913299 0.45188352
7.4319463 2.9903727 0.45478961
7.4351292 3.0082211 0.45390761
7.4350653 3.0233712 0.45093247
7.4121189 3.0305634 0.45009699
7.2495136 2.9680402 0.51231474
7.2396474 2.9704616 0.5261035
7.2419062 2.9868259 0.52020699
7.2388911 2.9915574 0.52767342
7.2175126 3.0092154 0.52382529
7.2303038 3.0078061 0.51791507
7.2091675 3.0251527 0.5206781
7.2109227 3.0298548 0.51092631
7.0362215 2.9645948 0.5867092
7.0341954 2.9744308 0.5785898
7.0313201 3.002255 0.58972108
7.0299067 3.0043428 0.5731799
7.0222683 3.0128334 0.58291495
7.0087194 3.0224664 0.58729905
7.0026236 3.034893 0.57926488
6.8378372 2.9684994 0.64049321
6.8220615 2.9807227 0.64826077
6.8290358 2.9789159 0.65067172
6.8062453 3.0021968 0.63185507
6.8184814 3.0075905 0.63307232
6.8025851 3.0142612 0.6323176
6.7978067 3.0236843 0.64386028
6.796474 3.0296483 0.6341089
6.804863 3.046257 0.64421201
6.6237602 2.9829881 0.69771135
6.608582 2.9917278 0.71010506
6.6138763 2.9888203 0.7052052
6.6069255 2.9970284 0.70898724
6.6023731 3.0066004 0.70654488
6.5989909 3.0125768 0.69999647
6.5968132 3.0268381 0.71062505
6.5938678 3.0405154 0.7011888
6.5824523 3.0570676 0.70823455
6.4084039 2.9860628 0.76315534
6.3974266 2.9919777 0.76258296
6.5718379 3.067502 0.70078617
6.5658731 3.0920639 0.7076084
6.554996 3.0938387 0.69342881
6.5478883 3.0952377 0.69961709
6.5583253 3.1174443 0.70258337
6.5422015 3.1216753 0.71061838
6.5366931 3.1271765 0.70314407
6.5417361 3.1454902 0.70304132
6.5338116 3.1468649 0.70292598
6.5400529 3.1614041 0.69979805
6.5257092 3.1618643 0.70262337
6.5302987 3.1806393 0.70085347
6.5216975 3.1928291 0.71170759
6.5189037 3.2022161 0.69481581
6.502286 3.2063575 0.71099168
6.5086217 3.2187049 0.70226586
6.5029798 3.2298872 0.70991433
6.489851 3.2304678 0.70675582
6.4966068 3.2474926 0.69585764
6.4832344 3.2551396 0.71039003
6.4867215 3.2528369 0.69628036
6.4730215 3.2595298 0.69184959
6.4775386 3.2820406 0.71051866
6.4728975 3.2861898 0.70949078
6.4713521 3.2981656 0.70352662
6.46597 3.3009343 0.70083863
6.4518495 3.3025308 0.70026761
6.4453645 3.3154809 0.71121836
6.435709 3.3196816 0.71014124
6.4351425 3.3350177 0.70766497
6.4290957 3.3383613 0.69384587
6.4289269 3.3525376 0.69768602
6.424315 3.3557765 0.69500971
6.4183593 3.3789327 0.70746166
6.4113636 3.3851137 0.70287484
6.4183908 3.3904958 0.69204855
6.4027181 3.406353 0.69381696
6.4064612 3.4003339 0.69954008
6.5692673 3.4989712 0.63973248
6.5627341 3.5122187 0.64702117
6.5537119 3.5240653 0.64867747
6.550858 3.5404012 0.6355406
6.5518312 3.5367956 0.63667995
6.5501156 3.5519178 0.63201892
6.5408387 3.5647397 0.64458919
6.5269628 3.5692971 0.63359833
6.5222478 3.5829022 0.64952809
6.5192881 3.5849836 0.65050864
6.5220389 3.6064923 0.63151169
6.5057125 3.6063514 0.63661081
6.5166616 3.6220839 0.64441192
6.5092545 3.6198714 0.63941121
6.488698 3.6435537 0.64167416
6.4892678 3.6504545 0.64993531
6.4851642 3.6530259 0.64190125
6.4736185 3.6666806 0.64931458
6.4710689 3.6805928 0.64122963
6.4644365 3.6765306 0.64613003
6.4587722 3.6802173 0.64344996
6.4540987 3.6925876 0.6315465
6.4545112 3.7009304 0.64630055
6.4427123 3.7069018 0.64977378
6.4459004 3.7173648 0.64786822
6.4313388 3.733459 0.64380938
6.4450259 3.7505233 0.63327485
6.4306664 3.7611279 0.64735532
6.4237075 3.7542818 0.64631516
6.4286513 3.7659149 0.63218731
6.4184828 3.7770078 0.63272756
6.405622 3.7885635 0.6366269
6.5647955 3.902792 0.5791223
6.5546246 3.9135013 0.57933474
6.547914 3.9125724 0.58102053
6.5592852 3.9222686 0.58981818
6.5465851 3.9308507 0.58670491
6.5433373 3.930285 0.58522826
6.5341573 3.9479845 0.5879451
6.5239244 3.9558644 0.57334173
6.5195508 3.9588251 0.58088535
6.5157051 3.9741864 0.57104594
6.5157456 3.9900448 0.58939272
6.499012 4.0011544 0.58929604
6.5024776 4.0109887 0.57912552
6.4876165 4.0176415 0.5895136
6.4815407 4.0170546 0.57935411
6.4923387 4.038693 0.57950658
6.4816475 4.0366368 0.58824408
6.4736605 4.0498471 0.5757547
6.4710574 4.0641947 0.5771268
6.4559855 4.0602207 0.58476877
6.4510612 4.0818238 0.57918549
6.4444718 4.0922422 0.57563591
6.4377728 4.0916882 0.57285219
6.4408908 4.1018481 0.58766109
6.4343843 4.1115189 0.5728302
6.4377055 4.1175876 0.57059294
6.4211674 4.1385775 0.57726288
6.4133534 4.1372051 0.58811367
6.4130383 4.1388679 0.58429098
6.5739675 4.2547765 0.52673817
6.5624962 4.2679791 0.52252573
6.5454292 4.2802672 0.51973426
6.5447993 4.2915435 0.52739948
6.5413737 4.2916384 0.5162428
6.5327435 4.3109393 0.52578336
6.5292702 4.3192868 0.51242703
6.5235467 4.3168335 0.51110291
6.5244803 4.3323164 0.5194571
6.5162525 4.3332472 0.52053225
6.504189 4.3609967 0.52491462
6.4953027 4.3632078 0.51335102
6.5021911 4.3742967 0.52493519
6.4862752 4.3707137 0.51866406
6.4780126 4.3896756 0.52336407
6.47858 4.4059906 0.51824981
6.4686756 4.4048285 0.51237625
6.4654026 4.4239516 0.51495087
6.4607925 4.4300303 0.52391881
6.4445243 4.4339147 0.52473557
6.4493184 4.4317822 0.52422899
6.4384823 4.4468226 0.51686865
6.4360704 4.454824 0.51154095
6.42523 4.4729939 0.51358283
6.4281058 4.4689984 0.52554727
6.4156694 4.4916801 0.52479631
6.5541234 4.5999827 0.45311859
6.5505209 4.6219625 0.45229301
6.5494809 4.6254792 0.46854091
6.5373955 4.6388874 0.45967683
6.5461144 4.6432629 0.45969272
6.5343142 4.6429868 0.46577013
6.5151405 4.6664963 0.45087826
6.5106268 4.6653752 0.46519482
6.508142 4.6733527 0.46656272
6.4976091 4.6951289 0.46166816
6.5063124 4.7055888 0.46673805
6.4840679 4.6988592 0.46464276
6.4809852 4.717515 0.45692867
6.4741383 4.7305241 0.45349637
6.4784141 4.7387028 0.46532154
6.4626932 4.7415447 0.4677622
6.4530373 4.751689 0.4646129
6.4484773 4.7638092 0.45125219
6.4382205 4.7599459 0.45678765
6.4293199 4.7720642 0.45502675
6.4355116 4.7794127 0.45466274
6.4267612 4.7910571 0.45851532
6.4159026 4.8061705 0.45197874
6.5697417 4.9353576 0.38867274
6.5475521 4.9412546 0.4052614
6.5571747 4.9380212 0.39567462
6.5492253 4.9517341 0.40722442
6.5381141 4.9675016 0.40189525
-2.8320098 -4.5032668 1.3071208
-2.8216782 -4.5007272 1.3123904
-2.8318985 -4.5026698 1.3078734
-2.817385 -4.521666 1.3147165
-2.8055336 -4.5097165 1.3176892
-2.799901 -4.5209255 1.3040533
-2.7946818 -4.5307584 1.3037612
-2.7970612 -4.5320644 1.3021102
-2.7931893 -4.5366516 1.3170947
-2.7898715 -4.5317769 1.3138418
-2.7638552 -4.5408254 1.3030847
-2.7695856 -4.5458364 1.3188375
-2.7700412 -4.5473676 1.3166091
-2.7550082 -4.5606904 1.2993375
-2.7531269 -4.5484729 1.3179592
-2.7482674 -4.5569396 1.3093075
-2.7370386 -4.5665088 1.3147489
-2.7260964 -4.5647845 1.3028017
-2.7167997 -4.5655217 1.3101761
-1.8362491 -3.0950675 1.8530076
-1.8372695 -3.0979302 1.863999
-1.8290434 -3.1128752 1.8538616
-1.825061 -3.1146333 1.8460661
-1.8233032 -3.1077211 1.8488119
-1.8188136 -3.1052959 1.8476305
-1.8156986 -3.1243846 1.861829
-1.8012319 -3.1186235 1.850296
-1.8013202 -3.1283042 1.8643156
-1.793352 -3.1350782 1.8614181
-1.7980061 -3.1239607 1.8585743
-1.7865077 -3.1382048 1.8554475
-1.7840145 -3.1285675 1.8599496
-1.7916553 -3.1392956 1.8652612
-1.7870879 -3.132618 1.8600466
-1.7797713 -3.1458058 1.8598127
-1.7736328 -3.1402378 1.8630395
-1.7732921 -3.1445656 1.8545707
-1.7644809 -3.1533477 1.8589584
-1.7616467 -3.1585312 1.8591032
-1.7617067 -3.1527417 1.8528904
-1.744607 -3.1598306 1.8549526
-1.6583445 -2.9820921 1.9099073
-1.6400955 -3.0029633 1.9158981
-1.6365316 -3.0036547 1.911067
-1.6381791 -3.0014205 1.9155424
-1.6400572 -2.997442 1.9080739
-1.6387054 -2.9975207 1.9187597
-1.6258192 -3.0131896 1.9231395
-1.6285421 -3.0104289 1.9248055
-1.6111171 -3.0121365 1.9147246
-1.6199017 -3.0211558 1.9200124
-1.6066209 -3.0206139 1.9187757
-1.5991247 -3.0260086 1.9189839
-1.6056347 -3.012028 1.9208114
-1.5969725 -3.0238872 1.9071778
-1.5838319 -3.0218196 1.9198216
-1.5781566 -3.0225985 1.9146796
-1.5817924 -3.034693 1.9161561
-1.5810453 -3.0337152 1.9226742
-1.578629 -3.0395203 1.9097601
-1.5662906 -3.0383213 1.9100962
-1.5686615 -3.0280557 1.9132377
-1.5722659 -3.0345116 1.9132423
-1.5556589 -3.0316978 1.9094791
-1.5572214 -3.0444458 1.9161028
-1.5524144 -3.0482798 1.9070338
-1.5549607 -3.0506687 1.91942
-1.5426458 -3.0409265 1.9219397
-1.5288516 -3.0546734 1.9076595
-1.5285362 -3.0502434 1.9097905
-1.5211318 -3.0577173 1.9153309
-1.5333884 -3.0518076 1.9133413
-1.5225005 -3.0537508 1.9070942
-1.511605 -3.0633385 1.9258535
-1.5044698 -3.0587437 1.9140515
