# .PCD v0.7 - Point Cloud Data file format
VERSION 0.7
FIELDS x y z
SIZE 4 4 4
TYPE F F F
COUNT 1 1 1
WIDTH 1555
HEIGHT 1
VIEWPOINT 0 0 0 1 0 0 0
POINTS 1555
DATA ascii
0.24002632 4.061389 1.3074408
0.23911314 4.0596695 1.3189398
0.24252357 4.0530381 1.3082857
0.22277616 4.0651283 1.3147861
0.2317985 4.0545611 1.3124567
0.21018521 4.063097 1.3126444
0.20701298 4.0546222 1.3027241
0.20450306 4.0619116 1.3209397
0.20566264 4.0546446 1.319888
0.20517552 4.0673819 1.3112198
0.19960518 4.0695891 1.3205949
0.17976615 4.0565324 1.3079219
0.1714257 4.0725369 1.3082968
0.17243087 4.0744448 1.3204495
0.1599361 4.0710258 1.3017298
0.16511169 4.0716457 1.3112495
0.15047453 4.0747447 1.312005
0.14591694 4.0609865 1.3197693
0.13957459 4.0740409 1.3199935
0.1321803 4.0722609 1.3126895
0.13611759 4.0705643 1.3073354
0.12942967 4.0746822 1.3086754
0.13006859 4.0761142 1.3057783
0.1110821 4.0642056 1.3045553
0.10424807 4.0654573 1.319688
-5.0713015 3.3680518 0.454983
-5.0708752 3.3538339 0.45279053
-5.0869431 3.3569903 0.46366528
-5.0908761 3.3534925 0.46669817
-5.0955572 3.3408298 0.46006259
-5.0897179 3.3283498 0.45992473
-5.1047182 3.3301382 0.46031114
-5.1097012 3.3088758 0.4603959
-5.0996742 3.3139079 0.45520565
-5.11268 3.3053627 0.46075776
-5.1121507 3.2872863 0.45327479
-5.1141753 3.2943099 0.45867041
-5.1183825 3.2899289 0.45432553
-5.1317048 3.2662687 0.45359248
-5.1419845 3.2625721 0.46731308
-5.1388893 3.2493484 0.4556762
-4.9797382 3.1475301 0.53015614
-4.9962378 3.1437798 0.53330994
-4.9926429 3.134661 0.54863787
-4.9942284 3.1371305 0.54256892
-5.0102515 3.1247141 0.54557842
-5.0137486 3.1148477 0.54277277
-5.0118399 3.1053383 0.54275382
-5.014266 3.1070611 0.54624891
-5.017416 3.103049 0.53322756
-5.026835 3.0866663 0.53416926
-5.0278811 3.0777752 0.53870445
-5.0316372 3.0767624 0.54647052
-5.0322289 3.0637121 0.53210491
-5.0374832 3.0534346 0.54720247
-5.0487967 3.0514815 0.53688318
-5.0570908 3.0503705 0.54370284
-5.0481806 3.0354965 0.54802489
-4.9008088 2.9480309 0.61828667
-4.9082708 2.9364305 0.61436087
-4.9087448 2.9197104 0.62108219
-4.908267 2.9262335 0.62594819
-4.923245 2.9132807 0.61684287
-4.9304471 2.904006 0.6217351
-4.9320054 2.8937373 0.62340331
-4.9384561 2.8964055 0.61017829
-4.9352169 2.8750203 0.62290758
-4.9451485 2.8867757 0.60783452
-4.950748 2.8716533 0.60685748
-4.9432755 2.873148 0.62114191
-4.9597187 2.8582382 0.62557375
-4.9494314 2.8478658 0.62340206
-4.954268 2.8465662 0.61515665
-4.9682007 2.8421054 0.6245212
-4.957231 2.8201175 0.61050725
-4.9645839 2.8157003 0.62605739
-4.9651518 2.8185346 0.60712379
-4.8120594 2.7251923 0.68405211
-4.8148255 2.7007155 0.69557148
-4.8185596 2.7076945 0.69550371
-4.8280001 2.7022038 0.68745011
-4.8329988 2.6909645 0.69595361
-4.8401599 2.6788428 0.69009238
-4.835557 2.676733 0.68671066
-4.8415799 2.6695278 0.68828708
-4.8416076 2.6588953 0.69239783
-4.8460755 2.6516101 0.68629974
-4.8494678 2.6404021 0.68406934
-4.8531213 2.650198 0.68410516
-4.8652458 2.6400208 0.69786841
-4.8574286 2.6241548 0.69289458
-4.877656 2.627032 0.70344025
-4.86937 2.6064808 0.68862814
-4.8669353 2.6142557 0.6984756
-4.8878732 2.5997212 0.68789238
-4.8872252 2.5888634 0.69345617
-4.8824568 2.5972326 0.69851983
-4.8837771 2.5858951 0.69916546
-4.7238202 2.489089 0.77360129
-4.7271967 2.4895442 0.767461
-4.7368007 2.4814734 0.77226019
-4.751369 2.4768236 0.76674706
-4.7353826 2.4640977 0.76749831
-4.754199 2.4574347 0.7628451
-4.7431588 2.4534531 0.7704832
-4.7626925 2.4337289 0.77409434
-4.7566528 2.4423735 0.77291054
-4.7655406 2.4332883 0.76723003
-4.7737732 2.424243 0.77708042
-4.76476 2.4152737 0.77400833
-4.7818775 2.4001431 0.76949304
-4.7741866 2.3938782 0.76695985
-4.7719994 2.3870239 0.77833772
-4.789052 2.3847685 0.76969439
-4.7907481 2.3769593 0.7637158
-4.7847967 2.3730133 0.76466453
-4.7952251 2.3784943 0.78091371
-4.786828 2.3584657 0.77473837
-4.8041019 2.3535733 0.76618326
-4.8115158 2.341054 0.77532881
-4.8019929 2.3347673 0.7760188
-4.6508169 2.2593148 0.85432237
-4.6482115 2.2498107 0.85525674
-4.6542192 2.2465765 0.84062445
-4.6488614 2.2449596 0.84487659
-4.6494727 2.2325974 0.85188079
-4.6491265 2.2131014 0.8510685
-4.6525221 2.2252879 0.85693502
-4.6620836 2.2034764 0.84462112
-4.6601911 2.1975172 0.84650433
-4.6691442 2.2043381 0.84882176
-4.6773982 2.1994238 0.84260976
-4.6845384 2.1802416 0.85339159
-4.6707349 2.1781688 0.84744173
-4.691555 2.1645622 0.84638155
-4.6881137 2.1734438 0.83947027
-4.697659 2.1657617 0.83957851
-4.6880074 2.1577652 0.85839301
-4.6924801 2.1432791 0.8419199
-4.6892576 2.1337483 0.84601581
-4.704143 2.1383183 0.84346521
-4.6967015 2.1176791 0.84253734
-4.7154627 2.1129353 0.84896821
-4.703433 2.105021 0.8398717
-4.7173438 2.0993042 0.84371835
-4.712306 2.1000369 0.84300011
-4.5453138 2.0198731 0.91835696
-4.5469565 2.0069368 0.93508035
-4.5497761 2.0125086 0.92388403
-4.5490599 2.0042746 0.92972738
-4.5642385 1.984118 0.92671543
-4.5619593 1.9943563 0.92964315
-4.5605989 1.9887774 0.93440992
-4.5727987 1.9781634 0.91784942
-4.5740857 1.9565643 0.92216313
-4.5715175 1.9629198 0.93380469
-4.5696588 1.9503189 0.9262318
-4.569633 1.9388696 0.93208992
-4.5728755 1.9473866 0.92989123
-4.5873046 1.9393967 0.9258337
-4.5958819 1.918996 0.92799878
-4.5874619 1.9236336 0.92678523
-4.5961056 1.9123819 0.92637974
-4.5999732 1.9116716 0.9217509
-4.6003923 1.8924065 0.92191744
-4.596489 1.8984329 0.93483794
-4.600935 1.8890327 0.92155963
-4.6129451 1.8823637 0.92323804
-4.5990877 1.8751491 0.9198432
-4.6074204 1.8761928 0.93487191
-4.619801 1.871338 0.9159171
-4.6100082 1.8575729 0.92802083
-4.6214194 1.8578252 0.93529761
-4.6132274 1.8368616 0.92829257
-4.4580221 1.7704283 1.0056536
-4.4541798 1.7584654 0.99827766
-4.4574084 1.7646817 1.0079411
-4.4539065 1.7415042 0.99737865
-4.4687176 1.7547909 1.0060484
-4.4669151 1.7423433 1.0022123
-4.4700747 1.740104 0.99997544
-4.4721804 1.7302377 1.0104312
-4.4621739 1.7115313 1.0076004
-4.4648819 1.723579 1.010271
-4.474586 1.7017521 1.0006701
-4.4841194 1.7062172 1.0053385
-4.4810205 1.6898948 1.002459
-4.4882488 1.6795065 1.0026411
-4.4860311 1.6767309 1.0023525
-4.4951348 1.6781729 0.99586207
-4.4880657 1.6788615 0.99338162
-4.4832249 1.6598417 1.0072876
-4.4879193 1.6532173 1.008743
-4.4954357 1.6462651 1.0085056
-4.5002732 1.6519802 1.0127038
-4.4947028 1.6305243 1.0076331
-4.5044546 1.6345214 1.0125091
-4.4970775 1.6336352 0.99326944
-4.5095096 1.6173031 0.99752992
-4.5022211 1.6141951 1.0095115
-4.5214148 1.6004748 1.008464
-4.5230794 1.5939056 0.99468213
-4.5108299 1.5849431 1.0005647
-4.5171156 1.5907564 1.0057871
-4.5236301 1.5740165 1.0030198
-4.5259376 1.585122 1.0050948
-4.5333071 1.5687417 0.99746847
-4.5357914 1.561996 0.99526072
-4.5375066 1.5650671 1.0030288
-4.5349526 1.5576661 0.9939996
-4.5404081 1.5533029 0.99756438
-4.5469027 1.5294969 1.000877
-4.5471697 1.5401541 1.0015476
-4.5415454 1.5267302 0.99435484
-4.5506897 1.5089874 0.99674869
-4.542593 1.5111243 0.99657756
-4.552412 1.5080699 1.0063589
-4.5498481 1.5047003 0.99572998
-4.5494838 1.501776 0.99451083
-4.5613422 1.4835572 1.0122324
-4.5622206 1.4820257 1.0119354
-4.5595255 1.4761339 0.99418014
-4.5535092 1.4721 0.99343276
-4.566813 1.4558067 1.005615
-4.5673008 1.4524764 1.0064112
-4.5653858 1.4393415 0.99570358
-4.7397242 1.4935423 0.9311049
-4.7482581 1.4970765 0.92670113
-4.7474113 1.4830471 0.92574131
-4.7477746 1.4792223 0.93293393
-4.7504072 1.4765729 0.92496908
-4.7533269 1.4586636 0.91748929
-4.753993 1.4488071 0.9323554
-4.7553973 1.447674 0.91731071
-4.7646098 1.4480716 0.9253211
-4.7530169 1.4323937 0.92658496
-4.7721224 1.4204693 0.93337566
-4.7586179 1.4220794 0.93034029
-4.7695079 1.4265954 0.91991824
-4.7613482 1.4127983 0.93231678
-4.7659869 1.3984094 0.92871428
-4.7785811 1.4031317 0.93385363
-4.7786455 1.3892102 0.91579056
-4.7838349 1.3758974 0.92325127
-4.7840595 1.3753756 0.91776925
-4.7762642 1.3684409 0.92327178
-4.7871957 1.3643858 0.92351508
-4.9689569 1.4056896 0.85483742
-4.9561844 1.4079429 0.85454571
-4.9738235 1.4003125 0.84713036
-4.9790545 1.3899913 0.85200226
-4.9678788 1.3690141 0.84827554
-4.9715533 1.3699014 0.85730898
-4.9732819 1.3675194 0.83971393
-4.9675393 1.3668231 0.84828407
-4.9872694 1.3558233 0.85660923
-4.9814873 1.3357835 0.84757161
-4.9754524 1.3334947 0.85665399
-4.980886 1.3259213 0.85493523
-4.9866014 1.3226414 0.85253447
-4.9797225 1.3160535 0.84676355
-4.9879618 1.3025551 0.84696925
-4.9999185 1.3072857 0.85501873
-5.0028315 1.2921821 0.84764516
-5.0033302 1.284705 0.84653705
-4.9952488 1.2793726 0.84139341
-5.1777229 1.3268369 0.76597786
-5.1703978 1.3167921 0.7724421
-5.1739793 1.3031594 0.77830517
-5.1792703 1.3056467 0.76786304
-5.1869512 1.2968388 0.77781028
-5.1803932 1.2816077 0.76123905
-5.1936197 1.2762268 0.77638066
-5.1987863 1.2697293 0.76340353
-5.1913161 1.2645203 0.7699368
-5.1849442 1.2491698 0.77812749
-5.2037058 1.2520032 0.77562523
-5.2006736 1.2439829 0.7703228
-5.1911669 1.2341911 0.77863473
-5.195787 1.220909 0.77668369
-5.2108388 1.2217362 0.77317697
-5.1959333 1.2109015 0.76169389
-5.1975894 1.2086108 0.77208698
-5.3840051 1.2438046 0.68604308
-5.3835325 1.2270758 0.69925141
-5.3965168 1.2184588 0.68437392
-5.4012995 1.2128097 0.69959676
-5.3885741 1.2119124 0.69406861
-5.4011407 1.202231 0.68602043
-5.4053845 1.1896286 0.69196445
-5.3915691 1.1836631 0.68601203
-5.4012499 1.1742818 0.69650388
-5.4024029 1.1649135 0.69198614
-5.4131522 1.1706997 0.68905461
-5.4127359 1.1586634 0.69693142
-5.3991008 1.1553378 0.70373058
-5.4003325 1.1289138 0.69242263
-5.4063311 1.1368889 0.68776143
-5.4178467 1.1139607 0.7009654
-5.5981808 1.1453035 0.6119166
-5.5918307 1.1349894 0.62165272
-5.5914226 1.1366261 0.60956091
-5.6005116 1.1387308 0.61565644
-5.5941072 1.1116964 0.61509615
-5.6106238 1.1066782 0.61005974
-5.5992522 1.0968847 0.6092602
-5.6010709 1.1074383 0.60960126
-5.6141863 1.0935619 0.62548417
-5.6119518 1.0897274 0.62600803
-5.6165028 1.0678866 0.60858369
-5.6128922 1.0739834 0.60867101
-5.6195345 1.0620657 0.61822313
-5.618258 1.0426251 0.61770999
-5.6108747 1.051144 0.6179949
-5.8055534 1.077759 0.54389703
-5.803791 1.0639572 0.5450415
-5.8028164 1.0498592 0.54457843
-5.8014898 1.0441571 0.53807998
-5.8042688 1.04219 0.53558999
-5.8065128 1.0371614 0.53910446
-5.80617 1.017222 0.53656304
-5.805728 1.0121078 0.52995312
-5.8157229 1.0097272 0.53175396
-5.8062196 0.99617565 0.52992702
-5.8164196 0.99089283 0.54950231
-5.8235073 0.98884231 0.54338652
-5.8094392 0.96922469 0.5312857
-5.9979057 1.0021493 0.46439859
-5.9908175 0.9837082 0.46086031
-6.0062079 0.98444778 0.46041247
-5.9980721 0.96694368 0.46814618
-6.012466 0.95128328 0.45888865
-6.0134583 0.94701862 0.45537531
-6.0126376 0.93363672 0.46643716
-6.0136323 0.93142247 0.46034485
-6.0150399 0.92347705 0.46033266
-6.0025516 0.91094512 0.46883535
-6.0021524 0.91336352 0.46862867
-6.0114293 0.90423387 0.45837134
-6.0242329 0.90106618 0.45724595
-6.2000656 0.91383362 0.38981152
-6.2055964 0.90682238 0.39231202
-6.2003727 0.90013629 0.37894586
-6.1986504 0.87557614 0.38059762
-6.2058539 0.87131494 0.3884367
-6.1991377 0.8669281 0.37673381
-6.2124219 0.85629982 0.3809042
-6.1971908 0.84732926 0.3759
-6.2021546 0.83032858 0.39017484
-6.2173634 0.82175946 0.38969243
-6.2136855 0.82117409 0.38393095
-6.2202306 0.81630617 0.37982714
-6.3872738 0.82129401 0.30050865
-6.4046931 0.82557714 0.30250147
-6.4004478 0.80386877 0.30890715
-6.4083514 0.81007653 0.29960164
-6.4079452 0.78418833 0.30834523
-6.4033561 0.77470678 0.31679729
-6.4037585 0.78142536 0.31692928
-6.4098735 0.77408659 0.3171744
-6.3964586 0.75156522 0.30551806
-6.408793 0.743626 0.31767923
-6.4052181 0.73276937 0.30011949
-6.5870986 0.74621171 0.23858783
-6.5836544 0.74418384 0.22149265
-6.593791 0.7353633 0.2395525
-6.5932207 0.72804725 0.24067293
-6.6038938 0.70640606 0.22126219
-6.5861015 0.70543557 0.23752183
-6.5881648 0.69941062 0.23539607
-6.5899701 0.68784881 0.23970374
-6.6034188 0.68498868 0.22502844
-6.6046934 0.66672647 0.22845425
-6.7871327 0.66896343 0.15649989
-6.7902989 0.65739489 0.1489334
-6.7905469 0.65670341 0.16176435
-6.7927217 0.65758359 0.15649863
-6.7937632 0.64877903 0.15881251
-6.7942019 0.63874173 0.14937803
-6.798368 0.62760371 0.1631421
-6.784646 0.61561018 0.15456918
-6.7866035 0.59110481 0.15236229
-6.7832232 0.5862487 0.16112065
4.0721636 2.925025 0.9579401
4.0515456 2.9366968 0.96513003
4.0564194 2.9325161 0.95458716
4.0488009 2.9568315 0.96529424
4.0488839 2.9521406 0.9638716
4.0432544 2.9553723 0.95296997
4.0424027 2.9600494 0.96693975
4.0447249 2.9756668 0.95345086
4.0325141 2.9744794 0.95810974
4.0209999 2.9721649 0.970388
4.0201244 2.9952779 0.9555164
4.021821 2.9818478 0.96665817
4.0106997 2.9973748 0.96796656
4.009028 3.0093737 0.96794343
3.9980552 3.0055544 0.95758826
4.005652 3.0202122 0.96482921
4.0023394 3.0181322 0.97111762
3.9929891 3.0224969 0.9673993
3.9901419 3.0387805 0.95687562
3.991946 3.0276878 0.95842487
3.9860203 3.0398655 0.95748061
3.9852154 3.0378931 0.9575054
3.8287644 2.9362555 1.0433108
3.8205516 2.9496155 1.0396773
3.8123085 2.9561799 1.0466412
3.8137026 2.9545259 1.0426853
3.8023303 2.9537523 1.0310777
3.7972391 2.9678285 1.038269
3.8084221 2.9632657 1.0361842
3.7890739 2.9847229 1.0374525
3.7912679 2.984478 1.0453503
3.79251 2.9876597 1.0457336
3.7937696 2.9854097 1.0316483
3.7849784 2.9990363 1.0455974
3.7725463 3.0085163 1.0407912
3.767071 3.0034947 1.0290171
3.7776322 3.0112123 1.0311608
3.7565787 3.0179577 1.0420784
3.7627091 3.0200124 1.0431361
3.7467475 3.0268528 1.0403601
3.7520468 3.0400279 1.0320539
3.7452366 3.0385938 1.0416501
3.7388024 3.0425751 1.0437224
3.7382758 3.0419283 1.0341536
3.7316909 3.05302 1.0288029
3.7202923 3.0628142 1.0331744
3.5741906 2.949795 1.115862
3.5733118 2.9572752 1.1042017
3.5833433 2.9550858 1.1093575
3.5744257 2.9611418 1.1161209
3.5627251 2.976712 1.1108327
3.5627115 2.9696939 1.1188895
3.5522869 2.9804707 1.1057123
3.5639279 2.9749572 1.1066793
3.5459933 2.9871025 1.1135348
3.5427008 2.9921002 1.1049873
3.5437732 2.9981766 1.1157889
3.5316772 3.0074751 1.109085
3.5279145 3.0109131 1.1152114
3.5293005 3.0095489 1.1224195
3.5174429 3.0206058 1.1202291
3.5202906 3.0157781 1.1060576
3.5111878 3.0246615 1.1177058
3.5089014 3.0293286 1.1188893
3.5075748 3.0402107 1.1072725
3.513097 3.0519569 1.115714
3.4900649 3.0489388 1.1052977
3.4978278 3.0579951 1.1192518
3.4988799 3.0474656 1.1117219
3.4860513 3.0625062 1.1179111
3.4804244 3.06988 1.1102469
3.4726002 3.0642991 1.1128502
3.470598 3.0738201 1.1194381
3.3218474 2.9624031 1.181649
3.3328347 2.9565473 1.1940062
3.3321989 2.9604392 1.1932285
3.319998 2.9655309 1.1845573
3.3173745 2.9826241 1.1800733
3.3086987 2.9850152 1.1801963
3.3124864 2.9788299 1.1905025
3.3024571 2.991277 1.1833313
3.3047569 3.0001659 1.1857334
3.2896538 2.9913249 1.1928172
3.281132 2.9964025 1.1865131
3.2789662 3.0165818 1.1897187
3.289151 3.0202465 1.1921874
3.2785518 3.0158374 1.195125
3.2792752 3.0329387 1.1905386
3.2755079 3.0255044 1.1837318
3.2718575 3.0260043 1.1861342
3.258507 3.040628 1.196384
3.2579787 3.0417111 1.1909286
3.2598464 3.051857 1.192044
3.2487917 3.0576532 1.1936548
3.2514262 3.0454624 1.1908684
3.2372603 3.0676415 1.1871759
3.2255569 3.0634127 1.1945096
3.2367845 3.064105 1.1943856
3.2234194 3.0652342 1.1822742
3.2232416 3.0869236 1.1861156
3.2254596 3.0794792 1.1800395
3.2179213 3.0957296 1.1905111
3.2049212 3.0980773 1.1865991
3.2130306 3.093606 1.1839598
3.0698004 2.9672754 1.2604609
3.0569012 2.9795775 1.2587804
3.0603039 2.9844313 1.2683655
3.0510342 2.9847736 1.2741431
3.0416346 2.9960186 1.2565562
3.0401177 2.9913592 1.2561706
3.0424364 2.9931979 1.2638589
3.0386729 2.9917846 1.2633219
3.0253751 3.0016634 1.2606626
3.0281594 3.0039504 1.2690679
3.0282986 3.020256 1.2754207
3.0290842 3.0077937 1.2698094
3.0081835 3.022871 1.264791
3.0168619 3.0328219 1.2558602
3.011312 3.0375223 1.2739254
3.0081694 3.0248606 1.263088
3.0046356 3.0386784 1.269852
2.9887841 3.0328996 1.2709711
2.9923897 3.0379958 1.2577434
2.9933302 3.0500548 1.2625828
2.9826703 3.0464375 1.2595136
2.9783573 3.0677958 1.2597741
2.9684272 3.0724497 1.2709095
2.9734731 3.069984 1.2677994
2.9695823 3.0661764 1.2651991
2.9637511 3.0834401 1.2657524
2.9670765 3.0813892 1.255945
2.9571602 3.0877123 1.2561858
2.9483573 3.0818722 1.2573557
2.946321 3.1012096 1.2664236
2.9491184 3.0941298 1.267719
2.9288409 3.1069858 1.2662237
2.928818 3.114166 1.2652389
2.919925 3.110652 1.2576512
2.927916 3.1075132 1.2621247
2.7868047 2.9877386 1.335585
2.7929263 2.9904666 1.3470265
2.7892349 2.9875615 1.3406776
2.785779 3.0001428 1.3443813
2.7834876 2.9949827 1.343321
2.7702587 2.9969203 1.3510854
2.7583199 3.0028868 1.3476164
2.7648802 3.0131426 1.3472443
2.7504506 3.0188229 1.3392808
2.7484279 3.0168178 1.3441074
2.7508731 3.0245266 1.3401703
2.7509246 3.0225034 1.3350782
2.7424123 3.0209398 1.3432046
2.747546 3.0400772 1.340041
2.7363777 3.0410855 1.3478521
2.724144 3.0330324 1.3337414
2.7196696 3.0372133 1.3417436
2.7117207 3.0521328 1.3361537
2.7233944 3.0568063 1.3324022
2.7070994 3.0636463 1.3428094
2.7156255 3.0571258 1.3370955
2.7002094 3.0548565 1.3455338
2.6996961 3.06828 1.3485901
2.6873038 3.0710473 1.3469714
2.6917427 3.0668623 1.3425541
2.6839874 3.0746644 1.346283
2.6821163 3.0822182 1.3503977
2.688242 3.0860548 1.3456433
2.6687727 3.0858018 1.3417792
2.6655467 3.0934958 1.3409779
2.6727228 3.0939636 1.3498849
2.6541798 3.1032679 1.3327574
2.6640699 3.0963166 1.3452941
2.657011 3.1012361 1.3368448
2.6483285 3.1148627 1.340463
2.6352234 3.1050076 1.348142
2.6458421 3.1175601 1.3396394
2.6405704 3.1205223 1.3512439
2.6305392 3.1283045 1.3388718
2.6366386 3.1371548 1.3504766
2.5031722 2.9955544 1.4146864
2.4975655 3.0014765 1.4086462
2.4948266 3.0015986 1.4119554
2.4846194 2.9989774 1.4164906
2.4859579 3.0119941 1.410965
2.4909101 3.0162313 1.4119031
2.4835362 3.0154176 1.4217186
2.4676552 3.0136681 1.410827
2.4633737 3.0262284 1.4240545
2.4667153 3.0292339 1.4224753
2.4616568 3.021884 1.4175713
2.4649549 3.0330853 1.4151101
2.4622078 3.0257101 1.4092978
2.442765 3.0322955 1.4173967
2.4478528 3.0443919 1.4150505
2.4474103 3.0456176 1.4134855
2.427901 3.0436518 1.4076569
2.4382026 3.0499916 1.4166347
2.437608 3.0562418 1.4147342
2.4302361 3.0500298 1.412407
2.4212801 3.0629609 1.4193033
2.4074156 3.063396 1.4139799
2.4110854 3.0652947 1.4178667
2.4089379 3.0719664 1.4249297
2.3948846 3.067946 1.4206862
2.3984807 3.0677083 1.4142714
2.400507 3.072191 1.4224994
2.3966999 3.0912099 1.413682
2.381866 3.0938735 1.4077351
2.3851271 3.0934088 1.412203
2.3860564 3.088237 1.4262344
2.3738773 3.0934541 1.4173391
2.3763702 3.1065989 1.4269871
2.3627453 3.1018589 1.4199569
2.356179 3.1073327 1.4255627
2.3653646 3.1006749 1.407593
2.3481307 3.1203196 1.4107744
2.3391201 3.1204391 1.4096489
2.3412876 3.1100104 1.4078671
2.3375039 3.1271334 1.4223068
2.3381832 3.1294808 1.408267
2.3328896 3.1239488 1.4161425
2.318696 3.1252143 1.4138669
2.314146 3.1371639 1.4235613
2.3225615 3.1468604 1.4154463
2.3165781 3.1500607 1.4173955
2.3126206 3.1403499 1.415718
2.3118398 3.1459558 1.410894
2.2899292 3.158061 1.412382
2.177453 3.0010056 1.4835881
2.1884005 2.9985318 1.4980454
2.1853039 3.01511 1.4837296
2.1700785 3.0218451 1.4874439
2.1725733 3.0083847 1.4998786
2.1647587 3.0276988 1.4987868
2.1688244 3.0253932 1.4976784
2.1548355 3.0234985 1.4836481
2.1591647 3.0251956 1.4920189
2.1386659 3.0293593 1.4892963
2.1396508 3.0342076 1.4960389
2.135989 3.0341804 1.4972731
2.1267803 3.0352376 1.4920566
2.1232514 3.0452547 1.4905522
2.1234331 3.0419562 1.4925702
2.1160452 3.0550368 1.490891
2.1275613 3.0563812 1.483901
2.117965 3.0479386 1.4920167
2.1143341 3.0480316 1.4988359
2.0990701 3.0518363 1.4868311
2.1010795 3.0608404 1.4966925
2.0898273 3.0704012 1.4835507
2.0998051 3.0749764 1.4884959
2.0845625 3.0802503 1.5004941
2.0878112 3.0699368 1.4862357
2.0730741 3.0764706 1.5021055
2.0766537 3.0787599 1.4963732
2.0732393 3.0756965 1.4992579
2.0579367 3.0932498 1.499301
2.0694489 3.0997908 1.5002201
2.0489526 3.092597 1.4872205
2.0583136 3.0984108 1.5008653
2.054529 3.0984664 1.4961747
2.0356853 3.1075475 1.4938529
2.0488362 3.1041493 1.4983188
2.0277245 3.1102898 1.4864255
2.0224788 3.1042902 1.4939349
2.0314968 3.1191604 1.4954998
2.0233955 3.1230161 1.4917433
2.0153334 3.1226761 1.4916589
2.0081863 3.1261361 1.5015178
2.0080361 3.1232572 1.4943336
2.0015266 3.1208975 1.4843541
2.0103226 3.1240025 1.5006109
1.9967928 3.1245701 1.4906307
1.9877251 3.1283424 1.4839585
1.9867604 3.1311886 1.4884598
1.9933012 3.1473768 1.4850106
1.981403 3.1397913 1.5026023
1.9857445 3.1484754 1.4970456
1.9699976 3.1543484 1.4921463
1.9641058 3.1444104 1.5015714
1.9710261 3.1523066 1.4858466
1.9679631 3.1533458 1.4904424
1.9611531 3.1652064 1.4928277
1.9443592 3.1523547 1.496213
1.9408891 3.1628969 1.4996785
1.9419166 3.1643426 1.4965721
1.9394913 3.178257 1.4831265
1.9346538 3.1808832 1.4956174
1.8283854 3.0138466 1.5670882
1.8333054 3.023453 1.5700369
1.8276471 3.0243616 1.5781521
1.8262604 3.0265934 1.5645833
1.809466 3.0264051 1.5601581
1.8150535 3.0338163 1.5601702
1.8040227 3.0421548 1.5680196
1.7964538 3.0359221 1.5746161
1.805775 3.0316689 1.5724344
1.8016473 3.0469868 1.5701925
1.7900069 3.036319 1.576524
1.7939851 3.0547667 1.5699215
1.7809086 3.0517542 1.5616932
1.7759438 3.0515575 1.5731682
1.7774067 3.0587718 1.561932
1.7744411 3.0557828 1.5755903
1.771484 3.0659754 1.5750761
1.756373 3.0528154 1.5658242
1.7478552 3.0531964 1.5698197
1.7571521 3.0736728 1.5666399
1.7442037 3.0667353 1.5703052
1.7375835 3.0680058 1.5699365
1.7443573 3.0804334 1.56408
1.7428995 3.0721331 1.575557
1.7329134 3.0695362 1.5717849
1.7316878 3.0882175 1.5625658
1.724117 3.0881889 1.5610876
1.7160287 3.0772998 1.5640036
1.7186852 3.0821471 1.5648606
1.7053338 3.0805488 1.5637599
1.7087995 3.0902627 1.5732937
1.695927 3.0976207 1.5616761
1.7026826 3.0960202 1.56007
1.6835784 3.0972331 1.5677534
1.6959479 3.0927339 1.5704358
1.6845421 3.1112866 1.5694011
1.6839137 3.1065497 1.5659456
1.6818042 3.0980089 1.5692152
1.6626072 3.1164122 1.5749515
1.6642642 3.1057551 1.5767154
1.6648171 3.1228578 1.5658251
1.6549007 3.1113856 1.5599306
1.6533633 3.11097 1.5700793
1.6502168 3.1157541 1.5590906
1.6347505 3.1172154 1.5612587
1.6419632 3.1315813 1.5596414
1.6281382 3.1296332 1.5709552
1.6308545 3.1298923 1.571402
1.6168371 3.1352751 1.567932
1.6285532 3.1266384 1.5714909
1.6220298 3.1428816 1.5698446
1.6046129 3.1335385 1.5744244
1.6012985 3.1469913 1.5762925
1.6081296 3.141634 1.5606551
1.6039691 3.1451499 1.5641954
1.6019734 3.1402218 1.5598239
1.5983573 3.1458144 1.5712326
1.5860519 3.1584725 1.560635
1.5741904 3.1614659 1.5731608
1.5788558 3.1605306 1.5747966
1.5670769 3.1574304 1.5704283
1.5736488 3.1612754 1.5744758
1.5647973 3.1661706 1.569741
1.557811 3.1622651 1.5774201
1.5551844 3.1585698 1.5663925
1.5560949 3.1772535 1.5682199
1.5526309 3.1766982 1.5734293
1.5405725 3.1682179 1.5690925
1.5379136 3.1722593 1.5655507
1.5277776 3.1853528 1.5588813
1.5392742 3.171057 1.5669258
1.5263997 3.1877255 1.5766351
1.5175698 3.1799381 1.5690659
1.5240022 3.1895633 1.5754236
1.5181108 3.1809633 1.5759248
1.5011888 3.1976786 1.5729539
1.5060912 3.1953373 1.5672789
1.4962002 3.2053485 1.5709804
1.5019695 3.1971145 1.5765867
1.4841939 3.203161 1.5731558
1.402117 3.0371337 1.6491531
1.4059454 3.0305364 1.6438521
1.3994805 3.0395348 1.6486517
1.3854437 3.0393946 1.6409703
1.3977619 3.0377946 1.6425894
1.3905785 3.0437071 1.6388302
1.3804218 3.0389595 1.6506424
1.384587 3.0487616 1.6503849
1.3724514 3.0487761 1.6398183
1.3659192 3.0554614 1.6532296
1.3559536 3.0621481 1.6465411
1.3661339 3.0568805 1.6513073
1.3510106 3.0493681 1.6431299
1.3606843 3.0520418 1.6528759
1.342674 3.051259 1.6390916
1.3462801 3.0675211 1.6492954
1.3461244 3.057857 1.6528332
1.3377783 3.056592 1.6442605
1.3291721 3.0674274 1.6537956
1.3299968 3.0759695 1.6481154
1.3242302 3.0787873 1.6472269
1.3117727 3.0760298 1.6391821
1.3040787 3.0823953 1.641742
1.3082048 3.082684 1.6450983
1.3020743 3.0692146 1.6458009
1.302157 3.0836058 1.6409005
1.292441 3.0820982 1.6444769
1.2862604 3.0765045 1.644935
1.2915044 3.0865669 1.6543813
1.286281 3.0817192 1.6505283
1.275375 3.095372 1.6476579
1.283578 3.1008372 1.6402005
1.2637339 3.1028814 1.6372854
1.2664469 3.0933266 1.6528416
1.252514 3.1019189 1.6531168
1.2592814 3.0948741 1.6459777
1.2611457 3.102396 1.6355318
1.2465841 3.1080225 1.6376987
1.2524781 3.1031806 1.6481405
1.2478161 3.0974054 1.651953
1.2392986 3.1050169 1.647643
1.2279083 3.1051269 1.6470287
1.2290583 3.1096897 1.646695
1.2272906 3.1212661 1.6350491
1.221077 3.1232119 1.650244
1.2151362 3.11623 1.6366489
1.2020539 3.1154199 1.6488361
1.1985234 3.1243577 1.6449164
1.1971574 3.1235018 1.6544275
1.206231 3.1222985 1.6364422
1.1991147 3.1168947 1.6443532
1.187686 3.1244199 1.6506646
1.1756408 3.1174169 1.6398358
1.1832596 3.1329703 1.6388862
1.1792302 3.1266365 1.6381913
1.1703935 3.1386909 1.6488295
1.1679593 3.1419942 1.6369783
1.1577102 3.1261003 1.6523921
1.1635391 3.1331766 1.6452832
1.1588768 3.1336644 1.6353102
1.156227 3.1313763 1.6382785
1.1414859 3.1420023 1.6471233
1.1330541 3.1449285 1.6473225
1.1337913 3.1398206 1.6414386
1.1335768 3.1550331 1.6475906
1.1326652 3.1457605 1.6441725
1.1223893 3.1584082 1.6424395
1.1202604 3.1451631 1.6432004
1.1135429 3.1621056 1.6494312
1.1197145 3.1587465 1.65455
1.0959109 3.1571009 1.6357868
1.0950735 3.1650796 1.6460619
1.1030787 3.1489942 1.6376812
1.0912811 3.1580155 1.6426172
1.0935974 3.1711943 1.6411961
1.0820636 3.1678357 1.6489394
1.0871097 3.1585774 1.6477728
1.0704205 3.1715686 1.6518099
1.1334006 3.3376555 1.5753958
1.1234541 3.3389466 1.5699327
1.1186241 3.3408184 1.5612911
1.1150287 3.3462396 1.5591017
1.1017064 3.3440549 1.5593061
1.1000012 3.3544636 1.5670177
1.10323 3.3515816 1.5663997
1.1050355 3.3615608 1.5609211
1.0945821 3.3609836 1.5646883
1.08296 3.3481164 1.559957
1.0753731 3.3637204 1.5643966
1.1434277 3.5303428 1.4927191
1.1295618 3.5405476 1.497209
1.1270521 3.5318098 1.4855735
1.1223508 3.534404 1.4902134
1.1178517 3.5399499 1.4837283
1.1010621 3.5533834 1.4928342
1.1036524 3.5532835 1.4903989
1.1007619 3.5473933 1.4858724
1.1016365 3.5545461 1.4869713
1.0977777 3.5587795 1.5021732
1.1320984 3.7366118 1.4103379
1.1365989 3.7284865 1.4229902
1.1255871 3.7227714 1.4253451
1.1229377 3.7372763 1.4087418
1.124926 3.7322063 1.416139
1.1204269 3.7352726 1.415431
1.1050316 3.7458575 1.4130913
1.107199 3.7384822 1.4233366
1.1565984 3.914587 1.3433682
1.1350857 3.9141667 1.3419706
1.1287729 3.9192612 1.339817
1.1264712 3.914042 1.3479663
1.1368195 3.9229989 1.3488353
1.1295207 3.9344962 1.3426518
1.1256163 3.9331741 1.3498479
1.109107 3.9325476 1.3385673
1.1118876 3.9217219 1.3363357
1.0923263 3.9382627 1.3452001
1.1030083 3.9376426 1.3509748
1.0895683 3.9409611 1.334743
1.0747286 3.9434197 1.3420274
1.0777335 3.9290323 1.3425215
1.0688854 3.9304507 1.3504094
1.0609043 3.9500301 1.3482389
1.0667377 3.9511671 1.3431985
1.0597651 3.9412589 1.335991
1.0415099 3.9395976 1.3364253
1.0410209 3.9438431 1.3318752
1.0293943 3.9442413 1.3451878
1.0435405 3.9566722 1.3403089
1.0214529 3.959738 1.3363867
1.0266477 3.9512856 1.3365825
1.0123347 3.9594641 1.33671
1.0059075 3.9651423 1.3349378
0.99730802 3.9621367 1.3328311
1.003666 3.9576437 1.3393525
1.0028148 3.9603827 1.3427563
0.98239577 3.9681218 1.3489574
0.97742486 3.9697251 1.334116
0.9857645 3.9709682 1.3502722
0.96922344 3.9756186 1.348069
0.96875829 3.9709609 1.3359954
0.96848708 3.9774892 1.3506902
0.94834155 3.9630916 1.349661
0.94642192 3.9655974 1.3442316
0.94239372 3.9799662 1.3329223
0.94488513 3.9789903 1.3429726
0.9307785 3.9831045 1.3393905
0.92287123 3.9677582 1.336048
0.92012072 3.9862642 1.3325922
0.91352463 3.9737437 1.3324385
0.90472353 3.9862742 1.3462863
0.90384716 3.9840519 1.3453295
0.89766389 3.9872041 1.3486497
0.89044958 3.9739585 1.3331581
0.89780414 3.9822085 1.3507254
0.89384776 3.9784753 1.3460149
0.87994003 3.9861629 1.344124
0.88244838 3.9914725 1.3456001
0.86161256 3.9995625 1.3443035
0.8573193 3.9865892 1.349215
0.85287058 3.9903491 1.3453937
0.84226805 3.9987688 1.3380942
0.85070711 3.9865434 1.3326991
0.8424648 3.9926434 1.3328179
0.83872932 3.9916394 1.3399543
0.83255947 3.9922223 1.3421327
0.82167745 4.0044422 1.3507818
0.80890292 4.0047169 1.3435313
0.81760305 4.0097046 1.3431692
0.80500489 3.9959483 1.34864
0.79731667 4.0032949 1.3366848
0.78580564 4.0055923 1.3319712
0.78699368 4.001884 1.3338617
0.78278494 4.0154896 1.3406895
0.77869362 4.0109177 1.3453586
0.78173709 4.0057359 1.3494633
0.76695752 4.015233 1.3446486
0.76082569 4.017519 1.3389771
0.74744177 4.0140691 1.3371692
0.75369436 4.0035872 1.340489
0.74541628 4.0109849 1.3500476
0.7451815 4.0124402 1.3408031
0.74023175 4.0206547 1.3467574
0.73717111 4.0102324 1.3452325
0.72093695 4.0212922 1.3380586
0.70937043 4.0209708 1.3446336
0.70190722 4.0114465 1.3396444
0.70962787 4.0213685 1.3358872
0.69167572 4.0234861 1.3476343
0.69191432 4.0174375 1.3478615
0.69547147 4.0286932 1.334456
0.68858582 4.0252976 1.3414835
0.67245436 4.0225382 1.3357105
0.68227595 4.0223045 1.3385084
0.67057127 4.031425 1.3313671
0.65169144 4.0345683 1.3429133
0.65938532 4.0358396 1.3439517
0.64208877 4.0304236 1.3339365
0.64103377 4.032649 1.3450711
0.63172466 4.0407081 1.349197
0.64264154 4.0379205 1.3436265
0.62015164 4.0338449 1.3337164
0.62468803 4.039237 1.3401102
0.62345022 4.040051 1.3453418
0.6050092 4.0347614 1.338773
0.59942573 4.0361953 1.3344346
0.60538721 4.0309267 1.3504623
0.59238601 4.033967 1.3401766
0.5893684 4.0415587 1.3512269
0.57748431 4.0454497 1.3494548
0.56972504 4.045866 1.3440213
0.57639414 4.0494027 1.3336464
0.57315201 4.0430875 1.3478053
0.55630261 4.0411472 1.3419276
0.54468369 4.0463796 1.3499184
0.54649496 4.0516434 1.338508
0.54396683 4.0484848 1.3410025
0.53746527 4.0379419 1.3457185
0.54067701 4.0500007 1.3372154
0.5349381 4.0557942 1.3317997
0.52742606 4.0394497 1.3460054
0.51447952 4.0553956 1.3429605
0.51115704 4.0537224 1.3328205
0.50199252 4.0608239 1.3399684
0.50694942 4.0619311 1.3315848
0.49989599 4.0504761 1.3477091
0.48143128 4.06212 1.3399265
0.48546019 4.0528903 1.3408613
0.47420418 4.0525017 1.333122
0.47444418 4.0520043 1.3504521
0.46926764 4.0496259 1.3507208
0.45829582 4.0599332 1.3462267
0.44427815 4.0525513 1.3393586
0.44011974 4.0616393 1.3388988
0.44310841 4.0613189 1.3388613
0.43771258 4.0595813 1.3466915
0.42844009 4.0650163 1.3454961
0.43138433 4.0601177 1.3344095
0.41526249 4.069602 1.3422807
0.41140062 4.0649662 1.3490088
0.40486798 4.0607948 1.3327209
0.39860323 4.0712929 1.3461105
0.38784367 4.0534153 1.3314961
0.39021525 4.057023 1.3453554
0.39212632 4.0692635 1.3382881
0.37399921 4.0617528 1.3488849
0.36370149 4.0706158 1.344326
0.37220764 4.0680695 1.3342861
0.36962655 4.0750489 1.3331559
0.35491601 4.0638142 1.3468231
0.34693292 4.0716963 1.3357596
0.34266123 4.0589633 1.3346432
0.33177844 4.0611215 1.3351066
0.32628062 4.0713019 1.3386422
0.33464146 4.069046 1.333891
0.31593442 4.0743155 1.34111
0.30782363 4.0749412 1.3366803
0.31515327 4.0697265 1.3492007
0.31244242 4.0675859 1.3482046
0.30860081 4.0763907 1.3354864
0.29842579 4.0628681 1.3501704
0.29718685 4.0707312 1.3316493
0.27483097 4.0733685 1.3348221
0.2729378 4.0761666 1.3477197
0.27457982 4.0729842 1.3379129
0.27147013 4.0767541 1.3329353
0.25557888 4.0780735 1.3481508
0.25525743 4.0723834 1.3377274
0.24745589 4.069643 1.3447468
0.23865786 4.0687237 1.3401622
0.23714118 4.0832911 1.3416543
0.23030794 4.0822825 1.3506166
0.22495319 4.0845819 1.3418314
0.22277087 4.070652 1.3354673
0.21348569 4.0840282 1.3455518
0.21439335 4.0799603 1.3390453
0.21032311 4.0856667 1.3335048
0.20146792 4.0767174 1.3419286
0.18218894 4.0856328 1.347275
0.18992908 4.0714178 1.3313723
0.17308418 4.0813532 1.3497156
0.17773114 4.0701232 1.3467368
0.17133999 4.0792065 1.3457515
0.15616341 4.0717764 1.3505385
0.15462245 4.0807304 1.3484122
0.14316569 4.0762615 1.3419359
0.14520206 4.0733919 1.3408918
0.14169766 4.087338 1.3506325
0.12661682 4.0876756 1.3490307
0.13688222 4.0814242 1.3329635
0.13124458 4.0839992 1.3465893
0.12395001 4.0768929 1.3487508
0.11367647 4.0890675 1.3397695
-5.0715652 3.3828993 0.50733316
-5.0880404 3.3780999 0.49728182
-5.081543 3.372201 0.51121461
-5.0920324 3.3710744 0.51447469
-5.0908561 3.3594918 0.50013155
-5.108439 3.3487396 0.51409829
-5.1112165 3.3397548 0.50404233
-5.1023993 3.338546 0.5137347
-5.1134381 3.3232279 0.50572491
-5.1149054 3.3208151 0.51578707
-5.1278696 3.3284473 0.49876347
-5.1221423 3.3043125 0.50404561
-5.1264567 3.3113728 0.51054025
-5.1368284 3.2926314 0.50302637
-5.14393 3.2997444 0.51105464
-5.1453643 3.2739427 0.51546186
-4.9964404 3.1710675 0.5738709
-4.9938059 3.16083 0.58236665
-5.0014696 3.164192 0.58269477
-5.0171332 3.1507146 0.58776724
-5.0027246 3.1488919 0.58763587
-5.0253301 3.1374044 0.59053957
-5.0226436 3.1262009 0.58768022
-5.0334525 3.1292143 0.57326245
-5.0317655 3.1297047 0.57314712
-5.0420403 3.1133287 0.57442564
-5.0478983 3.1140535 0.57898468
-5.0511861 3.1018229 0.58029622
-5.0459681 3.0863292 0.59196597
-5.0604124 3.0795627 0.57716078
-5.0497742 3.0715857 0.58754128
-5.0592575 3.0653746 0.5734489
-5.0658274 3.0662112 0.5751738
-4.9165606 2.9653766 0.66278768
-4.9202547 2.9460065 0.66207606
-4.9240551 2.9406936 0.65202755
-4.9265671 2.933845 0.64974874
-4.92451 2.9280212 0.66229039
-4.9211321 2.9317179 0.66639549
-4.926075 2.9252634 0.65079719
-4.9458132 2.9137299 0.65429097
-4.9351611 2.8969862 0.65864861
-4.938592 2.8979361 0.65092403
-4.9402885 2.8937201 0.66466582
-4.9502101 2.8899207 0.66590869
-4.9608335 2.8864222 0.64871556
-4.9614954 2.8645034 0.65155667
-4.964427 2.8687234 0.65546244
-4.9748068 2.8603935 0.64995909
-4.9810719 2.8511837 0.66490102
-4.9829259 2.8462887 0.65521502
-4.981276 2.8360889 0.65569657
-4.8341031 2.7355208 0.7398935
-4.8356743 2.7284772 0.73094821
-4.823494 2.7355266 0.72513145
-4.8300614 2.7159579 0.74274999
-4.8338122 2.719722 0.72538894
-4.834713 2.7045407 0.73919261
-4.8516979 2.7029552 0.73161685
-4.854177 2.6990709 0.7417872
-4.8617048 2.6772895 0.73402405
-4.8589091 2.6811044 0.74302816
-4.8556223 2.6748738 0.72940814
-4.8639779 2.6708729 0.73549736
-4.861269 2.6628435 0.73539436
-4.8643675 2.6520283 0.742486
-4.8698382 2.6412346 0.7401107
-4.8726602 2.6333032 0.7293281
-4.881669 2.6321399 0.74373943
-4.8782439 2.6322415 0.74105108
-4.8846388 2.6085498 0.74337095
-4.898788 2.6113791 0.736301
-4.9039226 2.6012106 0.72980058
-4.738915 2.5001848 0.80195343
-4.7514415 2.5120008 0.81703866
-4.7440615 2.5044057 0.80812454
-4.7495809 2.4950178 0.81523752
-4.7574663 2.4864759 0.80124515
-4.756125 2.472584 0.81292063
-4.7603626 2.4657664 0.81153399
-4.7672801 2.4561932 0.81329703
-4.7718678 2.4561014 0.80473566
-4.7635164 2.4544952 0.81285733
-4.7816558 2.4377544 0.81301755
-4.7834821 2.4319685 0.81162673
-4.7702136 2.4370341 0.80927849
-4.78585 2.4200432 0.80418479
-4.7943645 2.4186203 0.81719679
-4.7968616 2.401983 0.80296916
-4.787674 2.4045427 0.80858094
-4.7998633 2.4036107 0.81128138
-4.7902803 2.3815074 0.80055666
-4.8092499 2.3911624 0.81489712
-4.8000879 2.3860755 0.81917292
-4.8107562 2.3625507 0.8043437
-4.8228059 2.3556736 0.80126578
-4.6507578 2.275624 0.88373601
-4.6501184 2.2715588 0.89562982
-4.6564574 2.2683477 0.87758607
-4.6570148 2.2576663 0.88880634
-4.6719518 2.2581277 0.88580388
-4.6641788 2.2514954 0.88741171
-4.6671219 2.2292075 0.8853929
-4.675715 2.2393861 0.8850103
-4.6800232 2.2221913 0.88783062
-4.679152 2.2162325 0.89050591
-4.6813493 2.219161 0.88077402
-4.6769156 2.2058835 0.8934859
-4.6805792 2.1894119 0.88950002
-4.6822772 2.1955185 0.8813504
-4.6927462 2.1898153 0.88018435
-4.7062082 2.1750023 0.87891233
-4.6980534 2.1803555 0.88188338
-4.7119079 2.1602147 0.88156819
-4.7061362 2.1588562 0.89059776
-4.7175345 2.1414504 0.88021213
-4.7062488 2.1449196 0.87930322
-4.7046852 2.1358855 0.89166915
-4.7104011 2.1262414 0.8941201
-4.7200933 2.1179442 0.8892386
-4.717926 2.1222136 0.88521904
-4.5477567 2.0409997 0.96880478
-4.5679045 2.026242 0.96846849
-4.5650721 2.020638 0.95456934
-4.5625463 2.0238051 0.96589369
-4.570982 2.0185635 0.96639854
-4.5697942 2.0075886 0.95696306
-4.5695062 2.0011485 0.96508789
-4.5768437 1.991955 0.97016758
-4.5817213 1.9760224 0.95355272
-4.5914712 1.9852009 0.96781433
-4.5852318 1.9783245 0.9625209
-4.5912466 1.9741213 0.96884882
-4.5975885 1.9555624 0.95595562
-4.5978208 1.9623324 0.95261633
-4.5867195 1.9434611 0.97042614
-4.5951047 1.9485627 0.96365565
-4.592916 1.9367285 0.95684355
-4.6025939 1.9203243 0.96724033
-4.607183 1.9218011 0.96811068
-4.6083779 1.9162774 0.96456963
-4.6153021 1.8997338 0.9605661
-4.6075106 1.899907 0.95877713
-4.6133823 1.896461 0.96485072
-4.6121383 1.8954966 0.96411973
-4.6142244 1.8883381 0.97094661
-4.6184921 1.8754904 0.96930802
-4.6295209 1.8675181 0.96227199
-4.6273527 1.8725458 0.96527213
-4.4628158 1.7872745 1.032042
-4.4692669 1.7720873 1.0438874
-4.4592509 1.7726269 1.0456406
-4.4732294 1.7635999 1.0340225
-4.4689879 1.7713341 1.0454173
-4.4786644 1.7629365 1.0423105
-4.4690628 1.7550677 1.0385114
-4.4726257 1.7455376 1.0283347
-4.477819 1.7475758 1.0366592
-4.4900389 1.7343699 1.0364888
-4.47925 1.7163169 1.0459069
-4.4975314 1.7142872 1.0463821
-4.4839587 1.7047397 1.0336447
-4.4886236 1.7036709 1.0381314
-4.5048985 1.7092918 1.036607
-4.4897695 1.687676 1.032943
-4.4977384 1.6780926 1.0476717
-4.5094976 1.6873684 1.0391351
-4.5114245 1.673865 1.0389049
-4.5050182 1.6705461 1.0317403
-4.518774 1.660412 1.0327977
-4.5031023 1.6543839 1.0381037
-4.506947 1.6443071 1.0401438
-4.52352 1.651935 1.0474001
-4.5155978 1.6456493 1.0465654
-4.529191 1.636845 1.0304066
-4.5264392 1.6224151 1.030959
-4.5289502 1.6185606 1.0470855
-4.5199885 1.6151049 1.0360098
-4.5312486 1.6003724 1.0479198
-4.529664 1.5941927 1.0360036
-4.5270138 1.5859841 1.0443703
-4.3642025 1.5355914 1.1048232
-4.5290337 1.5721679 1.0475241
-4.531754 1.5783095 1.0461085
-4.5353003 1.5731224 1.0422125
-4.5349965 1.5529424 1.0302135
-4.5541315 1.5524982 1.0406901
-4.5571308 1.5432533 1.0340443
-4.5511971 1.5449774 1.0390023
-4.5533447 1.5305061 1.0441202
-4.5473995 1.5208967 1.047372
-4.5530787 1.5214553 1.047207
-4.5541449 1.5142219 1.0293369
-4.5566521 1.5064528 1.0439605
-4.5605664 1.4973134 1.0397516
-4.5683675 1.4906448 1.0417206
-4.5681591 1.4869995 1.0296063
-4.5774651 1.4825039 1.0346112
-4.5734076 1.4860824 1.0477071
-4.5643835 1.4696451 1.0327014
-4.5702324 1.4612756 1.0344592
-4.5728207 1.4493407 1.0431515
-4.5755649 1.4584447 1.0309892
-4.5761704 1.4471371 1.0374395
-4.5821433 1.4340024 1.041135
-4.7690945 1.4898828 0.96870065
-4.7573657 1.473056 0.95486027
-4.7577419 1.4689835 0.96291775
-4.7731037 1.4710196 0.96094996
-4.7753606 1.4641224 0.96894383
-4.7726135 1.4534097 0.95497018
-4.7680993 1.4421333 0.95546639
-4.7748837 1.4501284 0.97147417
-4.7738209 1.4395247 0.96258473
-4.7862988 1.4249458 0.96697378
-4.7750716 1.4221829 0.95892096
-4.7804203 1.4132051 0.96070689
-4.7796006 1.4058981 0.96508884
-4.7907138 1.4052668 0.95817828
-4.7837853 1.3844069 0.97104466
-4.7888541 1.3883129 0.9598754
-4.7878866 1.3787427 0.96410966
-4.8064137 1.3643883 0.96302164
-4.7889237 1.3730878 0.95801532
-4.8003139 1.3512912 0.96511841
-4.9855437 1.4124751 0.88030082
-4.980648 1.400243 0.88904792
-4.993957 1.3907844 0.87718445
-4.9828739 1.3921566 0.89138889
-4.9786916 1.382392 0.89143533
-4.9816337 1.3694847 0.88209236
-4.9957347 1.3594606 0.88988644
-4.9855919 1.3528163 0.89003623
-4.9965277 1.3455595 0.885598
-4.9924598 1.3488007 0.88607848
-5.0012789 1.326929 0.88467962
-4.9990573 1.3318915 0.87801802
-5.0080791 1.3254743 0.88886994
-5.008954 1.3120593 0.88806897
-5.015615 1.3047359 0.88448095
-5.0022197 1.2963706 0.89496565
-5.0181575 1.2957941 0.88240916
-5.0062919 1.2872407 0.89019376
-5.014266 1.2696223 0.87770963
-5.1861649 1.3229687 0.81960857
-5.1981401 1.3040602 0.80247784
-5.1915045 1.3092147 0.81730556
-5.1915197 1.2871792 0.81271452
-5.2006731 1.2860904 0.80170941
-5.2106175 1.2801524 0.81038451
-5.2041392 1.269412 0.81770033
-5.2071667 1.2645262 0.81144822
-5.2027402 1.253289 0.80365378
-5.2105188 1.2558501 0.80525446
-5.2107716 1.2477715 0.8021816
-5.2132664 1.2295337 0.80746937
-5.2128816 1.2197375 0.80518335
-5.217659 1.2117218 0.80813599
-5.2270174 1.2163383 0.81727642
-5.2273707 1.2127861 0.80775821
-5.219039 1.1974771 0.81478125
-5.4038949 1.2416592 0.7283538
-5.4145355 1.2309976 0.73382443
-5.4129596 1.2142919 0.72914517
-5.4097729 1.2190583 0.74367875
-5.4096484 1.2030442 0.72726822
-5.4042253 1.1891191 0.72835785
-5.4210782 1.1921105 0.72873032
-5.4149675 1.1874276 0.7410202
-5.4197059 1.1640652 0.73706114
-5.4139519 1.1706984 0.72509867
-5.421164 1.1546429 0.74386311
-5.4189448 1.149647 0.73952824
-5.4312439 1.1479158 0.72605246
-5.4282117 1.1310505 0.72491008
-5.4306355 1.1359777 0.73532301
-5.4294596 1.1279857 0.73938251
-5.6085625 1.1415089 0.65815878
-5.6059537 1.1458054 0.6556772
-5.6110444 1.1269894 0.65741175
-5.6200833 1.1155428 0.65336031
-5.6210732 1.1184887 0.66083664
-5.6232882 1.1052483 0.65090233
-5.629827 1.1012924 0.66682446
-5.6298304 1.1019417 0.65347093
-5.6309652 1.0817297 0.65263677
-5.6216764 1.0842458 0.65140456
-5.6283169 1.0705799 0.65457124
-5.6203213 1.0611044 0.64988601
-5.6347966 1.0481091 0.65423882
-5.6275258 1.0476351 0.65500116
-5.6242957 1.0477197 0.66656768
-5.8156872 1.0600418 0.57690567
-5.814939 1.0541838 0.58699906
-5.8182573 1.0498383 0.5856064
-5.8149176 1.0458629 0.59186852
-5.8324008 1.0326706 0.58851576
-5.8311048 1.0143211 0.57936817
-5.8266306 1.005439 0.5886181
-5.8268304 1.0035431 0.59274793
-5.8226662 0.99036789 0.58428085
-5.837728 0.98186189 0.58377761
-5.8412123 0.98550141 0.59056348
-5.8384981 0.97135228 0.57962877
-5.8256793 0.97533655 0.59248811
-6.0169177 0.99370438 0.51366484
-6.019248 0.98615927 0.50564164
-6.0249186 0.96132773 0.50741434
-6.0197258 0.96237642 0.50845253
-6.0252709 0.94462007 0.51574439
-6.0266743 0.95241159 0.49801233
-6.0165334 0.92651325 0.49992758
-6.0268836 0.91849166 0.51363766
-6.0304365 0.91453356 0.50135571
-6.0249119 0.90473235 0.50121707
-6.0265164 0.90769529 0.49800357
-6.0310836 0.88968462 0.51566279
-6.0436625 0.88734752 0.51691014
-6.2176404 0.89781964 0.43177906
-6.2274208 0.89752883 0.43316379
-6.2298975 0.87714374 0.4307653
-6.2300944 0.86819744 0.43089557
-6.2283635 0.87018663 0.43143317
-6.2329106 0.86989719 0.43644336
-6.2297277 0.85639453 0.44008476
-6.2266707 0.84253788 0.43512335
-6.2268157 0.82535279 0.44058722
-6.2292891 0.81681603 0.43215168
-6.2305026 0.81870031 0.4363445
-6.2409868 0.81204396 0.42894337
-6.413672 0.82734913 0.35400704
-6.4251776 0.82020664 0.35467339
-6.4165401 0.79599845 0.34603092
-6.4273529 0.78843474 0.34580272
-6.4131427 0.78523356 0.36077717
-6.4152789 0.78625619 0.35060194
-6.4223638 0.76828927 0.3519502
-6.4239721 0.76899195 0.35347188
-6.4340038 0.74961162 0.34558967
-6.4198298 0.74086601 0.35976443
-6.4330444 0.72413981 0.35474887
-6.6092672 0.73742259 0.2757149
-6.6209064 0.73981172 0.27729592
-6.6211753 0.73248971 0.28028911
-6.6216588 0.72046667 0.28905857
-6.6071558 0.70738417 0.28782967
-6.6228147 0.68828064 0.27761427
-6.6171122 0.68862009 0.27708352
-6.6098757 0.67996699 0.28615591
-6.610508 0.6665141 0.27546751
-6.6169529 0.66086042 0.27703923
-6.8125997 0.66173625 0.20464462
-6.8072443 0.65391481 0.19973381
-6.8002944 0.64682889 0.19674832
-6.810338 0.64025021 0.21098854
-6.8115988 0.62915325 0.2013963
-6.814075 0.62336284 0.20195203
-6.8067536 0.60422724 0.21210001
-6.8199496 0.59326816 0.20284899
-6.80406 0.60260332 0.20940053
-6.8188453 0.58640766 0.19955505
-6.9964762 0.59491003 0.12617667
-7.0062304 0.5741787 0.13034204
-7.0008817 0.56129676 0.13693915
-6.9985046 0.55925739 0.12647654
-7.001874 0.55683005 0.13443717
-6.9948215 0.53278583 0.12612876
-7.0071998 0.53690946 0.12820733
-7.0094166 0.52867007 0.12885053
-7.0008707 0.51714015 0.12835385
4.0718803 2.9537983 1.0035195
4.0690088 2.9560289 0.99701047
4.0556307 2.960804 1.0011135
4.051578 2.9641421 1.004148
4.0569582 2.97246 1.006305
4.0436602 2.9763794 0.9998706
4.0412307 2.9928825 1.0040507
4.031086 2.9874451 0.99797356
4.0291333 3.0037727 1.0026606
4.0310092 3.0098007 1.0025057
4.0336947 3.0087922 0.9963944
4.0243711 3.0090153 1.0068502
4.0285311 3.0199709 0.99642307
4.0167866 3.0309923 1.0036817
4.0080681 3.0315208 0.99361205
4.0014992 3.0428853 1.001821
4.0084877 3.0359628 1.0008982
3.999649 3.0430458 0.98890895
3.837194 2.9397056 1.0821183
3.8471069 2.9348295 1.0812438
3.8368573 2.9568129 1.0737492
3.8404891 2.9536545 1.0808719
3.8345692 2.9588456 1.0733503
3.8182147 2.9564888 1.0712562
3.8291113 2.9696193 1.0641022
3.809931 2.9803934 1.0827305
3.8189521 2.9823768 1.0688599
3.8070431 2.9797499 1.0765017
3.8031373 2.9864354 1.0678673
3.7979393 2.9871204 1.0690039
3.7918594 3.0016496 1.0667769
3.7982776 3.003912 1.07605
3.791811 3.0043635 1.0651788
3.7778156 3.0125768 1.0666209
3.7817185 3.0158105 1.0758694
3.77846 3.0239952 1.0705737
3.7738228 3.0253394 1.0819489
3.7753074 3.0389206 1.0653905
3.7644267 3.0527496 1.0702165
3.764904 3.0455413 1.0704324
3.746511 3.056421 1.0798882
3.7458832 3.0578945 1.066323
3.6108468 2.9395761 1.1424259
3.5887706 2.9487603 1.146976
3.5881298 2.9660451 1.1494939
3.5967305 2.9642768 1.1549364
3.5800283 2.9620836 1.1564691
3.5746944 2.9655948 1.1463346
3.5727952 2.9824524 1.1447868
3.5757151 2.9840219 1.1507941
3.5588439 2.9914398 1.1424509
3.5714214 3.0024793 1.1503564
3.5704269 3.0064132 1.1522331
3.5510342 3.0123706 1.1382817
3.5561848 3.0017934 1.1566087
3.5438464 3.0039301 1.1481665
3.5369434 3.013485 1.1525362
3.5315661 3.0218332 1.1554279
3.5360477 3.0324166 1.1501939
3.5389745 3.0300608 1.1415517
3.5279019 3.034982 1.1553558
3.5284791 3.0366356 1.1552331
3.5169549 3.0414569 1.1540844
3.5073006 3.0510542 1.1539385
3.5036881 3.0499778 1.1382669
3.4983957 3.0607455 1.1397893
3.5046544 3.0687997 1.1459298
3.495276 3.0756731 1.1554875
3.4887824 3.0712316 1.1507033
3.357904 2.9510875 1.2131383
3.3376925 2.966733 1.2210869
3.3312783 2.9671795 1.2257818
3.3447351 2.9803331 1.2303964
3.3370366 2.9680703 1.2197126
3.3291857 2.9764392 1.2230628
3.3256569 2.9837675 1.2122968
3.3236439 2.9816124 1.2247074
3.307765 2.9943438 1.2191197
3.3214374 3.0048535 1.2242243
3.3103189 3.0079074 1.2271645
3.3071349 3.0148635 1.2210904
3.291893 3.0195255 1.2308091
3.3013396 3.021771 1.229033
3.2953944 3.0204513 1.2303516
3.2787592 3.0354202 1.2154026
3.2854676 3.0310063 1.2231507
3.2814038 3.0287321 1.2241188
3.2697442 3.0347378 1.213199
3.2724903 3.0385811 1.2281755
3.2603347 3.0554781 1.2215984
3.2711132 3.0533693 1.2173754
3.2558112 3.0602033 1.2132186
3.2502213 3.0606749 1.2267172
3.2428491 3.0593989 1.2143118
3.2367892 3.0656915 1.212297
3.235774 3.0829027 1.2212958
3.2425008 3.0802665 1.2234539
3.2301893 3.0901937 1.227057
3.2269516 3.0870965 1.2299488
3.2186842 3.0960793 1.2251887
3.0901349 2.9713376 1.2882712
3.0712347 2.9841006 1.2991563
3.068172 2.9755287 1.3059821
3.0786016 2.9838459 1.2870069
3.0766199 2.9903708 1.2898051
3.0726175 3.0001543 1.3053012
3.0576079 3.0009446 1.293654
3.0647504 2.9937096 1.2874329
3.0554903 3.00753 1.2936193
3.0491159 3.0173817 1.3042995
3.0379753 3.0166879 1.2944998
3.0354173 3.0212255 1.2931724
3.0437384 3.0268376 1.2989883
3.0388794 3.0270228 1.2888426
3.0350394 3.029376 1.3009484
3.0139916 3.0318823 1.2985703
3.0084341 3.04354 1.2927209
3.0112233 3.0465078 1.2953808
3.0077858 3.0443885 1.287611
3.0105288 3.0600741 1.3054489
3.0039463 3.048804 1.2983546
2.9875579 3.0591671 1.2915655
2.9898367 3.062048 1.3061621
2.9979255 3.0642729 1.2967234
2.9758625 3.0668662 1.305423
2.9858999 3.0726261 1.2924198
2.9735532 3.077049 1.2868716
2.9753513 3.0884874 1.300094
2.9598036 3.0807204 1.2870059
2.9564803 3.0999343 1.305418
2.9509892 3.0968094 1.288381
2.9583979 3.1015456 1.2975335
2.959012 3.1128159 1.3053994
2.9542167 3.1164362 1.2913287
2.8125386 2.9873161 1.37019
2.8071814 2.987273 1.3761674
2.8088155 2.9791617 1.3624241
2.8048961 2.9971335 1.3759817
2.7941935 3.0038476 1.3776407
2.7903976 2.9915347 1.374388
2.7850082 2.9980326 1.3638906
