# .PCD v0.7 - Point Cloud Data file format
VERSION 0.7
FIELDS x y z
SIZE 4 4 4
TYPE F F F
COUNT 1 1 1
WIDTH 1576
HEIGHT 1
VIEWPOINT 0 0 0 1 0 0 0
POINTS 1576
DATA ascii
9.0504389 0.10306644 0.40874141
9.0525818 0.11779492 0.42519909
9.0478621 0.13027573 0.41480482
9.0413933 0.14745831 0.41441372
8.8620186 0.15174296 0.46442395
8.8486691 0.16300884 0.48060247
8.8595629 0.17543745 0.48293778
8.8575916 0.19705459 0.47730708
8.859807 0.21662906 0.46916446
8.8447018 0.21357585 0.47259945
8.8439417 0.2413238 0.47474235
8.6520872 0.24626401 0.53414577
8.64886 0.25148261 0.53826857
8.6552219 0.27041692 0.5269596
8.6611748 0.28239813 0.53054208
8.6619749 0.28124481 0.53304505
8.6589365 0.29121789 0.53563154
8.6582174 0.31946877 0.52749038
8.6518497 0.33020148 0.52657932
8.4652128 0.31886759 0.58541793
8.454114 0.33405191 0.58451402
8.4651423 0.34987935 0.58130646
8.4604101 0.36280757 0.59124315
8.4597845 0.38244227 0.58804029
8.4678335 0.3883923 0.58474517
8.4594488 0.39552101 0.58822381
8.2615194 0.41088411 0.64475006
8.2582045 0.41479442 0.64230853
8.2667313 0.43276653 0.63852847
8.2743311 0.43665776 0.63858956
8.2656069 0.4499031 0.64203322
8.2559624 0.4546454 0.62950319
8.2630949 0.47514123 0.63810104
8.2601471 0.4755134 0.63453376
8.0620642 0.4931857 0.70026439
8.0726032 0.49400699 0.68617857
8.0666046 0.50948101 0.68478113
8.0619688 0.52219421 0.69576538
8.0748768 0.52400541 0.69319391
8.0639887 0.53400356 0.7029866
8.0731459 0.55588037 0.69449842
8.065731 0.5687319 0.69922721
7.8739924 0.55594057 0.74807417
7.8626332 0.57399535 0.75062293
7.867691 0.58655113 0.75058842
7.8633175 0.59031266 0.74012148
7.8648429 0.60875863 0.75387567
7.8649554 0.62326843 0.74909121
7.8760371 0.63140053 0.75486714
7.8645315 0.62937474 0.73939139
7.8628039 0.65725219 0.7545436
7.8725724 0.65847653 0.75129956
7.8670545 0.66051769 0.75742757
7.8552213 0.67197353 0.75063252
7.8659215 0.6892767 0.74541646
7.8565722 0.70301098 0.75298637
7.85674 0.71909052 0.74802768
7.8506474 0.71611792 0.74660552
7.8597546 0.74507737 0.74234325
7.8546228 0.7433973 0.74508423
7.8539996 0.76087052 0.74473292
7.8485136 0.7690087 0.75463742
7.8597679 0.77254063 0.75561589
7.8571353 0.78516644 0.75708419
7.847692 0.80943489 0.74489111
7.8530178 0.80531132 0.75546896
7.8458977 0.82232893 0.75116438
7.8538041 0.83424175 0.75292665
7.8402729 0.83626539 0.75268906
7.842464 0.85417581 0.73981375
7.8473811 0.87249708 0.75345522
7.8519311 0.88638151 0.74428004
7.8463707 0.89258498 0.74768335
7.8417735 0.89723557 0.75276059
7.8386292 0.91353816 0.75115585
7.843277 0.91627663 0.75447875
7.8384867 0.93302089 0.74387187
7.8293772 0.93881232 0.75423217
7.8420143 0.95222861 0.75567198
7.8343987 0.96900749 0.74407977
8.0246897 0.99545139 0.68472111
8.0177765 1.0043525 0.70345461
8.0216732 1.0289102 0.69745415
8.0289564 1.030103 0.6851685
8.0213022 1.0493991 0.69825143
8.0120277 1.0546056 0.70314062
8.0060596 1.0763003 0.69384354
8.00947 1.0701784 0.69940919
8.0032244 1.0980022 0.6874643
8.0184031 1.0995343 0.70137322
8.0019741 1.1018991 0.68724138
8.001318 1.1187383 0.69082296
7.9993792 1.1408765 0.68777657
8.011425 1.1517171 0.69473922
8.0111685 1.1563373 0.68981636
8.0039806 1.1731323 0.69892025
8.0016661 1.185425 0.69854105
7.9900384 1.1826085 0.70086437
8.0039606 1.1950431 0.69983804
7.9859228 1.2041684 0.68917233
8.0017786 1.2183925 0.68970209
7.9834867 1.2335033 0.6959039
7.9887609 1.2482344 0.69307894
7.990973 1.2565854 0.68993175
7.9801321 1.2662704 0.70024419
7.9843531 1.2703724 0.69619334
7.9776621 1.2937807 0.69327903
7.9705768 1.3071979 0.69639444
7.9857993 1.31619 0.70079291
8.1696672 1.3600775 0.64802068
8.1731224 1.3705028 0.6334725
8.1570911 1.384335 0.64289069
8.1672468 1.3851556 0.63589782
8.154561 1.409918 0.64611614
8.1587114 1.4055851 0.63488221
8.1531601 1.4272337 0.63661557
8.1435404 1.4439679 0.63062477
8.1509914 1.4554085 0.64692146
8.1415415 1.4638786 0.64108288
8.1564751 1.4683522 0.6367414
8.1537666 1.4781632 0.6314382
8.1364946 1.4938415 0.64858282
8.1486244 1.5015888 0.63516617
8.1337452 1.5185803 0.63513297
8.1290693 1.5216686 0.63939041
8.1331434 1.5411662 0.63392293
8.1389351 1.5530223 0.63381875
8.1387196 1.5543224 0.6337871
8.1347857 1.568182 0.63086039
8.1249971 1.5789995 0.64104468
8.1308508 1.5891496 0.6296804
8.1313858 1.604084 0.64263761
8.1290503 1.6132209 0.63198835
8.1132812 1.6295674 0.64697957
8.1174641 1.6433418 0.63371104
8.1058874 1.6433102 0.64859504
8.2972021 1.6895983 0.58884615
8.2999697 1.7196933 0.5742051
8.3026886 1.7280215 0.58208752
8.282465 1.728744 0.58945453
8.2924099 1.7375195 0.57564157
8.2909737 1.7490448 0.58543617
8.2824783 1.7604642 0.59304386
8.2833185 1.7783614 0.58567744
8.2791328 1.782703 0.58076793
8.2816639 1.7977464 0.58451247
8.2790613 1.8180242 0.58484149
8.271841 1.8234321 0.58369464
8.2699642 1.8339386 0.57930839
8.2759533 1.8466166 0.5840804
8.2692928 1.8516508 0.58606708
8.2688046 1.8776766 0.58802146
8.2580938 1.8776513 0.58984125
8.2549744 1.9009256 0.57800758
8.2444735 1.9024907 0.57896835
8.2490463 1.9090781 0.58342874
8.2573481 1.9355718 0.57662672
8.2459621 1.9373696 0.58369589
8.2334137 1.9598304 0.58973825
8.4235077 2.0152578 0.52178234
8.4312506 2.0224378 0.52248132
8.4209642 2.0317171 0.53768378
8.4126148 2.0528905 0.5213421
8.4060698 2.0535655 0.53675961
8.4076748 2.066376 0.52223086
8.410223 2.086412 0.52278167
8.3972158 2.0974181 0.53832203
8.3973913 2.0997233 0.52415997
8.4046183 2.1121812 0.52096218
8.397872 2.1304049 0.53727806
8.3983002 2.1391668 0.52902383
8.3994102 2.1404533 0.53830284
8.3957071 2.1562188 0.53701311
8.3956461 2.1682832 0.52466023
8.3909855 2.1848128 0.53338337
8.3717804 2.1867683 0.53041232
8.3731098 2.1986098 0.5267213
8.3699636 2.2135358 0.5336135
8.3726387 2.238615 0.52124536
8.3720999 2.2398899 0.5353871
8.3678598 2.2645514 0.52658081
8.5409422 2.3234429 0.4722085
8.5376244 2.3317373 0.47704709
8.5330009 2.3429775 0.48225281
8.5360069 2.3525817 0.47229499
8.5277205 2.3660207 0.47260371
8.5364456 2.3838453 0.47306958
8.5214643 2.3815961 0.47678098
8.5333576 2.4051108 0.47389561
8.512866 2.4111917 0.48061347
8.5264997 2.4161544 0.48032555
8.5113115 2.4317451 0.4771218
8.51688 2.4472423 0.47029459
8.5072708 2.4613566 0.4827947
5.0456061 3.2133887 1.3024246
5.0337057 3.2119892 1.3047693
5.0240927 3.2301006 1.3095211
5.0247912 3.2307131 1.2979225
5.0276303 3.2307825 1.2952719
5.0132818 3.2488909 1.2966801
5.0026169 3.2494676 1.2994392
5.0087237 3.2634306 1.3044509
5.0028906 3.2563512 1.2962788
4.99681 3.2649968 1.3087201
4.9948692 3.2900736 1.3018297
4.982276 3.2877166 1.3065234
4.9920173 3.3002234 1.3023187
4.9865007 3.2979152 1.2917225
4.9693761 3.3029423 1.2941983
4.9695911 3.3181267 1.3077911
4.9712043 3.3271618 1.2949756
4.9555674 3.3268287 1.3091446
4.9649324 3.3451982 1.3092618
4.946116 3.3420317 1.2910587
4.9397306 3.3414788 1.2909726
4.9464459 3.3528967 1.3015765
4.9378448 3.3586299 1.2977401
4.9250298 3.3634303 1.3046552
4.9216084 3.3756993 1.3096632
4.9206538 3.392786 1.3029281
4.9132819 3.3960989 1.2983069
4.9130855 3.388397 1.3064381
4.9070482 3.3946919 1.3060304
4.9011188 3.4068117 1.2955544
4.896976 3.4171977 1.2976304
4.8927383 3.4189591 1.3042356
4.8990951 3.4367902 1.3096918
4.8816056 3.4464858 1.2930726
4.8710217 3.4374499 1.3018532
4.8654361 3.4521582 1.3008579
4.8731065 3.4642034 1.2963196
4.8561459 3.4607701 1.2972299
4.8673072 3.4760275 1.2975924
4.8580513 3.4700923 1.3032386
4.8583097 3.4847617 1.2924412
4.8406348 3.4999495 1.2965825
4.849556 3.5062597 1.2917383
4.8439236 3.4998555 1.3097802
4.8216624 3.5076525 1.2919834
4.8281727 3.5146587 1.3020985
4.8136783 3.5341384 1.2974695
4.8146362 3.541471 1.3026245
4.8164949 3.5447872 1.2962607
4.798707 3.5436797 1.2971926
4.8065557 3.5476725 1.3060312
4.8035979 3.5588412 1.303302
4.0134659 2.9901557 1.5758682
4.0105882 2.9932668 1.5795541
4.0057445 2.9989972 1.5843016
4.0030961 3.0161276 1.5693266
4.0105553 3.0236628 1.5671098
3.9933774 3.0170643 1.5855106
4.0013471 3.0172422 1.5805199
3.982945 3.0245595 1.5677205
3.985467 3.0446622 1.5722198
3.9768198 3.0467527 1.5812006
3.9854357 3.0549724 1.568451
3.970876 3.044477 1.5732156
3.9799941 3.0533087 1.5781194
3.9738522 3.0636702 1.5745683
3.9527276 3.0656772 1.5729727
3.9493783 3.0747001 1.5792048
3.9444222 3.0758941 1.5800472
3.9544678 3.0828955 1.5826449
3.9517062 3.0966363 1.5797893
3.9334364 3.1059546 1.573474
3.9441395 3.1081219 1.5698344
3.9220855 3.0999696 1.570161
3.7741234 2.9857731 1.6289337
3.7818894 3.0088906 1.6373947
3.7660971 3.0151477 1.622342
3.7687016 3.0023267 1.6307977
3.7575309 3.0088289 1.6349392
3.7471955 3.0296633 1.6405795
3.7594504 3.0320308 1.6344639
3.7488425 3.0404305 1.6321764
3.7519119 3.0438433 1.6265714
3.7313342 3.0495195 1.6273357
3.731076 3.0422237 1.6278416
3.7344365 3.0468597 1.6262091
3.7262504 3.0598764 1.6255833
3.7230046 3.0596783 1.626892
3.7082074 3.0724971 1.6294643
3.7175443 3.0791757 1.6276382
3.7125144 3.0823116 1.6229528
3.7013617 3.0790491 1.6214463
3.7079141 3.0830731 1.6381372
3.6888545 3.0907438 1.6352953
3.690552 3.1023877 1.6399542
3.6927481 3.1016304 1.6240517
3.6733048 3.1169333 1.6359745
3.6732283 3.1132438 1.6225137
3.5278735 2.9946258 1.6918391
3.5318377 2.9937994 1.6875225
3.5139687 3.0122182 1.6811743
3.5114076 3.0037665 1.686402
3.507333 3.0061569 1.690498
3.4999428 3.0137842 1.677115
3.5097036 3.0274127 1.6902322
3.5041165 3.0275483 1.6774547
3.5026202 3.0325589 1.6948485
3.4930401 3.0418184 1.6834272
3.4899921 3.0366352 1.69266
3.4811161 3.0395818 1.6961575
3.4679165 3.0488322 1.6931707
3.4683621 3.0597012 1.6768349
3.4740286 3.0706816 1.6779981
3.4637842 3.058465 1.681903
3.4601502 3.080209 1.6945568
3.4496267 3.0805728 1.6824727
3.4463191 3.0836539 1.6905311
3.4403985 3.0813749 1.6829871
3.4430499 3.100275 1.6854037
3.4349275 3.0945327 1.6859169
3.4302955 3.0998318 1.6908363
3.4226704 3.1098235 1.6817863
3.4187026 3.109736 1.6788845
3.4158914 3.1236649 1.6789396
3.4169786 3.1182272 1.6959183
3.2689257 2.9967129 1.7435933
3.2707505 3.0058014 1.7343938
3.2606277 3.0132573 1.7381129
3.2629542 3.0076592 1.7359356
3.2476914 3.01824 1.7432257
3.2529352 3.0284967 1.7510302
3.2430921 3.0154428 1.744048
3.2441926 3.0227427 1.7322059
3.2423851 3.0315592 1.7495264
3.2406263 3.0457976 1.7366489
3.2358403 3.0381114 1.7473304
3.2235758 3.0364168 1.7425501
3.2221057 3.0487719 1.7406812
3.2243483 3.0476329 1.7486755
3.2044075 3.0554161 1.7427176
3.2117503 3.0726349 1.7424896
3.2068915 3.0642087 1.7446867
3.1950443 3.0810876 1.7496685
3.1913488 3.0803695 1.7389574
3.1849675 3.0821097 1.7379813
3.1857028 3.0832868 1.7448215
3.1771131 3.0964289 1.7454754
3.183737 3.0923367 1.7339987
3.1684859 3.0947292 1.7369031
3.1612227 3.1014287 1.743117
3.1679957 3.099726 1.7420818
3.1545343 3.117425 1.7481585
3.163264 3.1075435 1.7466581
3.1569693 3.1182399 1.7399895
3.1399574 3.1268342 1.750617
3.1419635 3.1204491 1.7379836
2.9947665 2.9939253 1.7892072
3.0044439 2.9939742 1.7967656
3.0026391 3.0030763 1.8022964
2.9837327 3.0092256 1.7901129
2.9910345 3.0064645 1.7918184
2.9772952 3.014565 1.786821
2.9696267 3.0157239 1.7875464
2.9804523 3.0349231 1.7945783
2.9646032 3.0414517 1.8058208
2.9593761 3.0343332 1.8063005
2.9615099 3.0404081 1.7917256
2.9597144 3.0403304 1.7930239
2.9454718 3.042623 1.7992545
2.9567542 3.0501907 1.7874703
2.9358473 3.049247 1.7887669
2.9366403 3.0587568 1.7940115
2.93243 3.0647972 1.7962685
2.9289396 3.0658672 1.7935842
2.9324753 3.0752983 1.7932936
2.9272478 3.0837185 1.8017559
2.9224944 3.0784941 1.7921703
2.9231603 3.0757015 1.7983898
2.9051192 3.0828996 1.802791
2.9133027 3.085619 1.7906545
2.9096966 3.091676 1.7934752
2.8873813 3.1027763 1.8017124
2.8903048 3.1139224 1.7919024
2.8954799 3.1058397 1.7990812
2.877965 3.1055603 1.7916157
2.8801541 3.1243265 1.7885008
2.8707998 3.122618 1.7960979
2.8718543 3.12586 1.7968451
2.8591225 3.1353507 1.8007388
2.8707867 3.1373205 1.8033063
2.8503084 3.1399858 1.7878915
2.8526456 3.1446426 1.7995434
2.7141743 2.9940314 1.8534608
2.7151265 3.0152378 1.8601273
2.7032523 3.0032535 1.8424989
2.7039075 3.0177877 1.8596275
2.7014425 3.027303 1.8510442
2.7065692 3.0222137 1.8617055
2.6924379 3.028739 1.8578665
2.6821952 3.0312803 1.8520125
2.6945148 3.0377011 1.8448447
2.6914141 3.0308223 1.8583609
2.6799603 3.0388806 1.8598033
2.6672716 3.0520663 1.8586717
2.6612444 3.0575583 1.8617806
2.6575837 3.0478909 1.8556551
2.6510463 3.0599492 1.8552817
2.6559205 3.0613306 1.8460616
2.6514509 3.0527818 1.8596156
2.643137 3.0581968 1.8519654
2.6489642 3.0601432 1.8469965
2.6476181 3.0832059 1.851415
2.6397831 3.079037 1.860164
2.6333857 3.0864067 1.858377
2.6258514 3.0919819 1.8583659
2.6214211 3.0781338 1.8449774
2.6108599 3.0819914 1.8599432
2.6199203 3.0949712 1.8525919
2.5997555 3.1077344 1.8529996
2.6131399 3.0964425 1.855136
2.5988688 3.1152408 1.8555386
2.5996239 3.116962 1.8553295
2.5847924 3.1151218 1.847283
2.5787046 3.1111631 1.8429439
2.5908251 3.1239538 1.8605235
2.5829294 3.1166034 1.8606046
2.58164 3.1229858 1.8608991
2.5753117 3.1227281 1.8505347
2.5616269 3.1266098 1.8493013
2.5683448 3.148185 1.8531494
2.5571942 3.1398034 1.8521755
2.5464413 3.1364965 1.8493084
2.5554743 3.1426823 1.8609929
2.4157803 2.9974566 1.9002633
2.4126267 2.9981709 1.9135814
2.4070482 3.0153294 1.915959
2.4015462 3.0155435 1.901135
2.4163339 3.0137787 1.9024751
2.4007525 3.0226839 1.9041252
2.403933 3.0226669 1.9037845
2.3909571 3.0358641 1.9115028
2.3970025 3.0226781 1.9123605
2.3801763 3.0428996 1.9158567
2.3750298 3.0284824 1.9002393
2.3740025 3.0350871 1.9019694
2.3662884 3.0402932 1.8974969
2.3609474 3.0441823 1.9098834
2.3607776 3.0470486 1.8971556
2.3619437 3.0585275 1.9099897
2.3647552 3.0573859 1.8994693
2.3472214 3.0674717 1.8988142
2.3574011 3.0678113 1.9016473
2.3484342 3.0755372 1.9013821
2.3429589 3.0623341 1.9033854
2.3418617 3.0723255 1.9086852
2.3224902 3.0788295 1.915889
2.3186417 3.0842235 1.9036856
2.3271747 3.073684 1.9110578
2.3229756 3.0885506 1.9066247
2.3116064 3.0904734 1.8977712
2.3097119 3.0991123 1.9157311
2.307158 3.102185 1.9107636
2.3074327 3.1005495 1.9102614
2.2874377 3.0977015 1.9133013
2.2894416 3.0980244 1.9030838
2.296741 3.1032476 1.9161273
2.2912395 3.1088991 1.9113282
2.2735302 3.1073651 1.9127585
2.2831888 3.1259177 1.9058304
2.26841 3.1173911 1.8976065
2.2647731 3.1312649 1.9148084
2.2590916 3.126884 1.911876
2.2484384 3.1270816 1.9041072
2.2572787 3.1315923 1.9102958
2.2491543 3.1424193 1.9136183
2.2508082 3.1448627 1.8989813
2.2455013 3.146126 1.9068191
2.2353907 3.1540062 1.9099519
2.2267063 3.1558752 1.9084729
2.2310894 3.1473 1.9153086
2.2272441 3.1594269 1.9128656
2.2205966 3.1502161 1.9028952
2.2110121 3.1546998 1.909982
2.1037123 3.0146692 1.9535918
2.0927594 3.0084243 1.9697537
2.0851252 3.0081947 1.9652369
2.0828497 3.0070236 1.9588675
2.0884082 3.020112 1.9572684
2.0770953 3.0288901 1.9544343
2.0642993 3.0264299 1.9599273
2.0783353 3.0245075 1.9544559
2.0699239 3.0203249 1.9566878
2.0515385 3.0309494 1.9603243
2.0602355 3.0286124 1.9585638
2.0573916 3.0395026 1.9676448
2.0507057 3.0469422 1.9535882
2.039499 3.0362945 1.9554588
2.041919 3.055397 1.9675214
2.1493516 3.2073574 1.9103253
2.1471069 3.210896 1.9029315
2.1303511 3.2126741 1.9107368
2.1281197 3.2102487 1.9114867
2.1281161 3.2136495 1.8999946
2.1117449 3.2299631 1.9033046
2.1136091 3.2276525 1.9146497
2.1045501 3.2228799 1.9105856
2.1014304 3.231128 1.9130306
2.1001773 3.2460277 1.9117409
2.0909829 3.2459798 1.8996058
2.099735 3.2481501 1.908035
2.081089 3.2380319 1.9152746
2.0902445 3.2501535 1.8971272
2.0801461 3.246747 1.8994253
2.0785511 3.2514486 1.9150878
2.0802624 3.2624981 1.9054971
2.0733147 3.2689762 1.908197
2.0622988 3.2568269 1.9162151
2.0537241 3.26792 1.9162087
2.0438554 3.2743185 1.9132369
2.0418479 3.2739732 1.9095238
2.0482655 3.2794902 1.9127877
2.1433432 3.4419901 1.8501273
2.138617 3.4357338 1.8563149
2.1361847 3.4524024 1.8443179
2.1294107 3.4553061 1.8604906
2.1130421 3.4557898 1.860268
2.1193693 3.44979 1.8450288
2.1137102 3.4597509 1.8580219
2.1080408 3.4643834 1.8545591
2.0993953 3.4715519 1.8479028
2.0870328 3.469686 1.8439218
2.0979302 3.4660251 1.85629
2.08131 3.4624217 1.8594313
2.0908732 3.481174 1.8562773
2.0684354 3.4779446 1.85307
2.0821664 3.4831426 1.8473961
2.0756707 3.4794681 1.8527786
2.0539317 3.4949391 1.8451852
2.065182 3.4895492 1.8592938
2.0529652 3.5003264 1.8576477
2.0540884 3.5035579 1.8512186
2.0512264 3.5025074 1.8582186
2.1373217 3.67588 1.803565
2.1297293 3.677561 1.7999141
2.1189787 3.6816366 1.790144
2.1250167 3.6842799 1.8026887
2.1053767 3.6852679 1.7886827
2.111115 3.6893618 1.7872782
2.1092558 3.6895542 1.7976209
2.1015012 3.6823826 1.795885
2.0920963 3.6811907 1.7945313
2.0962584 3.7019973 1.7892848
2.0874164 3.6971707 1.7883569
2.0790637 3.6898525 1.8061464
2.0670559 3.696888 1.8050553
2.065274 3.6950705 1.8036582
2.0560329 3.6987259 1.8003072
2.0527816 3.7132368 1.7981151
2.0481219 3.7110095 1.7931877
2.0538011 3.7261529 1.7981682
2.130126 3.8856142 1.7438964
2.132472 3.885906 1.7426718
2.1295674 3.902493 1.7337217
2.1257308 3.8958685 1.7345613
2.1196797 3.9023812 1.7395519
2.1125333 3.9122612 1.7398474
2.1039855 3.8980532 1.7409281
2.092083 3.9057512 1.7336565
2.0979841 3.9139507 1.7413018
2.0789537 3.9129941 1.7412418
2.0848999 3.9211462 1.7492083
2.071717 3.9170527 1.7345037
2.0773056 3.9154673 1.7334309
2.07394 3.935462 1.7427853
2.0514102 3.9348264 1.7357123
2.0538669 3.9324694 1.7355865
2.0566149 3.9269936 1.7383276
2.128798 4.1057873 1.6907022
2.125109 4.1053033 1.6835133
2.1290607 4.1112304 1.6924657
2.1129489 4.1085482 1.6866753
2.104799 4.1181321 1.6939043
2.1019409 4.1187582 1.6766683
2.0980055 4.1214752 1.6765553
2.0834205 4.1271234 1.6929425
2.0817585 4.1406932 1.684116
2.0799668 4.1424799 1.686965
2.0809119 4.1335645 1.6950276
2.0693748 4.1466751 1.6796496
2.0706444 4.1494575 1.6872497
2.0608625 4.1418514 1.689227
2.0452864 4.151823 1.6778554
2.1216984 4.3172197 1.6290379
2.1158662 4.3319836 1.6351674
2.1099169 4.3379021 1.6240363
2.1203508 4.3279023 1.6235743
2.101954 4.3418584 1.6220063
2.1064022 4.3425112 1.6286384
2.0989087 4.3373823 1.6255046
2.0960333 4.3392835 1.6222844
2.0807538 4.3571658 1.6285976
2.0674477 4.3452396 1.62203
2.0627661 4.3507342 1.6254632
2.0644097 4.3564129 1.6407058
2.0521789 4.3621631 1.6389209
2.0488129 4.3643723 1.6241984
2.1263554 4.5483885 1.5853559
2.1207082 4.5488238 1.5793923
2.1216891 4.5478029 1.5853877
2.0995319 4.5499468 1.5703799
2.0941505 4.5428567 1.570359
2.0950782 4.5485091 1.5755252
2.0894344 4.5555325 1.5833071
2.0872197 4.5502563 1.5738978
2.0802433 4.5588102 1.5673772
2.0714784 4.5700631 1.5802122
2.0679867 4.5635529 1.5800437
2.0607955 4.5777116 1.577361
2.1260815 4.7546854 1.5155694
2.1186688 4.7604213 1.5281371
2.1162443 4.7471042 1.5306913
2.1137948 4.7610464 1.5159836
2.0965073 4.7556815 1.525394
2.086998 4.7544413 1.5266318
2.0880749 4.7725697 1.513536
2.0826275 4.768281 1.5288141
2.0700109 4.7668529 1.5147121
2.0772216 4.7845893 1.5119076
2.0617456 4.7755275 1.5277106
2.0596211 4.7856627 1.526297
2.1255536 4.95679 1.4734759
2.1182961 4.9553866 1.4668102
2.1163266 4.9633174 1.4718543
2.1037636 4.9683642 1.4727429
2.0924342 4.9811172 1.4688535
2.0880051 4.9750562 1.4577782
2.0788498 4.983016 1.462387
2.0755885 4.984828 1.4618541
2.0695188 4.9778094 1.4693902
2.059248 4.995316 1.4642011
1.6088235 -4.9351792 1.5173904
1.6198848 -4.918612 1.5301707
1.626458 -4.9239779 1.5145239
1.6403257 -4.9264827 1.5303212
1.6317717 -4.9151378 1.5235944
1.6464524 -4.9176641 1.5147519
1.6560177 -4.9127803 1.5156044
1.6608932 -4.9030666 1.5115029
1.6745348 -4.9124289 1.5135959
1.6142387 -4.7157588 1.5742759
1.6241148 -4.727963 1.575948
1.6170756 -4.7159882 1.5719442
1.6428137 -4.724319 1.5803217
1.6329018 -4.705658 1.5839318
1.6387839 -4.722424 1.5766145
1.6579362 -4.7113786 1.5844895
1.6682427 -4.7176342 1.5749565
1.6593984 -4.7058778 1.5728364
1.6664494 -4.7073393 1.5790434
1.6113807 -4.5130734 1.6326612
1.6257985 -4.5168276 1.6366847
1.6218853 -4.5142174 1.6304303
1.6339651 -4.5124626 1.6335832
1.6344191 -4.5072098 1.6331259
1.6384802 -4.5026622 1.6336223
1.6552207 -4.5055456 1.6228746
1.6598331 -4.5047035 1.6235725
1.6749092 -4.4992833 1.6337191
1.6678619 -4.4933858 1.6400868
1.6202853 -4.324626 1.6923341
1.6176579 -4.3081493 1.6834346
1.6190509 -4.3218975 1.6948906
1.6341863 -4.309875 1.6858382
1.6324714 -4.3037043 1.6797663
1.6502961 -4.2997746 1.6959614
1.648614 -4.3054042 1.6869829
1.656181 -4.2927175 1.676548
1.6644427 -4.2912474 1.6892262
1.6628476 -4.3031139 1.6854855
1.6676173 -4.3021107 1.6878868
1.669484 -4.2897663 1.6845247
1.6127034 -4.1029081 1.7403121
1.6168702 -4.1061864 1.7507179
1.6319813 -4.0972023 1.7450289
1.6410174 -4.0964127 1.7409952
1.6462454 -4.1033211 1.7490497
1.6424918 -4.1086755 1.7475001
1.6483001 -4.0917783 1.7451214
1.6467834 -4.1024823 1.7485679
1.6615226 -4.0944204 1.7507018
1.6586602 -4.0904913 1.7428554
1.6724323 -4.0795956 1.7403851
1.6868417 -4.0902762 1.7323925
1.6189176 -3.9136305 1.8062794
1.6177889 -3.9117434 1.8035492
1.6126233 -3.9103627 1.7916427
1.6355091 -3.8984671 1.7921057
1.6368423 -3.8864908 1.7871823
1.6357934 -3.9017565 1.7892629
1.6381881 -3.8880043 1.7971059
1.6427134 -3.8828332 1.8065698
1.6593891 -3.889605 1.8046139
1.6535914 -3.8876796 1.7896534
1.6597978 -3.8866508 1.791051
1.664741 -3.8722079 1.7920977
1.6669508 -3.8683844 1.7922794
1.6772507 -3.867126 1.8021035
1.6118098 -3.6934819 1.8567897
1.6173966 -3.7029381 1.858795
1.6250608 -3.695441 1.8522763
1.6205648 -3.6888573 1.848645
1.6255296 -3.6910334 1.8559504
1.6285354 -3.6844392 1.8428824
1.6365775 -3.6770675 1.8485366
1.646014 -3.6901784 1.8463196
1.6564939 -3.686502 1.8456043
1.6471524 -3.6779449 1.8438183
1.6676319 -3.6640441 1.8568393
1.6676474 -3.6697228 1.8581663
1.669665 -3.6729007 1.8447452
1.6851606 -3.6657345 1.8556554
1.6770217 -3.6587605 1.8421302
1.696185 -3.6539347 1.8529325
1.6221528 -3.4914634 1.9039792
1.6136518 -3.479569 1.9044871
1.6229305 -3.4823391 1.9063832
1.6314911 -3.4795926 1.9145408
1.6382623 -3.4815044 1.9142965
1.6380513 -3.4685359 1.9060636
1.6391642 -3.4786816 1.9123358
1.6468529 -3.4784601 1.9034499
1.6454484 -3.4715028 1.8992065
1.6505158 -3.4705043 1.8974506
1.666382 -3.4685326 1.9010663
1.658145 -3.4599333 1.9143356
1.6704125 -3.466924 1.9025869
1.6845731 -3.4502192 1.9113307
1.6868879 -3.4516056 1.9159012
1.6889551 -3.4580617 1.9111722
1.6827862 -3.448261 1.9140227
1.6186372 -3.2828212 1.96996
1.6096069 -3.276556 1.9554193
1.6163299 -3.2700701 1.959582
1.621294 -3.2725616 1.9634144
1.6298707 -3.2681301 1.9535373
1.6317134 -3.256268 1.9543542
1.6418043 -3.2550793 1.9695534
1.640636 -3.2564063 1.9610373
1.6440347 -3.260493 1.9637291
1.6427014 -3.2555728 1.9538794
1.6642153 -3.2553732 1.9543171
1.6665165 -3.2487803 1.9587818
1.6742738 -3.2400372 1.9674877
1.6661906 -3.2509 1.9714514
1.6819366 -3.2377532 1.957589
1.6878022 -3.2473273 1.953325
1.6744814 -3.2313707 1.9679798
1.6963565 -3.2411401 1.959031
1.6897123 -3.232065 1.9637126
1.7057567 -3.2288742 1.9710252
1.6919479 -3.2287171 1.9562418
1.6985737 -3.2308035 1.9657495
1.7096608 -3.2296739 1.961692
1.7094505 -3.2211657 1.9644568
1.7132006 -3.2214463 1.9580476
1.7230849 -3.2203929 1.9597369
1.7287021 -3.2171891 1.9550492
1.7289704 -3.2166352 1.958252
1.7402868 -3.2072475 1.9681836
1.7362813 -3.2063341 1.9589535
1.739585 -3.2037446 1.9675215
1.7481021 -3.1990414 1.971638
1.7461233 -3.2077599 1.9545124
1.7600837 -3.2011943 1.9635172
1.7568054 -3.1953804 1.9698572
1.7671146 -3.1841812 1.95486
1.7791097 -3.1918604 1.9606699
1.7864136 -3.1837633 1.9646307
1.7769166 -3.1888385 1.95557
1.777348 -3.1824045 1.9650071
1.7885458 -3.1771488 1.9546118
1.7883083 -3.1678548 1.9664916
1.7921835 -3.1650147 1.9672184
1.7989298 -3.1726863 1.9720705
1.8146774 -3.1681044 1.9602892
1.8167614 -3.1576786 1.9572542
1.8238447 -3.159719 1.9640807
1.8167344 -3.1589139 1.9565387
1.8335814 -3.1520603 1.9614497
1.8413641 -3.1492267 1.9703166
1.8385804 -3.1596432 1.961955
1.8453978 -3.1547413 1.9603966
1.8440914 -3.1504054 1.9591817
1.8435084 -3.1437604 1.9677924
1.8477737 -3.1458018 1.9584758
1.8602542 -3.1501894 1.9570699
1.869696 -3.1319208 1.9711019
1.8659608 -3.1451857 1.9634115
1.87468 -3.1260233 1.9600406
1.8683066 -3.1234946 1.9569633
1.8707964 -3.1281626 1.9609236
1.884921 -3.1304221 1.9672331
1.8974835 -3.1183939 1.9553201
1.8888274 -3.1113505 1.9674873
1.8887784 -3.1244404 1.9550425
1.8994092 -3.1094449 1.9556328
1.9086303 -3.1093984 1.9719087
1.9118797 -3.117475 1.9523305
1.9074349 -3.1012168 1.9693191
1.9196155 -3.0957122 1.9662348
1.9287152 -3.0920944 1.9558749
1.9217714 -3.0987256 1.9606417
1.9411334 -3.0971634 1.9548169
1.9285786 -3.0886233 1.9534094
1.9481874 -3.0844946 1.95628
1.9353474 -3.0940936 1.971508
1.943094 -3.0788264 1.964138
1.9471128 -3.0846608 1.9660411
1.9515495 -3.0792875 1.9615461
1.9529711 -3.0860775 1.9598931
1.9713045 -3.0681076 1.9591892
1.9792743 -3.0814178 1.9691796
1.972007 -3.0596988 1.9580513
1.9789113 -3.0748634 1.9527763
1.9844041 -3.0547442 1.9689373
1.9927636 -3.0517864 1.9528004
1.9963473 -3.0653994 1.9692258
1.9925572 -3.0593076 1.9571058
2.0106661 -3.0530889 1.9676419
2.0042763 -3.0497549 1.9686654
2.0162294 -3.0523899 1.9649296
2.0074749 -3.0513537 1.9651486
2.008707 -3.0418797 1.9643455
2.0188067 -3.0297923 1.9656308
2.0236275 -3.0364993 1.9642822
2.0246053 -3.03913 1.9631324
2.0294423 -3.0224562 1.9656045
2.0307007 -3.0338483 1.9713975
2.0398352 -3.0314033 1.9606322
2.0395019 -3.0196159 1.970418
2.0601881 -3.020139 1.9547797
2.0571346 -3.0136769 1.9573828
2.054296 -3.0102389 1.9666592
2.0706501 -3.0009534 1.9652162
2.0682857 -3.0110955 1.9542536
2.0645688 -3.0045042 1.9578416
2.0796978 -2.9973161 1.9552788
2.0772951 -2.9931064 1.9584932
2.0806813 -3.0039945 1.9613165
2.0932982 -2.9994447 1.9530847
2.20539 -3.1563139 1.9063346
2.2123666 -3.1424234 1.8983394
2.2219419 -3.1355879 1.9109221
2.2207894 -3.1366105 1.9099243
2.2181897 -3.144206 1.9159126
2.224623 -3.1397228 1.9056147
2.2346399 -3.124311 1.8996211
2.2420897 -3.1354983 1.9149479
2.2327497 -3.1274915 1.9164912
2.2462285 -3.1110561 1.899683
2.2514713 -3.1164064 1.9009793
2.2451062 -3.1191804 1.9130999
2.250742 -3.1167755 1.9089836
2.2689557 -3.0999148 1.9007661
2.2661674 -3.1100416 1.9018685
2.2693632 -3.0981185 1.9043633
2.2822564 -3.1005576 1.899173
2.2691517 -3.0999212 1.8996927
2.2913692 -3.0929954 1.9051099
2.2951257 -3.0969567 1.9038472
2.2820697 -3.0800371 1.9141129
2.2903054 -3.0738397 1.8984772
2.2906573 -3.0863595 1.9021128
2.3068883 -3.0850141 1.8994695
2.3148973 -3.0708013 1.9035537
2.3040044 -3.0777326 1.9164093
2.3156018 -3.0561059 1.9036682
2.3220043 -3.0719151 1.9083995
2.328922 -3.0498331 1.9168866
2.3212523 -3.048317 1.8982364
2.3323157 -3.0441744 1.9133239
2.3336401 -3.0561097 1.9114209
2.3393242 -3.0520017 1.9138039
2.3486395 -3.0359671 1.9143323
2.3553069 -3.0362234 1.9058673
2.3460538 -3.0316679 1.907259
2.3696518 -3.0398064 1.9070592
2.3605042 -3.0258284 1.9078262
2.3760831 -3.0292149 1.907445
2.3801446 -3.0245483 1.9053439
2.3855515 -3.0130913 1.9041432
2.3860409 -3.0245783 1.9077594
2.3846231 -3.0146453 1.9122294
2.3855834 -3.0196564 1.909474
2.3870676 -3.0022547 1.9031966
2.4000821 -2.9983563 1.8982025
2.3944836 -2.9951057 1.9017925
2.4086807 -3.005244 1.9160767
2.40364 -2.9840398 1.9036849
2.4182136 -2.983006 1.9126639
2.5311201 -3.1306369 1.8546516
2.5425916 -3.1319885 1.8569916
2.5576744 -3.1389759 1.8459514
2.5572221 -3.1292157 1.8465811
2.5540094 -3.1221805 1.8612872
2.5645144 -3.1263342 1.8565608
2.5700204 -3.120286 1.8517481
2.5791113 -3.1042349 1.8534545
2.5824816 -3.1174147 1.8530166
2.5734549 -3.1002061 1.8502581
2.5734022 -3.0947106 1.8463527
2.5904791 -3.1021283 1.8575613
2.5898912 -3.0988436 1.8582422
2.5982578 -3.0803859 1.8451363
2.607249 -3.0895114 1.8555131
2.6109416 -3.0924969 1.8581772
2.6099024 -3.0743368 1.8433245
2.6040456 -3.0714407 1.8609518
2.61989 -3.069525 1.8618221
2.6152916 -3.0609815 1.8563178
2.6279294 -3.0568306 1.8527198
2.636657 -3.0599382 1.8581086
2.6365879 -3.0479641 1.8431809
2.6371946 -3.0519488 1.8431032
2.6446903 -3.0512621 1.8502866
2.6425576 -3.0511982 1.8508649
2.6430838 -3.0364838 1.8459779
2.6487522 -3.0319312 1.860355
2.6520429 -3.0358338 1.8530103
2.6561987 -3.0286303 1.8505656
2.6748447 -3.0330784 1.848622
2.6698878 -3.0330839 1.8599153
2.6703146 -3.0174382 1.8595208
2.6758084 -3.0254602 1.8514743
2.6812191 -3.0102563 1.8604407
2.6938081 -3.0014491 1.8457916
2.6869702 -2.9963746 1.8421714
2.6952403 -3.009886 1.8594124
2.6978819 -3.0043554 1.8490533
2.7131736 -2.998913 1.8421944
2.7060153 -2.9990628 1.8471782
2.8457229 -3.1311111 1.7932944
2.848103 -3.1240728 1.8064821
2.8500831 -3.1157634 1.7879206
2.864011 -3.1262608 1.8008304
2.8669002 -3.1083813 1.7988085
2.8751342 -3.1015468 1.7981162
2.8797426 -3.1106443 1.8001621
2.8815866 -3.1012969 1.803982
2.8730657 -3.1008489 1.7894822
2.8776805 -3.0917454 1.7910644
2.8872736 -3.0959299 1.7995323
2.8981237 -3.082109 1.7910788
2.9021561 -3.0906773 1.7869687
2.9076214 -3.0696812 1.7883893
2.9059908 -3.0701542 1.8037112
2.9023328 -3.0667458 1.8018832
2.9179769 -3.0630758 1.7869673
2.9156611 -3.0619035 1.7974026
2.9171596 -3.0535877 1.8042834
2.9241526 -3.0449877 1.796259
2.9327221 -3.0511193 1.8000357
2.9297538 -3.0507197 1.7936126
2.9383264 -3.0506015 1.7945946
2.9427829 -3.0293255 1.7925401
2.9486547 -3.0339825 1.8059738
2.9498422 -3.0265944 1.7987713
2.9491961 -3.027853 1.7911879
2.9536285 -3.0157127 1.8007203
2.9684906 -3.0263536 1.7945056
2.9702275 -3.0142756 1.7928224
2.9639342 -3.0178964 1.8009326
2.9814119 -3.0087481 1.805362
2.9724607 -2.9952843 1.8058231
2.9844859 -3.0016148 1.8034675
2.9944506 -2.9863195 1.7923565
3.1334751 -3.1303217 1.7493825
3.1298494 -3.1227689 1.7361864
3.1386344 -3.1150119 1.7510142
3.1369457 -3.1166153 1.751079
3.1490359 -3.1006985 1.7390938
3.1594369 -3.0952857 1.7393539
3.1579423 -3.0966001 1.7446225
3.1608708 -3.0910649 1.7392092
3.1642542 -3.0976985 1.7433138
3.1652758 -3.0785546 1.7385563
3.1751804 -3.0802004 1.7418789
3.1772516 -3.0698378 1.7483954
3.1861205 -3.0750506 1.7383043
3.189811 -3.0663059 1.7422389
3.1935601 -3.069819 1.7377135
3.1853178 -3.0672727 1.7342179
3.1973295 -3.0505569 1.745019
3.1946034 -3.0552423 1.7369599
3.2064579 -3.0408678 1.7378664
3.2024107 -3.049789 1.7335094
3.2135999 -3.0331166 1.7430936
3.2281053 -3.0386782 1.7386211
3.229121 -3.0196695 1.7445107
3.2200391 -3.0212631 1.7347134
3.2348857 -3.0233941 1.736966
3.2452006 -3.0180478 1.7373215
3.2320137 -3.0049639 1.7499435
3.2496216 -2.9988737 1.733425
3.2591641 -3.0051908 1.7468199
3.2496068 -2.9998105 1.7468265
3.2556863 -2.9874904 1.7390325
3.4127436 -3.1151569 1.686051
3.4041038 -3.1155977 1.6827401
3.4213467 -3.1093507 1.6933447
3.4087858 -3.0924809 1.6773216
3.4184709 -3.0895138 1.6821423
3.4285047 -3.083945 1.6955383
3.431154 -3.0849736 1.6905099
3.4372783 -3.0806582 1.6946442
3.4367905 -3.0700929 1.6796327
3.4363027 -3.0776343 1.6924092
3.4480143 -3.0736983 1.6832304
3.4418845 -3.0627575 1.6888695
3.4524372 -3.0589223 1.6960084
3.4535878 -3.0519898 1.6952637
3.4587085 -3.0397079 1.6927265
3.4686432 -3.0417209 1.6909926
3.471967 -3.0454063 1.6834586
3.4702559 -3.0272832 1.695462
3.4726722 -3.0339568 1.6932472
3.4800701 -3.02542 1.6787014
3.4802377 -3.0294671 1.6832958
3.49122 -3.0239327 1.6940295
3.5078344 -3.0121276 1.6837907
3.5115812 -3.0034473 1.6956704
3.5145762 -2.9939148 1.6950125
3.5150273 -2.9987097 1.6875161
3.5137377 -2.9844358 1.6915027
4.5483675 -3.8499126 1.3027467
4.5527525 -3.861994 1.3085018
4.554914 -3.8509104 1.2979443
4.562521 -3.8438854 1.2984844
4.5547132 -3.8300982 1.2996979
4.57763 -3.823909 1.3078493
4.5702996 -3.8181796 1.299808
4.5748396 -3.8136544 1.2964205
4.5787134 -3.8128707 1.3033532
4.5950813 -3.7975621 1.2996691
4.595427 -3.7952633 1.2994031
4.5930357 -3.7939701 1.3007236
4.6163907 -3.7758977 1.306788
10.007163 -0.30983424 0.13966072
10.007581 -0.29289258 0.14648409
10.000749 -0.29436094 0.14450285
9.9981327 -0.26969355 0.13383736
10.010236 -0.24764755 0.1337586
9.9979439 -0.24476059 0.13783371
9.8212376 -0.2151317 0.19937059
9.8092041 -0.21661337 0.19675379
9.8094082 -0.18863873 0.18811224
9.8210516 -0.18232666 0.19883622
9.8058243 -0.17309546 0.19182773
9.6211433 -0.1606304 0.24295692
9.6154823 -0.13894367 0.24351946
9.627821 -0.12027444 0.25479737
9.6294756 -0.10988509 0.25416872
9.6310329 -0.092150219 0.26247397
9.6166458 -0.079273403 0.26185626
9.4363909 -0.077101022 0.301218
9.4257383 -0.056938354 0.29972145
9.426425 -0.045411915 0.31085041
9.4378176 -0.029372929 0.31752366
9.422184 -0.02603651 0.29971826
9.422513 -0.0085793063 0.31018037
9.2502394 0.0027630224 0.42854953
9.2623711 0.013591981 0.421231
9.2538557 0.045816146 0.43822736
9.2536278 0.04351062 0.43468034
9.2527637 0.053065393 0.43823919
9.0634565 0.070518762 0.48254898
9.0652771 0.089649916 0.49149254
9.0582085 0.10010693 0.48332271
9.0577965 0.11488128 0.48533687
9.0595608 0.12995528 0.49165571
9.0717688 0.14589144 0.47441873
9.0596724 0.15396763 0.47509992
8.8676214 0.15032767 0.52883494
8.8651714 0.1694629 0.53361326
8.8791571 0.18779701 0.53503579
8.8766851 0.18954483 0.542346
8.8647642 0.21320979 0.53614593
8.8617706 0.22992083 0.54776156
8.8705893 0.2263512 0.5415104
8.668828 0.23958552 0.59143275
8.6659527 0.25003687 0.59091014
8.665823 0.26857603 0.5858233
8.666358 0.26788449 0.58768386
8.6668711 0.2849586 0.59630865
8.6721449 0.29625127 0.59089696
8.6788254 0.30532137 0.59486276
8.4802809 0.31574643 0.64386398
8.4880466 0.33018482 0.64346629
8.4874115 0.33374369 0.64712983
8.4805098 0.34843719 0.63676888
8.4697723 0.36058408 0.64475989
8.4784966 0.37294739 0.63919115
8.4821167 0.38620833 0.64083254
8.2751417 0.39148837 0.70119047
8.2892265 0.41104329 0.70700336
8.2778845 0.41769123 0.68978953
8.2904921 0.41874236 0.69789636
8.2783442 0.42799655 0.70861489
8.2857819 0.45706949 0.69106603
8.2768679 0.45970994 0.6963852
8.2775764 0.4720999 0.70202637
8.0939302 0.48269477 0.76194715
8.0970449 0.48818305 0.74956495
8.0817842 0.49967185 0.75951314
8.0931263 0.50578594 0.75746304
8.0902643 0.52111363 0.75050831
8.0901737 0.52962071 0.75305301
8.0781746 0.54656792 0.75330102
8.0768776 0.5515576 0.75107187
8.0780153 0.56825322 0.75993401
7.892282 0.55285603 0.80337816
7.8843684 0.5799644 0.80315131
7.8826194 0.59084004 0.7971347
7.8884735 0.58712429 0.8113299
7.8842597 0.59543467 0.80036306
7.8779812 0.62158406 0.81344879
7.8847322 0.6283586 0.80376738
7.8740125 0.64386517 0.7997601
7.8835254 0.65882218 0.80947036
7.8907943 0.65568084 0.80460519
7.8869095 0.67976016 0.80651075
7.8727131 0.67670149 0.80452406
7.8782749 0.69268507 0.80241352
7.8778043 0.69532865 0.8055889
7.8715138 0.71458054 0.80607748
7.8742414 0.72839046 0.80171937
7.870039 0.7298038 0.81314093
7.8761396 0.74136513 0.80907536
7.8782182 0.76332247 0.80897439
7.8699913 0.77344668 0.81474084
7.876884 0.78059983 0.81359673
7.8656673 0.79448569 0.79840529
7.8724484 0.79487735 0.80821013
7.8771033 0.81575823 0.80967253
7.8649187 0.83132344 0.79940212
7.8732071 0.83060622 0.81195843
7.8571219 0.84669214 0.81494617
7.8724432 0.84989989 0.79851472
7.8636837 0.87622213 0.81306165
7.8548079 0.87536913 0.80675524
7.8516831 0.88247561 0.81662589
7.8673992 0.8994472 0.80940777
7.8479085 0.90429717 0.81160831
7.8582072 0.91491497 0.80371821
7.8499527 0.9344759 0.80042338
7.8514128 0.94346857 0.80544293
7.8454142 0.95753485 0.81558168
7.8423877 0.96809614 0.79796308
7.8429146 0.97108704 0.81570321
7.8379731 0.98640639 0.80162853
7.8467097 0.99982077 0.80370027
8.0363941 1.0345969 0.75804484
8.0277185 1.0469884 0.76002312
8.0412273 1.0509439 0.76166427
8.0268316 1.0679259 0.75191331
8.0291243 1.0876641 0.76020372
8.0364218 1.0827148 0.75161088
8.0338421 1.0960654 0.76263171
8.0336275 1.1112849 0.74569762
8.0311384 1.1229197 0.75313908
8.0145588 1.1446637 0.74305296
8.0200348 1.1463875 0.75239199
8.0135803 1.1608728 0.7429176
8.0090885 1.1703203 0.74619585
8.0062227 1.1868397 0.7552554
8.0135899 1.1871363 0.75285441
8.0092316 1.1962295 0.75430733
8.0162659 1.2242581 0.75791639
8.0143042 1.2336035 0.74555242
8.0153942 1.2420057 0.75363302
8.0039091 1.2553902 0.75226957
8.0023222 1.2558285 0.76144391
8.0100594 1.2714057 0.7539199
8.0083055 1.2841001 0.74466187
7.9898152 1.2955526 0.76074415
8.0003691 1.2960123 0.74594605
7.9885058 1.3137697 0.74906659
7.9980803 1.3202319 0.74904346
7.9912481 1.3464196 0.74719584
7.9920363 1.3553988 0.76258284
8.1708364 1.3867371 0.70644879
8.1782656 1.4063611 0.69333076
8.1748533 1.4154708 0.7046296
8.1639013 1.4245919 0.69746482
8.1636753 1.4370024 0.69059718
8.1595154 1.4417621 0.6930365
8.1605415 1.4564698 0.70208281
8.1646729 1.4625784 0.70644343
8.1687641 1.4836971 0.70584649
8.1509924 1.4874617 0.70308614
8.148592 1.5019529 0.70839781
8.1637821 1.5258071 0.70193094
8.1458378 1.5281987 0.69317394
8.1591768 1.5416037 0.70214081
8.1453352 1.556764 0.69212383
8.1446095 1.569762 0.69547486
8.1463079 1.5657994 0.7021448
8.1370363 1.5879967 0.70353746
8.1321096 1.596331 0.69466555
8.1465712 1.6089544 0.69817805
8.1382551 1.621254 0.7048043
8.1352358 1.630836 0.70391029
8.1257334 1.6445825 0.69403642
8.1274576 1.6537923 0.70619899
8.1181335 1.6713004 0.70215636
8.1187763 1.6702394 0.69974905
8.3114109 1.7320473 0.64827919
8.3019886 1.728036 0.64139056
8.3139429 1.7413017 0.65148282
8.2970085 1.7512473 0.64284807
8.3035707 1.7751124 0.65516573
8.2967434 1.7782087 0.64572138
8.2890062 1.7940694 0.63868254
8.291378 1.8139373 0.64951575
8.2858973 1.8267794 0.64652258
8.2963572 1.8225785 0.65113705
8.2843933 1.8446858 0.64723247
8.274684 1.8597713 0.64772844
8.2780704 1.8692273 0.64990526
8.271533 1.8841821 0.65044624
8.2763443 1.8881481 0.64327431
8.2734575 1.9077516 0.64762414
8.2611094 1.9020985 0.63626355
8.2617073 1.9213151 0.65320325
8.2731218 1.9375637 0.65142095
8.2615271 1.9468017 0.65387714
8.2545309 1.9666218 0.64688361
8.2636137 1.9592944 0.64342195
8.2531767 1.9779311 0.6378665
8.4322071 2.0376601 0.58197922
8.4443932 2.0400357 0.59225571
8.42939 2.0621505 0.59059674
8.4387207 2.0745597 0.59174943
8.4366741 2.0902247 0.60058701
8.4315519 2.0999787 0.59414536
8.4246302 2.1008282 0.58541757
8.4201479 2.117388 0.58498961
8.4086561 2.1257534 0.5857178
8.4136858 2.1464205 0.59356993
8.4131441 2.1615655 0.58460599
8.4104395 2.17173 0.58625132
8.397994 2.1697419 0.59824884
8.4038744 2.1799507 0.59089708
8.3908901 2.1909962 0.58745587
8.3867273 2.2198179 0.58201808
8.3961067 2.2246335 0.58568358
8.3967419 2.2278988 0.59416658
8.3769331 2.2426209 0.59927678
8.3778362 2.2653377 0.59331983
8.3865747 2.2704937 0.59077817
8.366333 2.2759423 0.58667535
8.5535555 2.3427272 0.53512233
8.5468531 2.3479137 0.53580135
8.5527821 2.363163 0.53581274
8.555253 2.3773122 0.53293699
8.5522699 2.3839197 0.5431723
8.5329351 2.4142578 0.54497296
8.5420675 2.4078984 0.52979976
8.536293 2.4255698 0.54565191
8.5245447 2.4351239 0.53497308
8.5302391 2.4475968 0.53806013
5.0501113 3.572933 1.2838494
5.0474086 3.5737123 1.2827854
5.0263777 3.5837035 1.2889693
5.0214438 3.597811 1.2877749
5.0260859 3.6059611 1.2941666
5.0262947 3.6100409 1.2848188
5.0035272 3.6032329 1.2955961
5.0162897 3.6097298 1.2826984
5.0056391 3.6323357 1.2955335
5.0046229 3.6246281 1.2966594
4.9943376 3.6492054 1.2891619
4.992806 3.6560495 1.295421
4.9902005 3.646841 1.2846551
4.9737692 3.6576877 1.2809875
4.9761338 3.6581743 1.298468
4.9648809 3.6838777 1.2930331
4.0358253 3.00334 1.6162446
4.0269442 3.0077884 1.6165292
4.0251579 3.0066249 1.612446
4.0161986 3.0094936 1.6136882
4.0083575 3.0071349 1.6125479
4.013011 3.0283122 1.6112988
4.0039163 3.0319617 1.6138954
4.0040474 3.024267 1.6204001
4.0005031 3.0440338 1.6204596
3.9944317 3.0376539 1.6192982
3.9829175 3.0557792 1.6191738
3.9921649 3.0491874 1.6178832
3.981689 3.0649805 1.6098205
3.9871221 3.0759935 1.6190237
3.9737897 3.0633526 1.6202712
3.9793096 3.07956 1.617105
3.9635723 3.0908751 1.612003
3.9704239 3.0865316 1.613627
3.9637725 3.1028624 1.6094443
3.9571731 3.0973475 1.6133142
3.9494045 3.1045523 1.6097479
3.9415038 3.1052456 1.6140339
3.7811613 3.0002654 1.6623038
3.7840588 3.0042112 1.6623025
3.7761524 2.9990897 1.6641223
3.769486 3.0037606 1.6566179
3.7796459 3.0169744 1.6749026
3.7646966 3.021328 1.6633239
3.771364 3.0233259 1.6625619
3.7538414 3.0230277 1.6707771
3.7601814 3.0392721 1.6606952
3.7429478 3.0519342 1.6658108
3.7499931 3.0397241 1.6599033
3.7515602 3.0545788 1.6726689
3.733119 3.0657012 1.6750461
3.7364905 3.0543389 1.6568327
3.7323501 3.0773261 1.6665779
3.7264872 3.0695603 1.6754272
3.729038 3.0726657 1.6610309
3.71082 3.0824597 1.6610986
3.7208099 3.0828118 1.6721789
3.7007105 3.0901561 1.6706955
3.7057197 3.1087785 1.6717821
3.7048142 3.1132083 1.6625092
3.6966672 3.1034446 1.6591505
3.6908898 3.1213069 1.6592276
3.5398352 2.9948471 1.7108358
3.5257494 3.0110321 1.7157477
3.5405061 3.014045 1.7185807
3.5208595 3.0031235 1.7260292
3.5212739 3.0064831 1.7286576
3.5127616 3.0140419 1.713464
3.5227594 3.0309155 1.7117324
3.5138366 3.0311961 1.7292765
3.5156343 3.0276496 1.7119086
3.4940662 3.0426531 1.7272607
3.4925687 3.0379932 1.7154608
3.4889321 3.0434148 1.7149208
3.4902005 3.0477676 1.7124746
3.4942951 3.0566554 1.7141938
3.4858315 3.0701454 1.7143652
3.4799898 3.079318 1.7171941
3.4789474 3.08269 1.7120007
3.4761667 3.0813482 1.7221984
3.4709234 3.0860193 1.7239656
3.4683056 3.0933444 1.7158585
3.4610331 3.1034012 1.7182193
3.4419539 3.0940571 1.7211357
3.442328 3.110224 1.723545
3.4402492 3.1147349 1.7299874
3.439883 3.1150384 1.7250714
3.4396815 3.1137629 1.724486
3.4223022 3.1157146 1.7224362
3.2774606 2.9892642 1.7679543
3.2852538 3.0115533 1.7795788
3.2748079 3.0155141 1.7737101
3.2762485 3.0164995 1.7730856
3.2600434 3.0227091 1.7783107
3.2667487 3.013603 1.7749021
3.2558565 3.0267351 1.7712101
3.2514005 3.0238245 1.7830334
3.2420223 3.0250425 1.7687987
3.2520523 3.0332181 1.7717396
3.2400262 3.0431581 1.7733577
3.2397716 3.0450599 1.7726992
3.2311351 3.0606906 1.7714421
3.2366238 3.0619435 1.7666162
3.2214816 3.0511792 1.7834519
3.2115583 3.0713141 1.7666392
3.21822 3.0647573 1.7784224
3.2011836 3.0779514 1.7827643
3.1959641 3.0859802 1.7837999
3.1965039 3.0882585 1.7684926
3.1999781 3.0827363 1.7786123
3.1850646 3.1011915 1.766127
3.189486 3.0952485 1.7647717
3.1926444 3.0990384 1.7801743
3.1709704 3.111937 1.7803234
3.166126 3.1191692 1.7761242
3.164463 3.1173265 1.7808913
3.1745768 3.1227169 1.774381
3.1690264 3.1271634 1.7714345
3.1645055 3.1364317 1.766307
3.144671 3.1334622 1.7712041
3.0184417 3.003942 1.8238494
3.0164192 2.9988852 1.83237
3.0130358 3.0012934 1.8202456
3.005049 3.0063412 1.8365905
2.9972055 3.0108638 1.8357446
2.9851573 3.018049 1.8286388
2.99787 3.0196795 1.8225121
2.9840667 3.0200975 1.8364272
2.9873114 3.0403385 1.8352115
2.9654224 3.0450952 1.8266337
2.9684248 3.0444872 1.8200805
2.9703264 3.0460293 1.8242803
2.960743 3.0483663 1.8267039
2.9590292 3.0469005 1.8299967
2.9536548 3.0617812 1.8336396
2.9474285 3.0688093 1.8203007
2.9540906 3.0727515 1.8244315
2.9346206 3.0670981 1.8248252
2.9290597 3.068902 1.8213108
2.9422777 3.0730362 1.8184097
2.9269118 3.0843973 1.8307633
2.9249873 3.0818903 1.8205277
2.9272568 3.0940363 1.8285034
2.9119444 3.0887103 1.8308938
2.919919 3.1022575 1.8240511
2.9115307 3.093832 1.8201288
2.9097981 3.1163275 1.8360469
2.8921907 3.1036179 1.8222158
2.8949711 3.1096182 1.8260988
2.8942316 3.1131124 1.830032
2.8905854 3.1255229 1.8212484
2.8792872 3.1202965 1.8258861
2.8777478 3.1416328 1.8186038
2.8641784 3.1319556 1.8219357
2.8729939 3.1345575 1.8347608
2.7252555 3.0106442 1.8888527
2.7234941 3.0115707 1.8876582
2.7176452 2.9992113 1.8897183
2.7179601 3.0139599 1.8737488
2.7221527 3.0123022 1.8772498
2.710273 3.0113368 1.8891438
2.7096047 3.0234175 1.8717997
2.7135687 3.0183084 1.8717865
2.6902452 3.0239856 1.8780967
2.690248 3.0428391 1.8830155
2.6830711 3.0480266 1.8824713
2.6962404 3.0356255 1.8790535
2.68821 3.041554 1.8794819
2.6822343 3.051981 1.8908706
2.680284 3.0507896 1.8768189
2.6618297 3.061913 1.8780249
2.6752641 3.0565672 1.8875408
2.6713493 3.0593905 1.8881828
2.6674159 3.0631001 1.8907428
2.6497877 3.071028 1.8884032
2.657073 3.0759993 1.8875036
2.6438091 3.0783653 1.8904616
2.6471221 3.0769322 1.8756125
2.6308587 3.0937595 1.8874609
2.6259785 3.0928779 1.8743943
2.6270416 3.0977881 1.8887333
2.6293056 3.1003847 1.8740147
2.6210806 3.103323 1.8784136
2.6134923 3.1065903 1.8828222
2.608459 3.1164961 1.8714646
2.6010809 3.11796 1.8813903
2.5927982 3.1104372 1.8900005
2.6074684 3.1105099 1.8735012
2.5872846 3.1186068 1.8901594
2.578944 3.1261165 1.8822718
2.5775318 3.1389873 1.8756366
2.5704536 3.1384251 1.887946
2.5686519 3.1339457 1.8795477
2.571244 3.1461914 1.8907768
2.5582397 3.137722 1.8882778
2.5538728 3.1461978 1.8836148
2.4380832 3.0010941 1.9415475
2.4324512 3.0044498 1.9421968
2.4303155 3.0119605 1.9273336
2.4248331 3.0154743 1.9363765
2.4114583 3.021925 1.9346924
2.4114437 3.0256512 1.9288546
2.4037337 3.0319345 1.9349523
2.4076209 3.0251737 1.9297162
2.4027326 3.0297773 1.9324375
2.3953404 3.0343878 1.9400675
2.4032805 3.0289311 1.928658
2.3954084 3.0420172 1.9372189
2.3881812 3.0371468 1.9299107
2.3860857 3.0509779 1.9427425
2.3730288 3.0556233 1.938657
2.378283 3.0444474 1.9349356
2.3776948 3.0497596 1.9341412
2.3631999 3.0631621 1.9432355
2.3634641 3.0558836 1.9335891
2.3664451 3.0654252 1.9252145
2.3570516 3.0671237 1.9280505
2.3562441 3.0651715 1.9406457
2.3439927 3.0802181 1.9450494
2.3444285 3.0774002 1.9399694
2.3376918 3.0857604 1.9362255
2.326865 3.0836151 1.9380026
2.3323121 3.0851259 1.9417949
2.3169606 3.096391 1.9356982
2.3106987 3.0921741 1.9390376
2.314786 3.0951965 1.9286391
2.3104939 3.0930882 1.9366657
2.3090336 3.1144397 1.9394726
2.300164 3.1078119 1.9340645
2.2956936 3.1058965 1.9425831
2.2861388 3.1215253 1.9362123
2.2928357 3.1106131 1.9444525
2.2813053 3.1294382 1.9309663
2.2735624 3.1172059 1.9255134
2.2797186 3.1230111 1.932618
2.2692099 3.1372073 1.9395255
2.2682981 3.1314194 1.9411111
2.2554085 3.128484 1.9408407
2.2653215 3.140996 1.9307411
2.2498219 3.133359 1.9355307
2.2428367 3.1404932 1.9327596
2.2494764 3.1586547 1.9358931
2.2443519 3.1496205 1.9346741
2.2257366 3.1571829 1.9380518
2.2216642 3.1552451 1.9440697
2.2246921 3.1671464 1.9411246
2.1040123 3.0047636 1.9829791
2.1157448 3.0114188 1.9850107
2.107203 3.0123484 1.9964136
2.1085577 3.0221446 1.9970448
2.0946977 3.0093257 1.9816817
2.0980625 3.0275214 1.9813575
2.0845568 3.0249712 1.9888828
2.0898283 3.0281894 1.9808601
2.0784731 3.031723 1.9877956
2.073132 3.0426764 1.9835343
2.0648417 3.0279572 1.9915235
2.0646613 3.029151 1.9832364
2.0665088 3.0459874 1.9929535
2.0597551 3.0483668 1.9895471
2.0536287 3.0410788 1.9904081
2.052135 3.0413523 1.9865565
2.0503132 3.0523207 1.9972528
2.0360129 3.0527651 1.9882712
2.1402984 3.2265179 1.9261923
2.1446786 3.2188363 1.9259228
2.1247938 3.2270808 1.9280554
2.1328936 3.2193656 1.9285091
2.1327026 3.2377222 1.9429326
2.1222243 3.2335536 1.9368745
2.1083355 3.2274909 1.9406735
2.1153035 3.2441711 1.941897
2.0984159 3.2432699 1.9312458
2.0922205 3.2523127 1.9382019
2.0970395 3.2432766 1.935625
2.0935159 3.2430973 1.9423925
2.0897186 3.2475133 1.9344368
2.0880499 3.2645142 1.9358045
2.0868309 3.2658124 1.9325734
2.0800314 3.2611253 1.9422251
2.0671697 3.2670467 1.9428713
2.0581031 3.264437 1.9372615
2.070256 3.2694447 1.9278204
2.0517535 3.2727666 1.9444984
2.0602033 3.2854207 1.9292229
2.0460722 3.2790685 1.9308569
2.0387046 3.2734406 1.9340023
2.144783 3.4544644 1.8775096
2.1305907 3.4551456 1.8731635
2.1331632 3.4535601 1.8812445
2.1253831 3.4636502 1.8723674
2.1182454 3.4692152 1.8780074
2.1054935 3.471478 1.8857884
2.1032965 3.4597878 1.8740311
2.0977733 3.4611008 1.8720737
2.0969708 3.4728396 1.8809164
2.0977979 3.4817722 1.88129
2.0817664 3.4799426 1.8760576
2.0829785 3.4887185 1.8885362
2.0798407 3.484869 1.8764663
2.0847795 3.4780457 1.8715299
2.0808375 3.4888947 1.8892087
2.0625312 3.491806 1.8862072
2.0720022 3.4973392 1.8885794
2.0497115 3.5021718 1.8893348
2.0454595 3.5110281 1.8789062
2.0500464 3.5055425 1.8744942
2.0350029 3.5088603 1.8853433
2.1312833 3.6849265 1.8283253
2.1232455 3.6761346 1.8183024
2.1231332 3.6771283 1.8185672
