# .PCD v0.7 - Point Cloud Data file format
VERSION 0.7
FIELDS x y z
SIZE 4 4 4
TYPE F F F
COUNT 1 1 1
WIDTH 1509
HEIGHT 1
VIEWPOINT 0 0 0 1 0 0 0
POINTS 1509
DATA ascii
-5.8150992 -3.0494232 1.3269418
-5.8151345 -3.0602269 1.3247918
-5.8064761 -3.0724597 1.3198127
-5.8167558 -3.0768082 1.3265827
-5.8007631 -3.0914416 1.3270587
-5.8062601 -3.0923219 1.3340398
-5.7914615 -3.1091194 1.3201828
-5.7822313 -3.115679 1.3203019
-5.7837639 -3.1282284 1.3286873
-5.7856627 -3.1297433 1.3289447
-5.7710342 -3.1424782 1.3275714
-5.7765517 -3.1395316 1.323532
-5.7642078 -3.1522212 1.3353915
-5.7568316 -3.1594965 1.331028
-5.7626743 -3.1750963 1.3201505
-5.7480297 -3.1805215 1.3365064
-5.7463923 -3.195488 1.3241723
-5.7386012 -3.1855757 1.3333799
-5.7506795 -3.2015581 1.3181332
-5.7343616 -3.2038133 1.3294612
-5.7377748 -3.2158253 1.3361373
-5.7225504 -3.2177505 1.3338368
-5.7313538 -3.2317393 1.3269174
-5.7282867 -3.2427709 1.3207874
-5.7095718 -3.2440748 1.3271161
-5.7017236 -3.2551756 1.3360716
-5.6975083 -3.2690918 1.3181067
-5.7056155 -3.2796805 1.3180938
-5.7045045 -3.2868223 1.3301321
-5.6986289 -3.2821321 1.3279424
-5.6814141 -3.3053527 1.3217617
-5.6775122 -3.297857 1.3216705
-5.6758995 -3.3236845 1.3355988
-5.6811948 -3.3309758 1.3264977
-5.6726098 -3.3240941 1.3240881
-5.6576843 -3.3339171 1.3185672
-5.6537929 -3.344089 1.3271129
-5.6478548 -3.3469436 1.3330468
-5.6419187 -3.3532736 1.3198088
-5.6439338 -3.3783252 1.3192248
-5.6481271 -3.3707707 1.3233775
-5.6384897 -3.383934 1.3229768
-5.628933 -3.4001157 1.324693
-5.6254368 -3.4062347 1.3270558
-5.631031 -3.4084215 1.3242316
-5.6190238 -3.420347 1.3195093
-5.6125264 -3.4330559 1.3325335
-5.5974722 -3.4245131 1.3306149
-5.5964732 -3.4347315 1.3302717
-5.5887017 -3.4516726 1.3327755
-5.6015029 -3.4575262 1.3307258
-5.5901403 -3.458473 1.3233982
-5.5791678 -3.4746039 1.327768
-5.5864682 -3.4719911 1.3338909
-5.5713944 -3.4797354 1.3256928
-5.5591345 -3.5002465 1.3334279
-5.5715857 -3.4990451 1.3363063
-4.7321668 -2.9896648 1.5830935
-4.7342148 -3.0008705 1.5799809
-4.7365966 -3.0091233 1.5677592
-4.7364655 -3.0150068 1.5775092
-4.7183747 -3.0143688 1.5741311
-4.7276025 -3.0276096 1.5824337
-4.7124515 -3.0330133 1.5811541
-4.7111678 -3.0482168 1.5799285
-4.6980734 -3.0560443 1.5659832
-4.6972346 -3.0612185 1.5810237
-4.6935081 -3.0507145 1.5753013
-4.690506 -3.0664515 1.5650012
-4.6906066 -3.0687723 1.5730706
-4.6829205 -3.0751734 1.5818727
-4.6854749 -3.0877044 1.5779233
-4.6713982 -3.093693 1.5673376
-4.5075974 -3.0015523 1.6274508
-4.5066295 -2.9993677 1.6294492
-4.5068779 -3.0083463 1.6302067
-4.5010633 -3.0207527 1.6323709
-4.5001993 -3.0137086 1.6316137
-4.4850488 -3.0279469 1.6216885
-4.4801898 -3.0265806 1.6160052
-4.4872522 -3.0418313 1.6304775
-4.4855042 -3.0439487 1.6189697
-4.4676967 -3.0563111 1.6280181
-4.4604664 -3.0506158 1.6285292
-4.4626179 -3.0681424 1.6175323
-4.4627624 -3.0701168 1.6238583
-4.4621406 -3.0704837 1.6240735
-4.4593463 -3.074203 1.6176227
-4.4373002 -3.086997 1.6232173
-4.4451704 -3.0991657 1.6164562
-4.4387155 -3.1026397 1.6207163
-4.2791123 -2.9973779 1.6786293
-4.2698312 -2.9895861 1.6809357
-4.271493 -2.9988329 1.6751916
-4.2526355 -3.0145092 1.678169
-4.2647667 -3.0146163 1.6654145
-4.2505636 -3.0183969 1.6785289
-4.2561369 -3.0236864 1.6741543
-4.2481527 -3.0312426 1.6832099
-4.2345653 -3.0509903 1.666315
-4.2277312 -3.0486131 1.6721581
-4.2366285 -3.0496383 1.6782302
-4.2371087 -3.0655739 1.6780725
-4.2152739 -3.0673716 1.6746404
-4.2191753 -3.0745201 1.6814991
-4.2200909 -3.0780163 1.6742116
-4.2137527 -3.0915344 1.6690984
-4.214292 -3.0948589 1.6646446
-4.1991978 -3.0944407 1.6785777
-4.1950397 -3.1046853 1.6787002
-4.0321078 -2.9969454 1.7166355
-4.0391464 -2.9975603 1.7299668
-4.0201049 -3.0029302 1.7132816
-4.0212135 -3.0107486 1.7207123
-4.0257459 -3.0067596 1.7269018
-4.0234122 -3.0279858 1.7154963
-4.008358 -3.0271819 1.7164681
-3.9984088 -3.0312331 1.7200046
-4.0129061 -3.0445144 1.7298425
-3.9934621 -3.0379701 1.7153132
-3.9938879 -3.0484948 1.7189864
-3.9858747 -3.0502458 1.7276926
-3.9845226 -3.0571506 1.7166708
-3.9798477 -3.0693672 1.7234666
-3.9877343 -3.0703275 1.7198818
-3.9694235 -3.0731728 1.7206949
-3.9625108 -3.0851905 1.7279305
-3.9746184 -3.0914941 1.7167274
-3.9631815 -3.0965374 1.7178495
-3.961899 -3.1063867 1.7311167
-3.9551384 -3.10092 1.7194537
-3.9446967 -3.111706 1.7316287
-3.7934983 -2.9852788 1.7719855
-3.7855246 -2.9983804 1.7761985
-3.7907476 -3.0036583 1.7650219
-3.7795484 -3.0149229 1.7765648
-3.7675283 -3.0235791 1.7816488
-3.7682655 -3.028656 1.7659819
-3.7601984 -3.0266163 1.7708186
-3.7710016 -3.0276225 1.7713466
-3.7485306 -3.0262039 1.7628757
-3.757715 -3.038687 1.7691475
-3.7547171 -3.0363657 1.7672343
-3.7408593 -3.0502622 1.7775236
-3.7427809 -3.05358 1.7678335
-3.735872 -3.0699046 1.7721714
-3.7374127 -3.0584223 1.7731395
-3.7338624 -3.0718975 1.7743115
-3.7259715 -3.0815339 1.7627978
-3.7132366 -3.0862088 1.775547
-3.7199667 -3.0926554 1.7749777
-3.7151601 -3.0925362 1.7671824
-3.7040746 -3.0936768 1.7669591
-3.694895 -3.1052241 1.7780846
-3.6954188 -3.1029651 1.7711314
-3.6856256 -3.1180763 1.7730868
-3.5435548 -2.9938536 1.8212557
-3.528616 -2.9953291 1.8316664
-3.5324984 -3.0132151 1.8176559
-3.5278873 -3.0026751 1.8241796
-3.5305204 -3.0231807 1.8294599
-3.5137157 -3.0232029 1.8200563
-3.5246997 -3.0164702 1.8147033
-3.5159001 -3.0248954 1.8229879
-3.5159678 -3.0381894 1.8187106
-3.5029821 -3.0460422 1.8244947
-3.5080342 -3.0441158 1.814507
-3.4944146 -3.0514424 1.8279982
-3.4903777 -3.0468497 1.8285515
-3.4803441 -3.0618515 1.8245875
-3.4837801 -3.0636985 1.8250544
-3.4819288 -3.0729601 1.8304297
-3.4694746 -3.0774319 1.8274626
-3.4623663 -3.0773365 1.8209889
-3.4669669 -3.0815489 1.8261343
-3.455838 -3.0770221 1.828334
-3.4589183 -3.1018007 1.817361
-3.4519794 -3.0972202 1.8239566
-3.4515426 -3.0928693 1.8200339
-3.4505458 -3.1027589 1.8259927
-3.4335063 -3.1203651 1.8149816
-3.435993 -3.1204078 1.81958
-3.2898052 -2.9818425 1.874076
-3.2900529 -2.9907181 1.8640225
-3.2767675 -3.008502 1.8746098
-3.2783303 -2.9994721 1.8745711
-3.2776871 -3.0178437 1.8745948
-3.2680106 -3.0136051 1.8640343
-3.2517321 -3.0132647 1.8626535
-3.2593699 -3.016269 1.8762062
-3.2610424 -3.0265825 1.8769692
-3.2537198 -3.0237379 1.8625005
-3.2417924 -3.0423601 1.8809541
-3.2448666 -3.0454161 1.875131
-3.2379882 -3.0393798 1.8761165
-3.2405159 -3.0591054 1.870719
-3.2230761 -3.0623932 1.8715307
-3.2256064 -3.0602164 1.8811564
-3.2186909 -3.0659797 1.8756919
-3.2131498 -3.0636051 1.8717862
-3.2140498 -3.0671341 1.8621246
-3.2141805 -3.0675781 1.879859
-3.2087734 -3.0803385 1.8635167
-3.2049067 -3.0804231 1.8686581
-3.1868567 -3.0978854 1.8643698
-3.1878152 -3.1021385 1.8648834
-3.1741648 -3.0932207 1.8666312
-3.1796966 -3.1111083 1.8750713
-3.1755962 -3.1063621 1.8622582
-3.1769545 -3.1203628 1.8763235
-3.1622119 -3.1195574 1.8713574
-3.157125 -3.1231833 1.8704394
-3.1542976 -3.1257088 1.8812469
-3.0102921 -2.9921548 1.9259536
-3.0188439 -3.001204 1.9281676
-3.011678 -2.9955373 1.9305964
-3.0039926 -3.0005519 1.9264046
-2.9945538 -3.0154366 1.9287807
-2.9966688 -3.0105653 1.9203525
-2.991591 -3.0114026 1.9223672
-2.9924421 -3.0218544 1.9296246
-2.9782536 -3.0315819 1.9176873
-2.984977 -3.0228512 1.9276497
-2.9808874 -3.0320041 1.9190595
-2.9615891 -3.0338995 1.9256412
-2.9600711 -3.0528257 1.922105
-2.9561183 -3.0482688 1.9177634
-2.9563518 -3.0584812 1.9227406
-2.9542034 -3.055023 1.9167866
-2.9404774 -3.0507069 1.914187
-2.9447308 -3.0714676 1.9253215
-2.941721 -3.0622716 1.9309082
-2.9306428 -3.0640366 1.9293995
-2.9295967 -3.0859549 1.9229059
-2.9171348 -3.0728242 1.918679
-2.9180856 -3.0824304 1.9196821
-2.9225667 -3.0923445 1.9293922
-2.9113839 -3.0867586 1.9130342
-2.9152181 -3.1032963 1.9242727
-2.9050007 -3.1103861 1.9239594
-2.8973773 -3.1060133 1.9270116
-2.8986135 -3.1029201 1.9233801
-2.8942575 -3.113044 1.922098
-2.8914044 -3.1264226 1.9230058
-2.8750393 -3.1316462 1.9211466
-2.8828955 -3.1221328 1.9137775
-2.8697429 -3.1214187 1.9205844
-2.8668747 -3.1338458 1.9170614
-2.8603587 -3.1344366 1.9210788
-2.8625989 -3.1491451 1.9220783
-2.8651466 -3.1405711 1.9115168
-2.8446364 -3.1575799 1.9281083
-2.8477523 -3.1545849 1.9186299
-2.8521447 -3.1530945 1.9198204
-2.8356237 -3.1596029 1.9198292
-2.8409562 -3.1583362 1.9133869
-2.9627271 -3.3128226 1.8621839
-2.9484088 -3.3244703 1.8720813
-2.9576077 -3.313988 1.8654048
-2.9427838 -3.3301368 1.868031
-2.9469545 -3.3332305 1.8632361
-2.9416809 -3.3402164 1.8654311
-2.9398098 -3.3347261 1.8746136
-2.9274118 -3.3380418 1.8692729
-2.9138174 -3.3492556 1.8814044
-2.9202085 -3.3502266 1.8787763
-2.9130361 -3.3483241 1.8701606
-2.907557 -3.3567412 1.8740388
-2.9121749 -3.3590007 1.8725346
-2.9034634 -3.3710852 1.8790103
-2.8921201 -3.3719954 1.8665147
-2.8855662 -3.3722928 1.8711489
-2.8768117 -3.3753855 1.8653826
-2.8788688 -3.3907523 1.8804034
-2.866261 -3.3972025 1.8683065
-2.8615162 -3.3947275 1.8793281
-2.8593938 -3.3897693 1.8763353
-2.8658817 -3.404027 1.8690019
-2.8484857 -3.4076033 1.863479
-2.8525882 -3.4071743 1.8699348
-2.8502095 -3.4201143 1.8795372
-2.8403208 -3.4112179 1.8728926
-2.8457925 -3.4182901 1.8671986
-2.8370249 -3.4321485 1.8701748
-2.9565578 -3.5675986 1.821227
-2.9446464 -3.573751 1.8282821
-2.9417076 -3.5825264 1.8243126
-2.9417558 -3.5825408 1.8300958
-2.9291317 -3.5899155 1.8163065
-2.922025 -3.6061554 1.8269432
-2.9284563 -3.604784 1.8286306
-2.9052799 -3.5982976 1.8231982
-2.9087422 -3.6020615 1.8146707
-2.8978927 -3.6218424 1.8162552
-2.9040616 -3.6226189 1.8158185
-2.8896685 -3.6164885 1.8133587
-2.8882143 -3.6324294 1.8262453
-2.8907244 -3.6334343 1.8232328
-2.8874454 -3.6268365 1.8169534
-2.8779502 -3.6381593 1.8185354
-2.8778126 -3.6409464 1.8255827
-2.8559821 -3.6455953 1.8232034
-2.8595784 -3.6587512 1.8211401
-2.8516965 -3.6461077 1.8233689
-2.8422246 -3.6646888 1.8288869
-2.8531835 -3.6539378 1.8245939
-2.846597 -3.6668 1.8284118
-2.8271182 -3.6672449 1.8152695
-2.9488966 -3.8230021 1.7632582
-2.9384842 -3.8410001 1.7734587
-2.9264839 -3.8439496 1.7648954
-2.9274306 -3.8501635 1.775699
-2.9307511 -3.8450739 1.7773559
-2.9161291 -3.8572087 1.7756581
-2.9192724 -3.8449831 1.7793741
-2.9168923 -3.8488336 1.7778285
-2.8987994 -3.8512204 1.7674011
-2.8968828 -3.8592565 1.7805022
-2.8881028 -3.8759546 1.7753251
-2.8818245 -3.8675942 1.7762738
-2.88534 -3.8725929 1.7783895
-2.8774133 -3.883904 1.7784001
-2.8786771 -3.8839061 1.7676016
-2.8582785 -3.8946629 1.7687622
-2.8595722 -3.8939457 1.7662348
-2.8571441 -3.8962362 1.7639356
-2.8562562 -3.9058275 1.7633209
-2.8457901 -3.8989017 1.7787337
-2.8422174 -3.908601 1.7815045
-2.8238163 -3.917433 1.7766843
-2.9379404 -4.072269 1.7214023
-2.9362442 -4.0876861 1.7283469
-2.9345319 -4.0897946 1.7193153
-2.9236124 -4.0769377 1.723545
-2.9115262 -4.0908127 1.7325026
-2.901962 -4.0877037 1.7231728
-2.9146912 -4.0891566 1.7282472
-2.9080293 -4.1055989 1.7242351
-2.8859491 -4.103929 1.7145036
-2.8810923 -4.1093245 1.719913
-2.8810501 -4.1208363 1.7315236
-2.8867803 -4.1163487 1.7318324
-2.8655601 -4.1158514 1.7141403
-2.8733661 -4.1301422 1.7134049
-2.8569367 -4.1380615 1.7228861
-2.8515441 -4.1421366 1.7195597
-2.8554757 -4.1446657 1.7188559
-2.8343272 -4.1462641 1.7257776
-2.8371856 -4.1515193 1.7184289
-2.8297696 -4.15766 1.7297362
-2.9259887 -4.3096857 1.6640713
-2.9213178 -4.313168 1.6764336
-2.9163327 -4.3211894 1.6733205
-2.9090338 -4.3227811 1.6799357
-2.9024646 -4.3337135 1.6826429
-2.9064088 -4.3450289 1.6652787
-2.8936734 -4.3460574 1.6693803
-2.9016361 -4.3517246 1.6758704
-2.8826716 -4.3460422 1.6810845
-2.8710501 -4.3587422 1.664129
-2.8681157 -4.3644147 1.6792897
-2.8613365 -4.3514495 1.6750748
-2.8621893 -4.3595371 1.6669371
-2.8461497 -4.3663707 1.6812977
-2.8434892 -4.3726845 1.668807
-2.8381162 -4.3689985 1.6690738
-2.8301015 -4.3786383 1.6723766
-2.8379798 -4.3823075 1.6740683
-2.9243529 -4.5559545 1.6159855
-2.9202883 -4.5613351 1.618746
-2.9131737 -4.5498648 1.6198646
-2.9108925 -4.5577044 1.6179706
-2.9128206 -4.5724916 1.6320021
-2.9028807 -4.5773396 1.6232052
-2.8985746 -4.5656333 1.6320907
-2.8867533 -4.5746651 1.6286503
-2.8746598 -4.5817995 1.6195495
-2.8792579 -4.5829349 1.6307499
-2.8621585 -4.5915809 1.6151351
-2.8536322 -4.6025233 1.6182396
-2.86234 -4.5927186 1.6169057
-2.8499236 -4.6070046 1.6318144
-2.8393955 -4.6095972 1.6160089
-2.8348305 -4.608634 1.6194199
-2.9203827 -4.7749281 1.5690888
-2.9154873 -4.7907634 1.5832765
-2.9140265 -4.7809062 1.5743674
-2.9016609 -4.8020525 1.5683517
-2.8980892 -4.7925115 1.5777097
-2.8901265 -4.8008618 1.5801357
-2.8790536 -4.8043427 1.5763686
-2.8893089 -4.8018355 1.5823079
-2.8846502 -4.8152347 1.5696384
-2.8757913 -4.8105083 1.581907
-2.8635156 -4.8164535 1.5770212
-2.8520615 -4.8241844 1.580398
-2.8464139 -4.837142 1.577721
-2.8496699 -4.8244267 1.5779768
-2.8389361 -4.8348379 1.5718435
-5.8283272 -3.4763751 1.3196193
-5.8173075 -3.4710419 1.3338531
-5.8268232 -3.4906428 1.3364859
-5.8169699 -3.5017245 1.3290223
-5.8062954 -3.4934967 1.3249505
-5.8028126 -3.5019238 1.3192841
-5.8032398 -3.5261068 1.3331277
-5.8016877 -3.5283318 1.3309034
-5.786715 -3.54194 1.3339951
-5.7744536 -3.5380759 1.32971
-5.7839832 -3.5577691 1.331859
-5.7763581 -3.5512981 1.3274871
-5.774488 -3.5592096 1.3316535
-5.7699738 -3.5821459 1.3328706
-5.752912 -3.5792975 1.3304409
-5.7599111 -3.597867 1.3277028
-5.7525644 -3.6017761 1.3288935
-5.7513638 -3.6090565 1.3359643
-4.7470965 -2.9850254 1.6060443
-4.7458739 -2.9935777 1.6195601
-4.7489276 -2.9966183 1.621467
-4.7298226 -3.0170038 1.6179221
-4.7350802 -3.0205002 1.6145359
-4.7361627 -3.0244746 1.6162769
-4.7360187 -3.036391 1.6089226
-4.7182946 -3.0403209 1.6110483
-4.7233 -3.0419307 1.6173072
-4.7071052 -3.0473766 1.6243209
-4.7038302 -3.0588834 1.62212
-4.6989861 -3.0733588 1.618013
-4.7006164 -3.0750883 1.6175056
-4.7003307 -3.0819225 1.623247
-4.6835809 -3.0782337 1.6121206
-4.690208 -3.0998552 1.6236423
-4.513226 -2.9983823 1.6579509
-4.5255976 -2.9903944 1.6668537
-4.5158353 -3.0116677 1.6607516
-4.499805 -3.0010116 1.6558022
-4.4967518 -3.0113554 1.6659392
-4.4958911 -3.0211382 1.6681877
-4.4991288 -3.0368447 1.6552876
-4.4828649 -3.0365674 1.662128
-4.4808507 -3.0438519 1.6592262
-4.4899545 -3.0420837 1.6612656
-4.4875274 -3.0495222 1.6641468
-4.4788699 -3.0535212 1.6613408
-4.4613004 -3.0719554 1.6635804
-4.4698248 -3.0785658 1.6627892
-4.4632897 -3.0863385 1.6579615
-4.4666085 -3.0774748 1.6696521
-4.4476705 -3.0960813 1.6719317
-4.4416237 -3.1026657 1.6607779
-4.2896132 -3.0002646 1.71671
-4.2797661 -3.0022261 1.7126011
-4.2678709 -3.0060287 1.7073255
-4.2730865 -3.0054502 1.7043164
-4.2610993 -3.0115883 1.7091328
-4.2668648 -3.030545 1.7135924
-4.2534127 -3.0272694 1.716527
-4.26478 -3.0316246 1.7145669
-4.2444482 -3.041362 1.7202361
-4.2418289 -3.049382 1.7055503
-4.2503548 -3.0488439 1.7082675
-4.2310271 -3.0626497 1.7150186
-4.2357998 -3.0687599 1.7039568
-4.2258401 -3.0642931 1.7194569
-4.2188811 -3.0720556 1.7147965
-4.2270975 -3.0898075 1.7171515
-4.2108459 -3.0783401 1.708748
-4.2116513 -3.1024811 1.7019492
-4.2144089 -3.0905399 1.711367
-4.0553808 -2.984834 1.7667996
-4.0472999 -2.9871049 1.7606258
-4.0364938 -2.9943228 1.7665826
-4.0389285 -3.010596 1.7523594
-4.0324173 -3.0212004 1.768527
-4.0303979 -3.0091453 1.7628505
-4.033031 -3.0296137 1.7653344
-4.0133018 -3.0381465 1.7651917
-4.0219679 -3.0318089 1.7668082
-4.0174251 -3.0325608 1.7662598
-4.0034561 -3.0547335 1.7619026
-4.0021338 -3.0530124 1.7609384
-4.0069771 -3.0646803 1.7584147
-3.9858563 -3.0629864 1.7652701
-3.9989505 -3.0789919 1.7671673
-3.9758694 -3.0771973 1.7667606
-3.978457 -3.0822625 1.7515198
-3.9785531 -3.0918329 1.7533752
-3.9787838 -3.0943117 1.7671911
-3.9773905 -3.0964978 1.7658718
-3.9565377 -3.1089733 1.7679908
-3.9600346 -3.1043923 1.7574359
-3.8119972 -2.9887855 1.8088987
-3.799134 -2.9962695 1.799562
-3.7994084 -3.0011373 1.7998066
-3.7977779 -3.0072212 1.8074269
-3.776547 -3.0201976 1.815557
-3.790549 -3.0175831 1.7996857
-3.7826886 -3.01952 1.8068987
-3.7810049 -3.0243921 1.8174825
-3.7606332 -3.0327475 1.8011415
-3.7581348 -3.0489435 1.8149264
-3.7661841 -3.0539441 1.8097138
-3.75085 -3.0502732 1.8023372
-3.7448452 -3.0510755 1.8154068
-3.7385883 -3.0544534 1.8077006
-3.7447038 -3.0608137 1.8123201
-3.742682 -3.0653975 1.8048505
-3.7365241 -3.0863492 1.8007343
-3.723146 -3.089853 1.8170304
-3.7191768 -3.0972281 1.8102498
-3.7115412 -3.0863554 1.8125459
-3.7101133 -3.10779 1.8151079
-3.713891 -3.0981553 1.8066016
-3.7050378 -3.1067884 1.8025479
-3.7031078 -3.1134443 1.8003651
-3.5604973 -2.9853189 1.865151
-3.5418143 -3.0044432 1.8625035
-3.5505943 -3.0017116 1.864135
-3.5434837 -3.0099111 1.8474876
-3.5400698 -3.0184579 1.8486838
-3.5234296 -3.0236931 1.8459653
-3.5244865 -3.0318315 1.847019
-3.5229745 -3.0280859 1.8629078
-3.5099621 -3.0398328 1.8553581
-3.5209963 -3.0340025 1.8463408
-3.5142064 -3.0383015 1.8654469
-3.5107105 -3.04811 1.8503979
-3.509855 -3.0508978 1.8630438
-3.4873612 -3.0507812 1.8524476
-3.501508 -3.0714636 1.8582561
-3.494452 -3.059726 1.8637753
-3.4901073 -3.0732722 1.8460957
-3.4847023 -3.0695403 1.8570955
-3.4834018 -3.0770364 1.8612763
-3.4696441 -3.0798142 1.8562093
-3.4648969 -3.1000566 1.8517593
-3.4610367 -3.1010642 1.8624109
-3.452219 -3.1054845 1.8551788
-3.4507484 -3.1116858 1.8529615
-3.4398673 -3.1163158 1.854954
-3.443171 -3.1181781 1.8535701
-3.2972102 -2.9895043 1.9116068
-3.2928433 -2.9900141 1.910163
-3.2974701 -2.9935324 1.9060915
-3.2779098 -3.0076091 1.9041041
-3.2834098 -3.0012615 1.9067305
-3.2733536 -3.0153832 1.9131993
-3.2726393 -3.0250232 1.9000916
-3.2591507 -3.0175359 1.9056206
-3.2678728 -3.0235174 1.9113513
-3.2545965 -3.037159 1.9000454
-3.2626972 -3.0329418 1.9117458
-3.2408419 -3.0485451 1.9075495
-3.2404237 -3.0529695 1.9044418
-3.2440708 -3.0420337 1.9118588
-3.2296987 -3.0608048 1.9102187
-3.2326941 -3.0537331 1.8990465
-3.2292144 -3.0701668 1.9028177
-3.2188361 -3.077338 1.8986539
-3.2229223 -3.0774639 1.9130803
-3.2212718 -3.068552 1.8984311
-3.2109208 -3.0919864 1.9125589
-3.208863 -3.0778165 1.8956374
-3.2109954 -3.0874865 1.8988397
-3.1962292 -3.1050677 1.8975198
-3.1940398 -3.0925477 1.9019648
-3.1934841 -3.1072998 1.8980116
-3.1840944 -3.1028557 1.9021487
-3.1709273 -3.1123223 1.9036329
-3.1819177 -3.1101713 1.9095033
-3.1784756 -3.1306715 1.9087917
-3.0315282 -2.9887376 1.9572325
-3.0287857 -2.9852595 1.9562505
-3.0229585 -3.008235 1.9500867
-3.0139234 -3.0007713 1.9508237
-3.0062022 -3.0154521 1.9485565
-3.0140302 -3.013917 1.9560072
-3.0058055 -3.007338 1.952366
-2.9934378 -3.0119445 1.9437157
-2.9995799 -3.0319002 1.9616681
-2.999846 -3.0327783 1.9435657
-2.9808176 -3.0292284 1.9554451
-2.9814291 -3.0271225 1.9550431
-2.9830167 -3.0433822 1.9559004
-2.9707625 -3.0548048 1.9484501
-2.9777656 -3.0427105 1.9505421
-2.9670298 -3.0626545 1.9583864
-2.9688377 -3.0585897 1.9570206
-2.9542809 -3.0663791 1.9552537
-2.9483688 -3.0645385 1.9577305
-2.9444983 -3.0671973 1.9435227
-2.9387243 -3.0750673 1.9570524
-2.9410655 -3.0877941 1.9568694
-2.9438028 -3.0863597 1.9446026
-2.9256771 -3.0769279 1.9450829
-2.9349959 -3.0987618 1.9618211
-2.9222169 -3.0941286 1.9427732
-2.9215879 -3.0955775 1.951942
-2.9223189 -3.1067498 1.9574673
-2.9048114 -3.1162958 1.9489731
-2.9048212 -3.1062629 1.9619539
-2.8990331 -3.1147535 1.9511926
-2.8997099 -3.1098886 1.9518263
-2.9005637 -3.1320696 1.9580103
-2.8936789 -3.1204398 1.9577358
-2.886308 -3.1224489 1.9597311
-2.8821933 -3.1360054 1.9504575
-2.877121 -3.1332645 1.9438266
-2.862874 -3.1355925 1.9501089
-2.8630962 -3.1447558 1.9509249
-2.8518071 -3.1582778 1.9458473
-2.8475316 -3.1503663 1.9563463
-2.8540115 -3.1674917 1.9557717
-2.8398523 -3.169837 1.9570711
-2.8395038 -3.1696687 1.9540495
-2.8394239 -3.166507 1.9530615
-2.8373432 -3.1836131 1.942554
-2.8245308 -3.1800354 1.9588181
-2.9472508 -3.3317621 1.9086922
-2.9545729 -3.323133 1.9015081
-2.9410734 -3.32762 1.9048142
-2.9326456 -3.3322418 1.900038
-2.9337132 -3.34776 1.9021362
-2.9353495 -3.3535404 1.905883
-2.9356809 -3.3433995 1.9137855
-2.919028 -3.3576119 1.9088311
-2.9233572 -3.3541818 1.9107457
-2.9181886 -3.3623829 1.900207
-2.91675 -3.3688464 1.9070617
-2.8973448 -3.36729 1.9066817
-2.9051182 -3.3768973 1.9059446
-2.8895798 -3.3827465 1.904709
-2.8988121 -3.3943379 1.9120721
-2.8859403 -3.3922467 1.8977648
-2.8893163 -3.3951731 1.8977021
-2.884784 -3.4061389 1.9075245
-2.8652005 -3.4061317 1.9048674
-2.8636968 -3.4056594 1.8980931
-2.8527262 -3.408458 1.9089326
-2.8548954 -3.4165664 1.9053994
-2.8574388 -3.4171689 1.8963231
-2.840714 -3.426959 1.9054554
-2.8452189 -3.4307134 1.9070472
-2.8423555 -3.4263337 1.8947747
-2.8337936 -3.4300733 1.9036134
-2.9486334 -3.5839419 1.8574312
-2.9500916 -3.5932412 1.8633668
-2.934201 -3.6057966 1.8537927
-2.9450788 -3.5921466 1.8654312
-2.9251115 -3.6054366 1.852966
-2.9286716 -3.6060469 1.8638961
-2.9213021 -3.6147141 1.849027
-2.9247949 -3.6126742 1.8543881
-2.9066901 -3.6125641 1.8481066
-2.900852 -3.6286907 1.8620566
-2.9061694 -3.6211171 1.8560148
-2.8895772 -3.6400206 1.8648036
-2.8870432 -3.6280587 1.8651596
-2.894078 -3.6320052 1.8632811
-2.8694687 -3.641021 1.8522213
-2.8773189 -3.658639 1.8646528
-2.8742332 -3.6539354 1.8525113
-2.8660111 -3.6577783 1.8464972
-2.8524225 -3.6685755 1.8646737
-2.8451095 -3.6586001 1.8507968
-2.8438411 -3.6790125 1.8485599
-2.8486087 -3.6679091 1.8514783
-2.8445821 -3.6793537 1.8504109
-2.840194 -3.6829209 1.8494419
-2.9559317 -3.8409326 1.8154083
-2.9442558 -3.8380978 1.8158741
-2.9401426 -3.8372815 1.8050668
-2.928165 -3.8533528 1.8144331
-2.9221959 -3.8609509 1.8170112
-2.9180446 -3.8663571 1.813567
-2.9077644 -3.8556213 1.8137051
-2.8997154 -3.8747854 1.8089346
-2.9087424 -3.8750606 1.8166997
-2.8988309 -3.8760908 1.8048712
-2.889883 -3.8797548 1.8129579
-2.8868763 -3.8771119 1.8080034
-2.8833983 -3.8957312 1.8079817
-2.8707218 -3.8877537 1.8159975
-2.8686736 -3.8991938 1.8005166
-2.8640416 -3.8918748 1.8037233
-2.862848 -3.8996735 1.8017522
-2.8615108 -3.9048271 1.8046958
-2.8449385 -3.904417 1.8114353
-2.8405957 -3.9195104 1.8012081
-2.8280756 -3.9110765 1.8113731
-2.8274634 -3.9250624 1.8082292
-2.9452689 -4.0785222 1.7624205
-2.9294016 -4.0873814 1.756709
-2.925513 -4.0996356 1.7635832
-2.9170995 -4.0927057 1.7617944
-2.9254735 -4.1100368 1.7562174
-2.915813 -4.1114907 1.7694894
-2.903203 -4.1018376 1.7671669
-2.9038482 -4.1133122 1.7537383
-2.8947146 -4.117743 1.7527233
-2.8954105 -4.1270437 1.7616948
-2.8792446 -4.1261687 1.758691
-2.880795 -4.1351399 1.7509428
-2.8680515 -4.1259408 1.755048
-2.8684282 -4.1340528 1.7501819
-2.8505881 -4.1362691 1.7520758
-2.8583193 -4.1545606 1.7565992
-2.852773 -4.1459842 1.7548507
-2.8495436 -4.1637998 1.7656949
-2.8397372 -4.1582351 1.7561668
-2.8309402 -4.1591249 1.761389
-2.9421928 -4.3302393 1.7034426
-2.9271927 -4.3281999 1.7086467
-2.919935 -4.3391919 1.7070765
-2.9085665 -4.3363414 1.721413
-2.9020584 -4.3414373 1.7175438
-2.8936508 -4.3400564 1.7193855
-2.9007139 -4.3589268 1.7137982
-2.8895199 -4.3603706 1.7143815
-2.8874762 -4.3578172 1.7045078
-2.8749549 -4.3722806 1.7177145
-2.8772056 -4.3747902 1.7043953
-2.8693109 -4.3683491 1.7172214
-2.8562062 -4.3807058 1.7031528
-2.844666 -4.3877549 1.7160234
-2.838784 -4.3743629 1.7078788
-2.8367655 -4.3786354 1.705187
-2.8328996 -4.3960495 1.7076882
-2.9397991 -4.5515223 1.6647139
-2.9206984 -4.5680184 1.6564261
-2.9314656 -4.5580878 1.6577127
-2.9090202 -4.576509 1.6605194
-2.8998885 -4.5731406 1.6537879
-2.8979249 -4.5827794 1.6587119
-2.8900242 -4.5869951 1.6605904
-2.8892472 -4.5914516 1.6598563
-2.8766093 -4.6000175 1.6588362
-2.8866577 -4.5908518 1.6643803
-2.8741992 -4.5895419 1.66159
-2.8566227 -4.5955033 1.6664112
-2.8673282 -4.5986109 1.6652616
-2.8567417 -4.6056576 1.6697811
-2.843343 -4.6099625 1.6617495
-2.8366702 -4.6186991 1.6681513
-2.8250678 -4.6259365 1.6544
-2.9328625 -4.7844234 1.6121598
-2.9198735 -4.7912068 1.6134851
-2.9078984 -4.7944565 1.6080121
-2.9103739 -4.8116713 1.6078765
-2.8956339 -4.8177385 1.6057973
-2.8960671 -4.8209467 1.6246195
-2.8776441 -4.8200083 1.6203954
-2.874696 -4.8121171 1.6158577
-2.8797739 -4.8240047 1.6065654
-2.8584445 -4.8307471 1.6140085
-2.8508606 -4.8304653 1.6125482
-2.8574247 -4.8438935 1.6084007
-2.842658 -4.8320527 1.6250902
-2.8333588 -4.8493977 1.6086427
-2.8241897 -4.8587189 1.6101958
-4.7596021 -2.9990766 1.6597594
-4.7563891 -3.0056312 1.6651111
-4.754992 -3.0051289 1.6579243
-4.7532372 -3.0020523 1.6624051
-4.7421513 -3.0180898 1.655165
-4.7373452 -3.0286376 1.6534431
-4.7392249 -3.0380538 1.6526421
-4.7401667 -3.0288382 1.6473725
-4.7342086 -3.0426173 1.6565191
-4.7289343 -3.0469298 1.6654108
-4.7169328 -3.0582707 1.6478505
-4.7195568 -3.0705881 1.6503994
-4.7168198 -3.0657072 1.6601088
-4.7012601 -3.0832794 1.6595467
-4.7012105 -3.0939829 1.6495935
-4.7083921 -3.0841069 1.6557326
-4.5349884 -2.9931939 1.7057567
-4.5248241 -2.9943938 1.7049581
-4.5199203 -2.99389 1.697003
-4.5258617 -3.0123758 1.7113521
-4.522902 -3.0231333 1.7009708
-4.5174942 -3.0207965 1.7048767
-4.5095282 -3.0200143 1.7002623
-4.5118446 -3.0279729 1.7046682
-4.4947138 -3.0401919 1.7049571
-4.4875274 -3.043911 1.7017028
-4.4941931 -3.0608525 1.7087834
-4.4974928 -3.0518169 1.7010061
-4.4815817 -3.0620744 1.7000685
-4.4736176 -3.0624783 1.7069755
-4.4712954 -3.0841365 1.7094494
-4.4793458 -3.0846095 1.7005783
-4.4634814 -3.0813484 1.6988022
-4.4522228 -3.1046436 1.6953741
-4.2969956 -2.98386 1.7526942
-4.3011804 -2.991123 1.7459233
-4.2886105 -3.0093184 1.7484998
-4.2889524 -3.015089 1.7463945
-4.2770629 -3.0092337 1.7403085
-4.2861023 -3.019707 1.7400897
-4.2682266 -3.03216 1.7444774
-4.267869 -3.0369742 1.754651
-4.2563734 -3.0502434 1.7543384
-4.2666459 -3.0365822 1.7569772
-4.2603383 -3.051585 1.755443
-4.2433691 -3.0549619 1.752658
-4.2531619 -3.069968 1.7576835
-4.2403703 -3.0695226 1.7429384
-4.2296753 -3.081403 1.7400432
-4.2250586 -3.0865464 1.752663
-4.2206521 -3.0780463 1.7588122
-4.2318497 -3.0934286 1.7461238
-4.2128654 -3.1015642 1.7461368
-4.0576372 -2.9888389 1.7924422
-4.0564713 -2.9892433 1.8030372
-4.0568318 -2.9969516 1.7962079
-4.0399694 -2.9987352 1.8003192
-4.0380735 -3.0120173 1.7908168
-4.0309148 -3.0189033 1.7953688
-4.0266438 -3.0254793 1.800706
-4.0297446 -3.0319638 1.8004661
-4.0266886 -3.0339694 1.7907606
-4.0163131 -3.0413225 1.7988303
-4.0259166 -3.0543356 1.7901393
-4.0158734 -3.0503695 1.7867243
-4.0152278 -3.0509589 1.801275
-4.0014033 -3.0588887 1.7997105
-4.0034595 -3.0691333 1.7905264
-3.9950106 -3.0764375 1.8001127
-4.0020018 -3.0836971 1.7887738
-3.9836478 -3.0782917 1.7965949
-3.9855261 -3.0940726 1.7880492
-3.977102 -3.1037276 1.7977834
-3.9806006 -3.1072443 1.8001314
-3.9727821 -3.1049833 1.7920665
-3.8154407 -2.9862063 1.8356935
-3.8166392 -2.9978163 1.8503333
-3.7993944 -2.9957724 1.8403317
-3.7913265 -3.0095763 1.8486226
-3.7936649 -3.0146766 1.8352451
-3.7873349 -3.0257359 1.8528578
-3.7931762 -3.0229938 1.8402689
-3.7875557 -3.0361559 1.8435975
-3.7721939 -3.0371528 1.8489764
-3.7744763 -3.0346751 1.8421769
-3.7648168 -3.0521381 1.8395655
-3.758189 -3.0549908 1.8506792
-3.7569141 -3.0647976 1.8491662
-3.7656336 -3.0707431 1.8391726
-3.7460549 -3.0632405 1.8493963
-3.7398462 -3.0736289 1.8338727
-3.7360172 -3.0740874 1.8463968
-3.7447703 -3.0931613 1.8510585
-3.7301872 -3.0811167 1.8400173
-3.7302179 -3.0956051 1.8367417
-3.737041 -3.1046922 1.8412853
-3.7264681 -3.1114168 1.8482523
-3.7247741 -3.1011393 1.8506824
-3.724586 -3.1238616 1.8524312
-3.5655649 -2.9860926 1.8936073
-3.5653069 -2.9914019 1.8829803
-3.5605657 -2.9971848 1.8971411
-3.5432935 -3.0160301 1.8974682
-3.5413525 -3.0246096 1.8950739
-3.550446 -3.017544 1.8834192
-3.5428081 -3.0216329 1.8878994
-3.5306196 -3.0394876 1.8908709
-3.5314572 -3.0399947 1.8893297
-3.5298579 -3.044667 1.89027
-3.5265028 -3.0434978 1.8889771
-3.5086315 -3.0462639 1.8873588
-3.50138 -3.0484884 1.8849356
-3.4999609 -3.0576477 1.8886392
-3.498208 -3.0690796 1.8887296
-3.4988425 -3.0738256 1.8808459
-3.4911249 -3.075161 1.8938279
-3.49892 -3.0885427 1.8939037
-3.483737 -3.0870032 1.8984151
-3.4900882 -3.0881126 1.883191
-3.4754925 -3.0901222 1.8940666
-3.462183 -3.0985222 1.8871009
-3.4704847 -3.1039398 1.8828295
-3.4612031 -3.1122139 1.8943119
-3.4682109 -3.1030176 1.8992691
-3.4551218 -3.1187449 1.8843813
-3.3057323 -3.0005322 1.9397193
-3.3077135 -3.0047355 1.9398983
-3.2896125 -2.9980655 1.9464995
-3.2869937 -3.002064 1.936868
-3.2795928 -3.0157902 1.9300977
-3.2813096 -3.0205374 1.9397923
-3.2899857 -3.0179238 1.9289279
-3.2829266 -3.0303724 1.934642
-3.264379 -3.0341797 1.934399
-3.2608676 -3.0292554 1.943269
-3.2722375 -3.043483 1.9446672
-3.2549298 -3.0438807 1.9464895
-3.2574368 -3.0503724 1.9396027
-3.2533362 -3.0584469 1.9333329
-3.2388606 -3.0633283 1.9379463
-3.2511489 -3.054141 1.942416
-3.2337365 -3.0578506 1.9340969
-3.2271819 -3.0787284 1.937921
-3.2349072 -3.0652921 1.9425236
-3.2228689 -3.0725844 1.9366304
-3.2219543 -3.0754933 1.9410836
-3.2196352 -3.0853469 1.9297072
-3.2154877 -3.1019666 1.9364011
-3.1982205 -3.0987513 1.9395767
-3.207217 -3.1053321 1.9424211
-3.1915936 -3.1084797 1.938997
-3.1914945 -3.118499 1.9364015
-3.199708 -3.1062548 1.9374603
-3.1840913 -3.1260328 1.9364817
-3.1838658 -3.1180761 1.9327308
-3.0309417 -2.9970729 1.9772519
-3.0323346 -2.9943149 1.9897608
-3.0250976 -2.9917319 1.9901521
-3.0311611 -2.9962106 1.9782548
-3.0140426 -3.0140209 1.9842666
-3.0140741 -3.0205493 1.9916151
-3.0175238 -3.0113261 1.9734218
-3.0035632 -3.0146704 1.9919444
-3.0085378 -3.0267582 1.9751549
-2.9944851 -3.0229864 1.9907817
-3.0041776 -3.029249 1.9754235
-2.9960093 -3.0410922 1.9870772
-2.9953265 -3.0498924 1.9855621
-2.9742467 -3.0489562 1.9838107
-2.9850581 -3.0551074 1.9884852
-2.969852 -3.0455019 1.9908619
-2.9672916 -3.0635638 1.9866863
-2.9629185 -3.0718884 1.9833851
-2.9600172 -3.069417 1.9922091
-2.9538994 -3.0771284 1.9890116
-2.9521492 -3.0787733 1.9837526
-2.9457514 -3.0764971 1.9908454
-2.9476941 -3.077791 1.993327
-2.9311461 -3.0822635 1.9809279
-2.9363439 -3.1018119 1.9865549
-2.9368613 -3.0904245 1.9859585
-2.9349964 -3.1007528 1.9914656
-2.9173012 -3.1109903 1.9928071
-2.9229014 -3.1026139 1.9807732
-2.919672 -3.1124134 1.9851753
-2.9196346 -3.1247621 1.9920737
-2.9048502 -3.1150179 1.9853835
-2.9029675 -3.1315274 1.9815288
-2.8985975 -3.1358054 1.9773246
-2.8866208 -3.1296036 1.9776891
-2.8890114 -3.1282473 1.9735522
-2.891993 -3.1493597 1.983192
-2.8894618 -3.1371164 1.9866933
-2.8655834 -3.1548188 1.9826639
-2.8737333 -3.1536427 1.9929218
-2.8574755 -3.1567855 1.9749118
-2.8543139 -3.1695065 1.9907205
-2.8578367 -3.1647127 1.9740882
-2.8452086 -3.1599224 1.9772404
-2.8567791 -3.1675348 1.9906508
-2.8479795 -3.1819229 1.9894676
-2.8433113 -3.1836829 1.9912161
-2.8289976 -3.1873083 1.9892457
-2.8311772 -3.191457 1.9736047
-2.9463146 -3.3337595 1.9364989
-2.9420512 -3.3388009 1.926936
-2.955792 -3.345099 1.9286655
-2.9337184 -3.359344 1.939196
-2.9282713 -3.3453903 1.9385175
-2.9396663 -3.3674426 1.9342214
-2.9176452 -3.3651357 1.9395256
-2.9168015 -3.362607 1.9270519
-2.9142034 -3.3702164 1.9349289
-2.9135704 -3.3844628 1.942627
-2.9085724 -3.3893754 1.9375825
-2.8940082 -3.3746967 1.9316338
-2.8890009 -3.3784363 1.9435177
-2.9022586 -3.3847857 1.9452808
-2.8849802 -3.390377 1.945115
-2.8883748 -3.3920581 1.927008
-2.8760595 -3.3964186 1.9353123
-2.8784347 -3.4046416 1.9302433
-2.8732779 -3.414979 1.9416561
-2.8602383 -3.4094007 1.9429072
-2.8594949 -3.423548 1.9433236
-2.8637908 -3.4278598 1.9424903
-2.8540294 -3.4318993 1.9419824
-2.8523788 -3.4339371 1.9391832
-2.8489597 -3.4434423 1.9348445
-2.8457005 -3.4410937 1.9328696
-2.8405428 -3.4511874 1.9305724
-2.9504302 -3.5987713 1.8974173
-2.9418161 -3.5957866 1.8846164
-2.9417834 -3.6045365 1.8814121
-2.9404941 -3.6173224 1.8880724
-2.9387825 -3.6191893 1.8944256
-2.9178982 -3.6160855 1.8807375
-2.9175165 -3.6161273 1.8890034
-2.9199278 -3.6175516 1.8917488
-2.9066725 -3.6405241 1.880821
-2.8953865 -3.643152 1.8837709
-2.9063919 -3.6371307 1.893454
-2.9038801 -3.6475291 1.8902516
-2.8941636 -3.6429348 1.8824224
-2.8876455 -3.6420965 1.8859231
-2.8744617 -3.6645975 1.8916659
-2.8749192 -3.6512716 1.8846143
-2.8690588 -3.6626263 1.8816156
-2.8549273 -3.6614609 1.8812802
-2.8580446 -3.6721144 1.8820529
-2.8520842 -3.6765611 1.8842711
-2.843168 -3.6770988 1.8965771
-2.8445635 -3.6802158 1.8825438
-2.8291557 -3.6787131 1.8971568
-2.8415716 -3.6957946 1.8966534
-2.9487295 -3.8592012 1.85102
-2.9316752 -3.8539429 1.8494099
-2.9416666 -3.8679433 1.8404686
-2.9346509 -3.8529367 1.8367091
-2.9279649 -3.8661776 1.8463055
-2.9205008 -3.8785934 1.835457
-2.9108124 -3.8672349 1.8480656
-2.9088125 -3.8824184 1.841545
-2.90084 -3.8873467 1.8405075
-2.8982489 -3.8898489 1.8463618
-2.8961556 -3.8864241 1.8471762
-2.8930237 -3.8913295 1.8373727
-2.871496 -3.8916168 1.8376849
-2.8789041 -3.910285 1.8371124
-2.8700659 -3.9076688 1.8474004
-2.8716259 -3.9029961 1.8493658
-2.8640287 -3.9140482 1.8467759
-2.8438172 -3.9285195 1.8530809
-2.850121 -3.9204431 1.8385283
-2.8374565 -3.9352062 1.8455369
-2.8389323 -3.9333117 1.8400261
-2.8395879 -3.933727 1.8336579
-2.9434924 -4.0960217 1.8043762
-2.9334078 -4.0933757 1.7871259
-2.9238896 -4.1073499 1.796517
-2.9240782 -4.1083484 1.7945985
-2.9222953 -4.1072187 1.8056375
-2.9030967 -4.1113529 1.8062077
-2.8975875 -4.1272712 1.7988487
-2.9066253 -4.1160111 1.8007139
-2.8886485 -4.1317186 1.7884526
-2.8961771 -4.1335793 1.7997476
-2.8900681 -4.1313968 1.7906716
-2.8665686 -4.1448584 1.7883557
-2.8803139 -4.1545367 1.796172
-2.8646624 -4.1501436 1.7870885
-2.850924 -4.149714 1.8032249
-2.8461409 -4.155838 1.7993097
-2.8407822 -4.16221 1.8035504
-2.8427765 -4.163383 1.8031172
-2.8429005 -4.172348 1.7910346
-2.9445009 -4.3355293 1.754475
-2.925355 -4.3376212 1.7508067
-2.9352796 -4.3419991 1.7577108
-2.9275143 -4.3459134 1.7589625
-2.911927 -4.3599725 1.7486248
-2.9054172 -4.346096 1.7427263
-2.9027655 -4.3532443 1.7547055
-2.9040234 -4.360847 1.744306
-2.8810351 -4.3762631 1.7567188
-2.8784742 -4.3776278 1.7441436
-2.8879902 -4.3772025 1.7532692
-2.8673937 -4.3836913 1.7444162
-2.87046 -4.3861713 1.7552903
-2.8666165 -4.3869576 1.7463462
-2.8615155 -4.3982339 1.7474304
-2.8467469 -4.3890843 1.7464706
-2.8378711 -4.4033718 1.7424333
-2.8370106 -4.4050117 1.7548555
-2.9316866 -4.5733705 1.7092485
-2.9285734 -4.5818138 1.7129884
-2.9180293 -4.5858846 1.7011905
-2.918354 -4.5754762 1.7069315
-2.9075258 -4.5942559 1.6942122
-2.9058182 -4.5953202 1.7047175
-2.8930488 -4.5974174 1.7079488
-2.8791895 -4.5908852 1.7043235
-2.8862844 -4.6016221 1.7103959
-2.8774109 -4.5976486 1.698805
-2.8761096 -4.6093645 1.7064302
-2.8537433 -4.6243572 1.709718
-2.8476315 -4.615201 1.7130319
-2.8533118 -4.6327715 1.7108427
-2.8532457 -4.6259203 1.6939528
-2.8458934 -4.6237745 1.7000687
-2.8280299 -4.6352777 1.7081486
-2.92816 -4.8054018 1.6601464
-2.9104478 -4.8031354 1.6521171
-2.9066575 -4.8184309 1.6520956
-2.9144521 -4.8188653 1.6643833
-2.8946161 -4.82338 1.665695
-2.8914866 -4.8282342 1.6601698
-2.8850374 -4.8252268 1.6610727
-2.8807719 -4.8286157 1.6528158
-2.8733907 -4.831121 1.650685
-2.8598878 -4.8422375 1.6610221
-2.8582995 -4.8387327 1.6512533
-2.8580415 -4.8442335 1.6478451
-2.8458071 -4.8526664 1.6532264
-2.8335884 -4.8556223 1.6622484
-2.8290768 -4.8654766 1.6508219
-4.7702441 -2.9837949 1.7011759
-4.769784 -3.0022676 1.698477
-4.7646303 -2.9998584 1.7068478
-4.7668142 -3.0005398 1.6962498
-4.7544255 -3.0259721 1.6887904
-4.7655034 -3.032455 1.6984073
-4.7438998 -3.0297828 1.6977829
-4.7576537 -3.0463274 1.6989149
-4.7508187 -3.045392 1.6933883
-4.7448826 -3.0432394 1.6971395
-4.7396846 -3.0528004 1.6933632
-4.7221479 -3.0660889 1.6977953
-4.7273011 -3.0784197 1.6913122
-4.7240739 -3.0771406 1.690817
-4.7114353 -3.0876882 1.6915532
-4.7062473 -3.0935383 1.6924642
-4.7114329 -3.1020186 1.7026992
-4.534656 -3.0011582 1.7482795
-4.5394659 -3.0048261 1.736191
-4.5297933 -3.0068197 1.7528892
-4.5363607 -3.0078864 1.7466543
-4.5266957 -3.015697 1.733753
-4.5125899 -3.0329499 1.7351367
-4.5249581 -3.0312746 1.7444098
-4.5178127 -3.0412691 1.7497393
-4.5099225 -3.0503924 1.7358165
-4.5011125 -3.0490277 1.7400055
-4.502058 -3.0577998 1.744303
-4.5026593 -3.0555766 1.7512856
-4.4953399 -3.0678844 1.7426215
-4.4913135 -3.070972 1.7392319
-4.4735131 -3.0886161 1.7343673
-4.4686055 -3.096384 1.7385788
-4.4823055 -3.1007595 1.7507892
-4.3067389 -2.991071 1.7845668
-4.305974 -2.9886916 1.7902886
-4.2991233 -3.0017674 1.7836804
-4.2880754 -3.0000637 1.7945999
-4.2927217 -3.0232439 1.7940363
-4.2903771 -3.0233967 1.7874526
-4.2766876 -3.0238237 1.7840629
-4.2863798 -3.03076 1.7893049
-4.2809286 -3.0371068 1.7930483
-4.2712569 -3.0414803 1.77868
-4.2693667 -3.0546074 1.7890916
-4.2589345 -3.0511584 1.7879108
-4.2627726 -3.0650566 1.7796764
-4.2532101 -3.0721126 1.7791623
-4.2527199 -3.0680289 1.7814784
-4.2527847 -3.0858231 1.7896464
-4.2394252 -3.0941591 1.7833861
-4.2294474 -3.0964262 1.7961823
-4.2342191 -3.0974898 1.7886186
-4.235239 -3.1131377 1.7826625
-4.0738006 -2.9955702 1.8347982
-4.0589218 -3.0072138 1.8311079
-4.0652165 -3.0069764 1.8394824
-4.0597372 -3.021466 1.826758
-4.0547647 -3.0197635 1.8240683
-4.0474677 -3.0224319 1.8295295
-4.0319948 -3.0360551 1.8325937
-4.0427747 -3.0440228 1.8393236
-4.04075 -3.0410931 1.8309171
-4.0262814 -3.0435224 1.8327835
-4.0177612 -3.0456793 1.8425426
-4.0223408 -3.0571518 1.8263479
-4.0106034 -3.0591209 1.8360746
-4.0104833 -3.0598207 1.8369898
-4.0030799 -3.0797656 1.8252797
-3.9983585 -3.0766394 1.8365676
-4.0081677 -3.0822742 1.8398929
-3.9949052 -3.0829303 1.8409047
-3.994905 -3.1058114 1.8304948
-3.9833035 -3.0984809 1.843298
-3.9898279 -3.1068954 1.8395811
-3.8332226 -2.9840255 1.8752663
-3.8263347 -2.9936221 1.8693632
-3.8097129 -3.0073876 1.8883789
-3.8121684 -3.0180469 1.8730624
-3.8063262 -3.0082889 1.8864785
-3.8091888 -3.0126526 1.8798608
-3.8087189 -3.0280743 1.8781815
-3.7872295 -3.0278237 1.8792098
-3.7961428 -3.0403073 1.8731509
-3.7922454 -3.0436587 1.8842542
-3.7720575 -3.0481188 1.8836604
-3.7814209 -3.0498822 1.8788203
-3.77668 -3.0592222 1.8855588
-3.7729161 -3.0552242 1.886977
-3.7644615 -3.0695972 1.8834857
-3.762583 -3.0710542 1.8809572
-3.7473154 -3.0762696 1.888328
-3.7537193 -3.0842316 1.8812643
-3.7390878 -3.08535 1.8870262
-3.7505078 -3.0868218 1.8747396
-3.7308173 -3.0923636 1.8832901
-3.7317131 -3.1115344 1.8753682
-3.7374418 -3.1102369 1.8833914
-3.7164247 -3.1094556 1.8806921
-3.5647309 -2.9992993 1.9341366
-3.5659473 -2.9965594 1.9261475
-3.5696852 -3.0028539 1.9182042
-3.5660453 -3.0198622 1.9275541
-3.5494623 -3.0065563 1.9210347
-3.5471103 -3.0289946 1.9182867
-3.5370381 -3.0160742 1.9152339
-3.5384083 -3.0283885 1.9182414
-3.5476935 -3.0307779 1.9277713
-3.5289485 -3.0365038 1.9233012
-3.5328963 -3.044148 1.9289923
-3.5286362 -3.0572019 1.9224218
-3.5123587 -3.0581937 1.9145492
-3.5240173 -3.0597529 1.9146549
-3.5063193 -3.0689428 1.9330473
-3.5151339 -3.0600021 1.9339762
-3.5066895 -3.0652168 1.9327946
-3.501291 -3.0760365 1.9242616
-3.4928782 -3.0803833 1.9182963
-3.4949286 -3.0902338 1.9315563
-3.4814425 -3.0882876 1.9221174
-3.4822583 -3.106344 1.9245638
-3.4696379 -3.1123917 1.9309517
-3.4648831 -3.1143746 1.9207077
-3.460016 -3.1229427 1.9261951
-3.4567497 -3.124615 1.9255388
-3.3079388 -2.9915974 1.969821
-3.3050942 -2.9878256 1.9629427
-3.3107758 -2.9999518 1.9766151
-3.3024163 -2.9984457 1.965328
-3.3007905 -3.0077779 1.9608725
-3.2885971 -3.0222571 1.9632399
-3.2939508 -3.0284538 1.9644326
-3.2929103 -3.0342405 1.9685094
-3.2821074 -3.0195115 1.9688793
-3.2858105 -3.0258746 1.9724318
-3.2701635 -3.0324006 1.9633082
-3.2754719 -3.0402715 1.9625974
-3.267652 -3.0380199 1.9743954
-3.2661536 -3.0516112 1.9723285
-3.2559359 -3.0477853 1.9655528
-3.2501671 -3.0559814 1.9689152
-3.2420247 -3.0737529 1.9706926
-3.2526834 -3.0747118 1.971289
-3.2392588 -3.0691023 1.9712139
-3.2254579 -3.0714369 1.9693695
-3.2280982 -3.0823717 1.9655869
-3.2198558 -3.0828686 1.9785154
-3.2123179 -3.0998058 1.9782714
-3.2129757 -3.0995114 1.9690061
-3.2156942 -3.0932717 1.9681306
-3.2051821 -3.1055427 1.963617
-3.2113013 -3.1139567 1.965884
-3.1956367 -3.1173213 1.971738
-3.1993694 -3.1115594 1.9677416
-3.1831713 -3.1163013 1.9659448
-3.1888111 -3.1279943 1.977741
-3.1782272 -3.135762 1.9735622
-3.1747086 -3.1403155 1.9769621
-3.171428 -3.1498568 1.9651666
-3.1774063 -3.1464524 1.9641143
-3.1642542 -3.1568782 1.9752889
-3.1556091 -3.1577718 1.962541
-3.1646912 -3.1673555 1.9709142
-3.147913 -3.1650333 1.9695288
-3.1551249 -3.1708803 1.967875
-3.1441276 -3.1667404 1.9789953
-3.1413279 -3.1763966 1.966809
-3.1427009 -3.1869204 1.9745244
-3.1206677 -3.1785557 1.9771473
-3.130424 -3.200568 1.9676175
-3.1212265 -3.1938324 1.9720984
-3.1208484 -3.2028627 1.960116
-3.1132119 -3.2053921 1.9629743
-3.1171961 -3.2155664 1.9725727
-3.1025598 -3.217382 1.9607362
-3.089571 -3.2126358 1.9774451
-3.0854559 -3.2295313 1.9688975
-3.0935211 -3.2322476 1.9742191
-3.0938649 -3.2373843 1.9722925
-3.0715797 -3.2367375 1.9727347
-3.0788186 -3.2313592 1.9642869
-3.0615702 -3.2500749 1.9711771
-3.0762982 -3.2456322 1.9599
-3.0681622 -3.2496581 1.9628043
-3.0504215 -3.2635381 1.9682426
-3.0445113 -3.2689259 1.9627705
-3.0418863 -3.2547011 1.9647397
-3.0478032 -3.2730501 1.9683233
-3.0483923 -3.2762573 1.9710946
-3.0309019 -3.2816999 1.9788307
-3.0329635 -3.2789078 1.9762568
-3.0234671 -3.2834001 1.9792728
-3.0270746 -3.2871592 1.9710304
-3.0219531 -3.2873266 1.9630545
-3.0139215 -3.2943039 1.9654851
-3.0004456 -3.2999277 1.9668078
-3.0124362 -3.3074892 1.966629
-3.0024517 -3.3055358 1.9723686
-2.9888775 -3.3087459 1.9791616
-2.9925263 -3.319046 1.9647665
-2.9884331 -3.3159943 1.9774114
-2.9869077 -3.328038 1.9698055
-2.9823608 -3.3282874 1.9626758
-2.9660506 -3.3280191 1.9596076
-2.9577103 -3.3443294 1.9737842
-2.9669335 -3.3517797 1.9665527
-2.9548283 -3.3558421 1.9759693
-2.9428959 -3.3545473 1.9715421
-2.9452186 -3.3643119 1.9681014
-2.9407423 -3.3623643 1.9785503
-2.9306552 -3.3609688 1.9762346
-2.9279177 -3.3626988 1.9660521
-2.9327803 -3.3645387 1.9597906
-2.9247668 -3.3747308 1.9779612
-2.9198158 -3.3812509 1.963979
-2.9206827 -3.3816681 1.9666975
-2.9087751 -3.3946602 1.9694978
-2.9074452 -3.4004056 1.9777308
-2.890537 -3.3931651 1.9603305
-2.8970637 -3.4061453 1.9690022
-2.893136 -3.4137418 1.9631878
-2.8915184 -3.4033093 1.9597547
-2.8800776 -3.4224536 1.9785868
-2.8748925 -3.4183047 1.9713252
-2.8715312 -3.4139307 1.9616352
-2.8621466 -3.4351549 1.9756131
-2.870038 -3.429209 1.9606774
-2.8551233 -3.426676 1.9640682
-2.85197 -3.4319832 1.9787647
-2.8462117 -3.4485717 1.9645395
-2.8317757 -3.4459922 1.9667701
-2.8431487 -3.4465606 1.9634783
-2.8379493 -3.4604595 1.9650807
-2.9572699 -3.6047344 1.9296201
-2.9402783 -3.6198182 1.9278028
-2.9329708 -3.6103051 1.9287798
-2.9316797 -3.6134768 1.9197147
-2.9253187 -3.6265326 1.9171877
-2.915561 -3.6212399 1.9333519
-2.9111011 -3.6349986 1.9169194
-2.9208608 -3.639137 1.9270513
-2.9083843 -3.6394699 1.920593
-2.8991938 -3.6394298 1.9242076
-2.9083951 -3.6401851 1.9182962
-2.8878074 -3.6489971 1.9214312
-2.8890314 -3.655556 1.9182022
-2.8892727 -3.6658835 1.9159175
-2.8785734 -3.6749158 1.924686
-2.8703957 -3.6792619 1.9228491
-2.8660479 -3.6642251 1.9313481
-2.8581271 -3.6840308 1.9197962
-2.8600688 -3.6764486 1.9319921
-2.8484633 -3.6847699 1.9283013
-2.8532376 -3.6873922 1.9279215
-2.8439176 -3.6945326 1.9227889
-2.8314571 -3.7080081 1.9151492
-2.8422201 -3.7068417 1.9212269
-2.9534986 -3.8549311 1.8770659
-2.9375505 -3.865303 1.8778334
-2.9434335 -3.8764608 1.8776609
-2.9208119 -3.8648367 1.8816987
-2.9297361 -3.8802991 1.877328
-2.9264588 -3.8893061 1.8886377
-2.9068668 -3.888243 1.8813195
-2.9076486 -3.8830211 1.8708483
-2.8935575 -3.8905058 1.8708817
-2.8871005 -3.8939257 1.8760544
-2.8945601 -3.8955657 1.8719358
-2.8809309 -3.9066575 1.8815687
-2.8865287 -3.9090376 1.8841596
-2.8722935 -3.9142072 1.8824826
-2.8740146 -3.9137182 1.8694441
-2.860101 -3.9153748 1.8714918
-2.854872 -3.9228673 1.878688
-2.8569555 -3.9365759 1.8751838
-2.8495047 -3.9416332 1.8882654
-2.8420148 -3.9456789 1.8819895
-2.8293469 -3.9426351 1.8781288
-2.8407917 -3.9514191 1.8872238
-2.936024 -4.1096539 1.8327346
-2.9350128 -4.1208887 1.8423518
-2.935673 -4.1193185 1.8364825
-2.9293659 -4.129313 1.8329736
-2.9210055 -4.1195631 1.8259811
-2.9054432 -4.1373873 1.8292817
-2.9133792 -4.133256 1.8315188
-2.9082282 -4.1271358 1.8336965
-2.8893473 -4.1338549 1.8428963
-2.8943214 -4.1375308 1.827283
-2.8901947 -4.1485314 1.8357886
-2.8753078 -4.1442657 1.8371727
-2.8707981 -4.1664104 1.8242328
-2.8721521 -4.168004 1.8253957
-2.8570094 -4.1669993 1.8403978
-2.8488533 -4.1761994 1.8416575
-2.8373914 -4.1791086 1.8311217
-2.8436866 -4.1826458 1.830771
-2.8277988 -4.1730866 1.8277586
-2.9318898 -4.3556352 1.7798749
-2.9221787 -4.3586621 1.7902756
-2.9239566 -4.3526025 1.7889748
-2.9243445 -4.3678403 1.7895541
-2.9176664 -4.3702445 1.7925564
-2.9098201 -4.3633237 1.7805721
-2.9069655 -4.3740702 1.7833878
-2.9028459 -4.3791842 1.7872863
-2.8892565 -4.3764277 1.7916316
-2.8760118 -4.3836236 1.789512
-2.8857744 -4.3915725 1.7901551
-2.8781707 -4.3958864 1.7918833
-2.8601608 -4.3880606 1.7837743
-2.8634462 -4.4067111 1.7845222
-2.8461466 -4.4047771 1.7869524
-2.8458393 -4.4010959 1.7803811
-2.8375106 -4.4206657 1.7871321
-2.8263605 -4.4222264 1.7928302
-2.9364018 -4.5803509 1.7400928
-2.9167678 -4.5874629 1.7494466
-2.9192476 -4.5904646 1.7348872
-2.9210787 -4.5919962 1.7400399
-2.9011757 -4.6016564 1.7370363
-2.9093764 -4.6007462 1.7393918
-2.8968234 -4.608686 1.7476819
-2.8818345 -4.6024742 1.743645
-2.8734112 -4.6140943 1.7440217
-2.878231 -4.6207309 1.7468123
-2.8773475 -4.6184859 1.7394814
-2.8639517 -4.6230135 1.7491425
-2.8611963 -4.6364331 1.739897
-2.8529949 -4.6381021 1.7332063
-2.8396351 -4.6462917 1.7409326
-2.8292735 -4.6491117 1.7336373
-2.9379556 -4.8121567 1.6972175
-2.9167051 -4.8204522 1.6963038
-2.9194856 -4.8267703 1.7078112
-2.9018836 -4.8243604 1.696714
-2.9014854 -4.8275242 1.6918854
-2.8884125 -4.8437548 1.7065433
-2.8856726 -4.843699 1.6917868
-2.8921726 -4.8419156 1.6993573
-2.8853579 -4.8532524 1.7027251
-2.870811 -4.840713 1.7072507
-2.863554 -4.8619413 1.6990434
-2.8474669 -4.8486481 1.7066419
-2.8522882 -4.8648696 1.692014
-2.8455966 -4.8702292 1.7038785
-2.8299963 -4.8619361 1.6966524
-4.7936158 -2.9890258 1.7358854
-4.7739496 -3.0001664 1.7321148
-4.7847643 -3.0180714 1.7439401
-4.7794075 -3.0127141 1.746451
-4.771915 -3.0220993 1.7368886
-4.768384 -3.0219345 1.7483722
-4.7663269 -3.0366087 1.73941
-4.7622113 -3.03931 1.7412722
-4.7490835 -3.0458198 1.7320298
-4.7440457 -3.0526662 1.7410535
-4.7490444 -3.0576127 1.737058
-4.7381153 -3.0670869 1.7486145
-4.7309475 -3.0715799 1.7489525
-4.731945 -3.0749288 1.7413282
-4.730423 -3.0950074 1.7309935
-4.7184534 -3.0957866 1.7474926
-4.5519919 -2.9914601 1.7797991
-4.5576324 -2.9943302 1.7922425
-4.5414023 -3.0083325 1.784827
-4.5344057 -3.0215662 1.7772101
-4.5383763 -3.0240767 1.791286
-4.5263333 -3.0199454 1.7825205
-4.5227256 -3.032943 1.7758893
-4.5187707 -3.0312443 1.7925303
-4.5224314 -3.0523384 1.7757077
-4.5164175 -3.0457876 1.7847149
-4.513896 -3.0601084 1.7773621
-4.5028782 -3.0642626 1.7735084
-4.4994082 -3.0763884 1.7820159
-4.503345 -3.0857282 1.7836475
-4.4948897 -3.0832579 1.7891204
-4.4923496 -3.0929735 1.7850707
-4.4785666 -3.103318 1.7743629
-4.3109984 -2.9828258 1.8355069
-4.3073435 -3.001153 1.8180659
-4.3205023 -2.9977305 1.8334978
-4.3046455 -3.0160592 1.8209251
-4.2961335 -3.0076516 1.8305084
-4.2914667 -3.0200641 1.83427
-4.2982836 -3.0207126 1.83499
-4.2834606 -3.0372136 1.8244724
-4.2831564 -3.0354912 1.8305255
-4.2868938 -3.0443113 1.8325143
-4.2813301 -3.0503047 1.8301413
-4.2784338 -3.0568302 1.8354852
-4.2729697 -3.0607109 1.83029
-4.2720652 -3.0729392 1.8327982
-4.2637253 -3.080868 1.8297406
-4.2657933 -3.088351 1.820291
-4.244092 -3.0868809 1.8362076
-4.241662 -3.0948257 1.821632
-4.2497416 -3.1067126 1.8347815
-4.2317595 -3.1065917 1.8251079
-4.0745387 -2.9896069 1.879251
-4.077086 -3.0093408 1.8690343
