# .PCD v0.7 - Point Cloud Data file format
VERSION 0.7
FIELDS x y z
SIZE 4 4 4
TYPE F F F
COUNT 1 1 1
WIDTH 1565
HEIGHT 1
VIEWPOINT 0 0 0 1 0 0 0
POINTS 1565
DATA ascii
3.4244502 4.3791318 1.3372278
3.4139106 4.3971524 1.3319411
3.4137688 4.3986897 1.3275825
3.4057999 4.402956 1.3294259
3.398066 4.4001489 1.3390362
3.3974378 4.3989511 1.336774
3.3900411 4.4075766 1.3338594
3.3817165 4.4242287 1.3341966
3.3873088 4.4169612 1.3392519
3.3732862 4.4280796 1.3373247
3.3586411 4.4394522 1.322154
3.3502676 4.4263868 1.320236
3.356601 4.4392886 1.3350962
3.3385692 4.4503374 1.3294722
3.3423743 4.459774 1.3362986
3.3357832 4.4547114 1.3371937
3.3269234 4.4683871 1.3219898
3.3151426 4.4598804 1.3387214
3.3236926 4.4631143 1.3234779
3.3172913 4.4784803 1.3346536
3.3089566 4.485363 1.3325112
3.3054445 4.4900408 1.3326216
3.3000081 4.487226 1.3209606
3.2894256 4.4925609 1.3356836
3.2732124 4.4878883 1.3351873
3.2638195 4.5028186 1.324981
3.2753153 4.51509 1.3238118
3.251601 4.5017872 1.3295058
3.2446117 4.5232482 1.3338122
3.2423728 4.524528 1.3288723
3.251303 4.5236988 1.3262112
3.2380846 4.5255909 1.3236324
3.2249703 4.5282855 1.3336525
3.2201889 4.5466428 1.3244295
3.2101243 4.5350394 1.3259648
3.2195568 4.5403008 1.3378705
3.198777 4.543323 1.3374957
3.1968217 4.548902 1.3392756
3.2005541 4.5537691 1.3379824
3.188587 4.5626802 1.3334436
3.1716735 4.566812 1.3235594
3.1720929 4.5640221 1.3310595
3.1699271 4.57442 1.3367553
3.1577754 4.5863452 1.3363186
3.1563945 4.5945206 1.3197972
3.136543 4.5984497 1.3240652
3.1485908 4.5879269 1.3268919
3.1402578 4.6017823 1.3308427
3.1336987 4.60571 1.3352146
3.1258404 4.6040168 1.3240612
3.1134372 4.6117625 1.3326114
3.1111436 4.6262856 1.3339522
3.096344 4.6250081 1.3212807
3.0872343 4.6179495 1.3361329
3.097682 4.6358871 1.3347682
3.0916021 4.6403561 1.3329493
3.0697842 4.6432619 1.3362328
3.070787 4.6442299 1.3290061
3.0557349 4.64504 1.3213505
3.0650485 4.6443992 1.3276538
3.0432029 4.6577687 1.3373638
3.0499015 4.6552639 1.3372675
3.037935 4.6643853 1.3315728
3.0332911 4.6708283 1.3345075
3.0234935 4.6741562 1.3310769
3.0123253 4.6778483 1.3278213
3.0193324 4.6861715 1.3231866
3.0096171 4.6819534 1.3352443
2.9926691 4.6891441 1.3238453
2.98806 4.6921158 1.3275477
2.9897482 4.6997156 1.3203708
2.9811406 4.7004929 1.3264495
2.9724309 4.6957889 1.3374189
2.9580209 4.7129321 1.3306099
2.9665396 4.7067742 1.3229166
2.9516222 4.7159514 1.3347117
2.9534433 4.7186437 1.3306359
2.9306242 4.7181354 1.3381568
2.9398568 4.7271996 1.3286924
2.9176848 4.7381806 1.3380331
2.9192095 4.7373815 1.3308154
2.9135518 4.7345128 1.3202266
2.9139669 4.7494779 1.3207941
2.9053462 4.7565823 1.3343745
2.8899105 4.75876 1.337676
2.886776 4.7525811 1.3260425
2.8754308 4.7547898 1.3329986
2.8800044 4.7607517 1.3353528
2.8720932 4.7625237 1.3226867
2.854712 4.7687078 1.3369262
2.8466661 4.7830052 1.3263007
2.8513968 4.7782402 1.3287497
2.8455331 4.7804909 1.3221159
2.8402317 4.7807264 1.3385481
2.828505 4.7921386 1.3331288
2.8200746 4.8070335 1.3375109
2.8200049 4.7972064 1.3200912
2.806886 4.7985811 1.3246318
2.7961156 4.8186793 1.3269525
2.7926738 4.8080359 1.3314741
2.7834661 4.8159914 1.3263199
2.7836275 4.8153291 1.3324363
2.7662325 4.8154593 1.3368485
2.7621984 4.8369493 1.3375509
2.7545907 4.8333807 1.3257289
2.7615588 4.828054 1.3248748
2.7529037 4.8493357 1.3302759
2.7468233 4.8441825 1.3331436
2.7252784 4.8549485 1.3322103
2.7260485 4.8489671 1.3367441
2.7113352 4.8604779 1.3253533
2.7114625 4.8588557 1.329429
2.6977007 4.866549 1.3297733
2.6883461 4.8769245 1.3277559
2.6996884 4.8664141 1.3383271
2.6792035 4.8695989 1.319738
2.6778595 4.8708601 1.3386072
2.6619112 4.8727789 1.3285086
2.6688254 4.8798957 1.3253708
2.6548014 4.8945308 1.3324558
2.6453059 4.901206 1.3272656
2.6444142 4.8947673 1.3366764
2.6275933 4.9013309 1.3300133
2.6311116 4.9053087 1.329968
2.6326075 4.9074039 1.3356638
2.6246693 4.9157939 1.3208053
2.6181369 4.9096241 1.3234791
2.6104686 4.9142966 1.3243517
2.5926969 4.9126787 1.3286306
2.5917821 4.9238372 1.3238437
2.5779474 4.9323053 1.3220407
2.5789175 4.926693 1.3301169
2.5692933 4.9310756 1.3210844
2.5530012 4.9457974 1.3323672
2.5566587 4.9488416 1.3220917
2.5460072 4.950778 1.3365623
2.5404921 4.9530187 1.3212292
2.5376458 4.9544325 1.3269441
2.5356672 4.964921 1.327426
2.5179627 4.9613457 1.3354608
2.5154662 4.9707923 1.3283679
2.511162 4.9680705 1.3320765
2.4949291 4.9625912 1.3365911
2.4896588 4.9676905 1.3322604
2.4756665 4.9833241 1.3274159
2.4713938 4.9751873 1.3209604
2.461587 4.9884214 1.3332072
0.61929065 -4.9264355 1.5123738
0.6141957 -4.9331875 1.5112987
0.62960839 -4.9301424 1.4941978
0.62368095 -4.9307327 1.4965367
0.60827714 -4.7462955 1.5559016
0.62615639 -4.7322631 1.5554385
0.62043422 -4.7331228 1.5556865
0.61201787 -4.5362158 1.6118845
0.62243438 -4.534143 1.628376
0.61766982 -4.5432043 1.6097677
0.63267469 -4.5454345 1.6236686
0.63812649 -4.5396481 1.6099716
0.6161533 -4.3557377 1.6764152
0.62316197 -4.3542762 1.6834524
0.6325084 -4.3508739 1.6841712
0.64326769 -4.3562112 1.6780725
0.6061554 -4.1644402 1.7282048
0.61643255 -4.1521645 1.7266471
0.62495571 -4.1558223 1.7263191
0.62996912 -4.1505942 1.7360781
0.63637304 -4.1567097 1.7427462
0.60794753 -3.954468 1.7922821
0.61428875 -3.9634891 1.7973007
0.62912136 -3.9715817 1.8029307
0.63099003 -3.9564071 1.791104
0.63357627 -3.9565508 1.7930726
0.620013 -3.7634296 1.8544389
0.60841572 -3.7749312 1.8492845
0.61525947 -3.7637196 1.8596181
0.62177402 -3.7733035 1.8543175
0.63804638 -3.7622912 1.8420315
0.64098561 -3.7567818 1.8418564
0.60387641 -3.5816839 1.9097649
0.62315333 -3.5861259 1.9107758
0.62805903 -3.5742383 1.9060998
0.62113678 -3.5653024 1.9004104
0.63618189 -3.5654168 1.9179182
0.63464123 -3.5823998 1.9030818
0.64794499 -3.5778096 1.9186068
0.61810535 -3.3835032 1.9616411
0.61617661 -3.3867099 1.976872
0.62196058 -3.3722444 1.9767399
0.62756824 -3.3885217 1.9620376
0.62313229 -3.370523 1.9620507
0.63970613 -3.3726184 1.9731016
0.63160264 -3.3866348 1.972232
0.63780862 -3.3706036 1.9703844
0.6415211 -3.3811092 1.9706831
0.65039599 -3.3833063 1.9746945
0.65479451 -3.3668609 1.9636573
0.66427523 -3.3770738 1.9685688
0.66898555 -3.3662307 1.9670947
0.67356253 -3.3745074 1.9684854
0.68343592 -3.3719456 1.9670104
0.69332111 -3.3775349 1.9625688
0.69425589 -3.3759508 1.963233
0.69431973 -3.3728833 1.9590442
0.69253463 -3.3708241 1.963459
0.71104687 -3.3646097 1.9647793
0.71356922 -3.3587155 1.9616408
0.70505297 -3.3680575 1.9673791
0.72144687 -3.3574054 1.9630429
0.71636522 -3.3668909 1.9695063
0.73267299 -3.3512163 1.957601
0.72750425 -3.3503685 1.9591694
0.73789251 -3.3532968 1.9613782
0.74894369 -3.3608706 1.9657044
0.73580468 -3.3549378 1.971133
0.7470789 -3.3551993 1.9618126
0.75967205 -3.3576441 1.9574164
0.7491253 -3.3533089 1.9627017
0.76431525 -3.3572829 1.9576561
0.77516752 -3.3510396 1.9621353
0.77248174 -3.3531885 1.9612929
0.77788919 -3.3452046 1.9602953
0.78486359 -3.3515296 1.9753602
0.79404527 -3.3514993 1.9618351
0.7875517 -3.3493023 1.9732206
0.7864852 -3.3405237 1.9633152
0.79609662 -3.3438437 1.9699297
0.80131048 -3.3424003 1.9598368
0.81180805 -3.3504555 1.9647216
0.81725842 -3.3323455 1.9747941
0.82718647 -3.3416069 1.9616561
0.81627053 -3.3301449 1.9754333
0.82435536 -3.336391 1.9618106
0.82750344 -3.3381367 1.9671367
0.83712494 -3.3310554 1.9735719
0.83813018 -3.3297188 1.9676908
0.8492285 -3.3234475 1.9573889
0.84693962 -3.336637 1.9674225
0.85455632 -3.3240025 1.9682868
0.86705607 -3.3305895 1.9661404
0.86962676 -3.3319187 1.9736054
0.87905765 -3.3288329 1.9713986
0.88226414 -3.322329 1.9618052
0.8718462 -3.317343 1.9693193
0.88675272 -3.3273993 1.9627614
0.88809264 -3.3211126 1.97638
0.90354985 -3.3283885 1.9751039
0.90870333 -3.3226123 1.9594651
0.9038887 -3.3138769 1.9752815
0.89993668 -3.3172975 1.9633248
0.91383648 -3.3228016 1.9688464
0.91519952 -3.3235273 1.9762551
0.91435397 -3.3056974 1.9689618
0.9239133 -3.3029344 1.9654429
0.94098496 -3.3099124 1.9706491
0.9314968 -3.3001964 1.960917
0.93562555 -3.2996669 1.9626776
0.93847626 -3.2986264 1.9689764
0.94568646 -3.3070412 1.9627663
0.94871116 -3.3040466 1.9718845
0.9597773 -3.3117893 1.9742413
0.95636326 -3.3028045 1.9746084
0.96035594 -3.2992985 1.9715352
0.97705364 -3.2908652 1.9699481
0.97023046 -3.2899902 1.9600995
0.98861164 -3.3032315 1.9586773
0.9772588 -3.2969704 1.9764882
0.98766464 -3.2924833 1.9740369
1.0043675 -3.2854087 1.9618618
0.99485809 -3.2999303 1.9713656
1.0144651 -3.2880049 1.9718044
1.0164269 -3.2841108 1.9598995
1.0187539 -3.2808394 1.9701655
1.0180057 -3.2854838 1.9675235
1.0156685 -3.281563 1.9644084
1.0234807 -3.2838709 1.9666977
1.0298686 -3.2821395 1.9738872
1.0340656 -3.2746081 1.9641967
1.0358093 -3.2749782 1.9602071
1.0453758 -3.2694595 1.9603156
1.0444441 -3.2689342 1.970963
1.0639492 -3.2710454 1.9641114
1.0515474 -3.2754259 1.959132
1.0694095 -3.2651489 1.9681022
1.0646274 -3.2618015 1.9595809
1.0767282 -3.2752323 1.967333
1.0711163 -3.2668638 1.9753915
1.0926918 -3.2588847 1.9695498
1.0845747 -3.2537463 1.9619001
1.0924659 -3.263624 1.9583247
1.1004634 -3.2590137 1.9738238
1.0991062 -3.2594767 1.9657546
1.1108954 -3.256918 1.9718415
1.117703 -3.2610714 1.9667354
1.1134785 -3.2545793 1.9635003
1.1207308 -3.2605567 1.9653515
1.1157328 -3.2567139 1.9740821
1.1387912 -3.2558618 1.9692965
1.1360058 -3.2476907 1.9681473
1.1455684 -3.2361903 1.9756122
1.1515534 -3.2412522 1.9661727
1.1530353 -3.2522287 1.9747491
1.1464459 -3.2359719 1.9643569
1.165941 -3.2374606 1.9682773
1.1603278 -3.2277253 1.9571499
1.1714773 -3.2352867 1.9584986
1.1644758 -3.232393 1.9621372
1.1662027 -3.2309856 1.9650688
1.1831416 -3.2369063 1.9746059
1.178929 -3.2378047 1.9740715
1.1821791 -3.2372563 1.9668969
1.1959873 -3.2197621 1.9671611
1.1983697 -3.233391 1.9620912
1.2103577 -3.2320564 1.9739354
1.2062637 -3.2208643 1.9739113
1.2110399 -3.2230499 1.9647158
1.2171625 -3.2167618 1.9767979
1.2269214 -3.2132695 1.9686648
1.2196095 -3.2173584 1.9729819
1.2218324 -3.2101779 1.9747654
1.2235184 -3.2042632 1.9754556
1.2380276 -3.2090538 1.9719924
1.2327983 -3.2159729 1.973246
1.242497 -3.2154131 1.9741737
1.2440373 -3.2034538 1.9646267
1.2455511 -3.2112224 1.9712211
1.2578671 -3.1973703 1.9624243
1.2622627 -3.1982589 1.9754342
1.2785226 -3.1909564 1.9626632
1.2790973 -3.185926 1.9753743
1.281453 -3.203702 1.9722956
1.2844965 -3.1914587 1.9627157
1.2840742 -3.1889324 1.9644995
1.284903 -3.1811926 1.9651197
1.2866571 -3.1963956 1.9759697
1.2988615 -3.1945651 1.9573151
1.297658 -3.1848967 1.9707704
1.307655 -3.1753082 1.9615887
1.3106594 -3.1739328 1.9579549
1.3208903 -3.1764536 1.9575906
1.3238298 -3.1810868 1.9576831
1.3236881 -3.1671424 1.9682455
1.3339639 -3.1780834 1.9595544
1.326021 -3.1726565 1.9768173
1.3386955 -3.1699338 1.9570849
1.3422176 -3.1594625 1.9573848
1.3470824 -3.174648 1.9655485
1.3453997 -3.1642873 1.9614899
1.354533 -3.1553702 1.9569896
1.3600297 -3.1606681 1.9681454
1.3651594 -3.1474698 1.9728384
1.3703791 -3.1588535 1.9696403
1.3661585 -3.1443996 1.9736593
1.3732442 -3.1423242 1.961257
1.3775899 -3.1520071 1.9697231
1.3822008 -3.1425982 1.9668001
1.3871088 -3.1527522 1.9668248
1.4001778 -3.1490138 1.9753375
1.4091856 -3.1405647 1.970888
1.4136903 -3.1310389 1.9592553
1.4093481 -3.1408005 1.9589298
1.4096962 -3.1297569 1.9653227
1.4268435 -3.1273458 1.9642659
1.4280069 -3.1222584 1.9633746
1.4367652 -3.1372318 1.9708843
1.433987 -3.1319983 1.9658809
1.4282829 -3.1262579 1.9687948
1.4426008 -3.1318471 1.9735126
1.4454286 -3.1128244 1.9647388
1.443804 -3.1136901 1.9635441
1.4505441 -3.1232886 1.9706347
1.4569557 -3.1169264 1.9668099
1.4697576 -3.1178021 1.9634306
1.4614997 -3.1218965 1.9631677
1.4723476 -3.1016121 1.9659537
1.4707024 -3.1084826 1.9719896
1.484051 -3.1054311 1.9617761
1.4803106 -3.112433 1.9639776
1.4812852 -3.1009753 1.9631997
1.4934832 -3.0955076 1.959548
1.5044833 -3.0876629 1.9642838
1.5025713 -3.0977664 1.9733615
1.5168315 -3.0994251 1.9595371
1.5077095 -3.0936961 1.9595859
1.5183216 -3.0814707 1.9578805
1.5117168 -3.0952389 1.96726
1.5311451 -3.0800045 1.9576403
1.5203569 -3.0928531 1.9589621
1.5317671 -3.0890672 1.9696788
1.5423965 -3.0774207 1.9637939
1.5493714 -3.0791082 1.963679
1.5410789 -3.067039 1.9713795
1.5418613 -3.0650382 1.9753342
1.5488162 -3.0764847 1.9629247
1.5558168 -3.0616419 1.9606415
1.5611091 -3.0577233 1.9624848
1.5757778 -3.0586934 1.9574513
1.5808238 -3.0547655 1.9574519
1.5671885 -3.0637381 1.9591149
1.5842668 -3.0663893 1.9702952
1.5754572 -3.0463705 1.9576527
1.5865297 -3.0589461 1.9749379
1.5852996 -3.0550385 1.9720767
1.588021 -3.0484717 1.9756154
1.5983298 -3.0391972 1.9718376
1.6063524 -3.0489204 1.9698128
1.6162152 -3.0482616 1.9646466
1.6210414 -3.0468409 1.9612308
1.625865 -3.0433362 1.9666591
1.6323485 -3.0270309 1.9672468
1.6300092 -3.0238099 1.9656578
1.6350241 -3.0337882 1.969292
1.6373211 -3.0292652 1.9746267
1.6367538 -3.0262861 1.9643149
1.639722 -3.0172608 1.9610584
1.6389091 -3.024472 1.9658535
1.6560683 -3.0260768 1.969076
1.6480581 -3.0071084 1.9714824
1.6566288 -3.0075662 1.9751505
1.6706247 -3.0057876 1.9728748
1.665205 -3.010592 1.9715652
1.6781931 -3.0146217 1.9580165
1.6748122 -3.000592 1.9667242
1.6767627 -3.011364 1.976138
1.6883981 -3.0033987 1.9722987
1.6967738 -3.000474 1.9589636
1.6899412 -3.0046148 1.9617333
1.7063279 -3.0009875 1.9611751
1.7051177 -2.9930077 1.9578568
1.8018646 -3.1618323 1.9160581
1.8022727 -3.1535714 1.905092
1.8013676 -3.1565306 1.907776
1.8069105 -3.1470759 1.9021641
1.8211575 -3.1398726 1.9034486
1.8248148 -3.1452322 1.9103608
1.8246292 -3.1464114 1.9178543
1.8311051 -3.1386154 1.9188576
1.8403471 -3.1386211 1.9011331
1.8490273 -3.1240225 1.9090276
1.8543855 -3.1311517 1.9123157
1.8558924 -3.1222839 1.9013604
1.8464296 -3.1187291 1.9049351
1.8596473 -3.1140358 1.9154478
1.8672494 -3.1194963 1.910641
1.8761324 -3.1256969 1.9179454
1.871924 -3.1164768 1.9015353
1.8752054 -3.105171 1.9103798
1.8794864 -3.10901 1.916671
1.8860394 -3.108552 1.915007
1.8804832 -3.1071153 1.9036541
1.8982115 -3.1085474 1.9186031
1.9049808 -3.1038148 1.9145348
1.8953211 -3.0902336 1.9125817
1.9161705 -3.0934155 1.9025837
1.9122093 -3.0920758 1.903795
1.9155487 -3.0793025 1.9116298
1.9224744 -3.0876024 1.9081678
1.9182408 -3.0759718 1.9182583
1.9202948 -3.0821354 1.9061922
1.940681 -3.0781987 1.9129419
1.9297106 -3.0808735 1.9156326
1.9336853 -3.0811152 1.9004228
1.953588 -3.0753489 1.9161555
1.9515339 -3.0730622 1.9060613
1.959478 -3.0590615 1.9146556
1.9486296 -3.0660429 1.9133658
1.9656122 -3.0504165 1.9011133
1.9591291 -3.0633373 1.917822
1.9627326 -3.0585144 1.905692
1.9742661 -3.0576119 1.9148173
1.9725455 -3.0519824 1.9185807
1.9935118 -3.0466774 1.8994091
1.9792645 -3.0457647 1.9033045
2.000746 -3.0311978 1.9067813
1.9921293 -3.0329742 1.9015473
1.9921031 -3.0298831 1.9066148
2.0107832 -3.0340896 1.9045855
2.0172071 -3.0290556 1.9069061
2.0203357 -3.0246904 1.9113142
2.0113304 -3.0130606 1.9138838
2.0314465 -3.027416 1.8993355
2.035322 -3.0250661 1.9073393
2.0400219 -3.0212209 1.9134967
2.0286133 -3.0201476 1.911456
2.0406775 -3.0119402 1.9048678
2.0475039 -3.0080049 1.9185936
2.0393939 -3.0096309 1.9053303
2.0492504 -3.0090711 1.9143124
2.0614235 -2.9896166 1.9048648
2.058001 -3.0033977 1.9042464
2.0571439 -2.9812887 1.9064661
2.1700764 -3.1373355 1.8502722
2.1828873 -3.1349401 1.8530561
2.1818511 -3.1481676 1.8540891
2.19877 -3.1335406 1.8604994
2.1890965 -3.1362934 1.848009
2.1931446 -3.1313589 1.8510506
2.2039249 -3.1207657 1.8518044
2.2036831 -3.1221936 1.8491589
2.2139895 -3.1312344 1.8498731
2.2236731 -3.1253188 1.849831
2.2155721 -3.1189945 1.8486799
2.2292237 -3.1042581 1.8468957
2.2256551 -3.1149523 1.8488497
2.2431152 -3.1131175 1.8423897
2.2469809 -3.1053421 1.85013
2.2383523 -3.0979002 1.8597519
2.2527606 -3.1040552 1.8569078
2.2479186 -3.094825 1.8495706
2.2604265 -3.0996573 1.8501211
2.2536445 -3.0791705 1.85351
2.2668157 -3.0911446 1.8601395
2.2588317 -3.073823 1.8584156
2.2690589 -3.0844216 1.8429019
2.2812357 -3.0819077 1.8461213
2.2869482 -3.0798707 1.854008
2.2803965 -3.070801 1.8462226
2.283462 -3.0716569 1.8491623
2.3036795 -3.0616851 1.858206
2.296555 -3.0635307 1.8592854
2.3099768 -3.0564795 1.8577133
2.3067827 -3.0605738 1.8410228
2.3102138 -3.0569646 1.8585038
2.3119166 -3.0474362 1.8422297
2.3181012 -3.0500345 1.8453074
2.3275003 -3.0312195 1.8472538
2.3247819 -3.043251 1.8550955
2.3342736 -3.0365071 1.8589008
2.3467004 -3.0338318 1.8494917
2.3481665 -3.0225623 1.8550447
2.3507073 -3.0221479 1.8444505
2.3516715 -3.0292001 1.8465577
2.3559408 -3.0170894 1.849064
2.3576863 -3.0075395 1.8578824
2.3631532 -3.0160642 1.8608805
2.3716931 -2.999444 1.8594654
2.3621747 -3.0097923 1.8427845
2.3804939 -2.9948945 1.8496077
2.3826134 -2.9918108 1.8558604
2.3753192 -2.9914978 1.8501307
2.3935735 -2.9928758 1.8415575
2.5203147 -3.1273844 1.7847174
2.5102818 -3.1318128 1.7946695
2.5227504 -3.1387138 1.7908959
2.5240324 -3.1243613 1.7953163
2.5283074 -3.1256778 1.7930697
2.5311627 -3.1207166 1.7971815
2.5373321 -3.1216364 1.7928921
2.5503199 -3.1046314 1.7883815
2.5495553 -3.0991113 1.8008732
2.543056 -3.0995226 1.7886701
2.5479786 -3.0964599 1.7885034
2.5540071 -3.1078155 1.8004135
2.5699828 -3.0910835 1.8019218
2.5621798 -3.0974455 1.7942756
2.5787923 -3.0839033 1.8017999
2.573153 -3.0918722 1.790766
2.5716207 -3.0780327 1.7952873
2.585794 -3.075562 1.7932818
2.5954516 -3.0782073 1.7932591
2.5975957 -3.0716982 1.7892816
2.6075318 -3.0646079 1.7848171
2.5972962 -3.0558257 1.7854413
2.5989656 -3.0553997 1.7992356
3.5928285 -4.2148366 1.3194931
3.6099794 -4.2128649 1.3333259
9.5827551 -0.19207594 0.10842112
9.5740309 -0.17584482 0.11972978
9.5841522 -0.16164342 0.10643099
9.5773582 -0.14389634 0.11161201
9.3805227 -0.12969527 0.17353392
9.3980017 -0.12000388 0.16957133
9.3975277 -0.11750643 0.166518
9.3905363 -0.1013281 0.17147957
9.1991348 -0.08436095 0.22517921
9.2025747 -0.068358369 0.23131436
9.2038984 -0.061648972 0.22144581
9.1899462 -0.043937098 0.23444791
9.0158663 -0.035520006 0.28624147
8.9998875 -0.015237511 0.28447005
9.0090723 -0.00061005814 0.28056294
9.0218763 0.012968556 0.3590762
8.8391933 0.02398942 0.41771895
8.8252792 0.027861515 0.40289462
8.8363085 0.051602758 0.41003585
8.84307 0.058664978 0.40035152
8.8359489 0.066949837 0.40454826
8.6471109 0.079592682 0.47017878
8.6430912 0.090848461 0.4740102
8.8247252 0.10822188 0.40901235
8.8327398 0.11287625 0.40263093
8.8368311 0.13065751 0.41559947
8.8335943 0.13760301 0.40726784
8.8324327 0.15065943 0.41048723
8.8364305 0.1747883 0.4051269
8.8275509 0.18573837 0.41450787
8.8289709 0.18964475 0.39985284
8.8345699 0.21663889 0.40712705
8.8292322 0.21972285 0.41360432
8.8277082 0.23273928 0.40325969
8.8377199 0.25391674 0.40524924
8.8213329 0.25934806 0.41270006
8.8378973 0.26172301 0.41477662
8.8261127 0.28313386 0.41759014
8.8375301 0.28875625 0.41221333
8.8235703 0.30573145 0.40546772
8.838975 0.32437506 0.41030994
8.819706 0.32888383 0.4098281
8.8276949 0.34833786 0.40011245
8.8221436 0.34656855 0.4110958
8.826231 0.37512842 0.41093969
8.8322906 0.38763598 0.40389839
8.8257837 0.39705977 0.40691599
8.8213358 0.39506814 0.39902896
8.819684 0.42488047 0.40444931
8.8326387 0.42113638 0.41453043
8.8188314 0.43321681 0.4109413
8.8298483 0.44646671 0.3995477
8.8203659 0.4681603 0.41529548
8.8211508 0.4847748 0.41696194
8.8129025 0.48596555 0.41487697
8.8244801 0.49372208 0.41298893
8.8289995 0.51549518 0.40821481
8.8165197 0.53336138 0.4091399
8.8161354 0.5301342 0.40756893
8.8211546 0.56043679 0.40994626
8.8162374 0.55752355 0.41209725
8.8077135 0.5862366 0.41519222
8.8077793 0.58609408 0.40767571
8.823576 0.60738045 0.40446952
8.821022 0.62107891 0.4101508
8.8163652 0.62703335 0.41128626
8.809804 0.63820243 0.40189344
8.8184509 0.6576038 0.41806647
8.8080063 0.65735036 0.3987129
9.007266 0.69731259 0.3608132
8.9975729 0.69893837 0.3442533
8.9900131 0.7128216 0.34411025
9.0055313 0.72756857 0.35152963
8.993515 0.73892713 0.34794134
8.9982748 0.74856371 0.34575871
8.988698 0.77439326 0.35723883
9.0002394 0.77452779 0.34759763
9.0023708 0.7841931 0.34506857
9.000658 0.80431426 0.34999809
8.9995737 0.81332028 0.34815297
8.9971228 0.83358848 0.35538113
8.9980936 0.84726977 0.34394133
8.9789047 0.85745919 0.35469875
8.9871178 0.85664016 0.34426638
8.991725 0.88160646 0.3509236
8.9741316 0.89803934 0.35086489
8.9880009 0.90707421 0.35839668
8.9722118 0.91931826 0.34305122
8.973876 0.9309445 0.35528594
8.9804525 0.94259936 0.3439872
8.9851665 0.95293349 0.36041871
8.9770908 0.96538687 0.35799527
8.9775572 0.97981656 0.35322654
8.9687643 0.98364186 0.35510576
8.9695215 0.99327445 0.34941983
8.9769192 1.0065316 0.34763712
8.9642401 1.0348935 0.34236127
8.959075 1.0487189 0.3568033
8.9585466 1.0454788 0.35034707
8.9702368 1.0701026 0.34302303
8.9706097 1.0807452 0.35351217
8.9673967 1.0846347 0.34393573
8.9617434 1.1103312 0.35627177
8.9513035 1.1085922 0.35991782
8.9627256 1.1289853 0.36068305
8.9484444 1.1381676 0.34219405
9.1426554 1.1803893 0.30300713
9.1412458 1.1948302 0.30168849
9.1342611 1.2101879 0.30462423
9.1408024 1.2186971 0.29968029
9.1400023 1.2290589 0.2928775
9.129673 1.2377049 0.29746482
9.1297493 1.2622117 0.29525146
9.1421442 1.2578105 0.29880401
9.1381674 1.2863804 0.29025674
9.1349382 1.2822356 0.29840106
9.1332016 1.3035933 0.29196975
9.1288109 1.3251776 0.28722736
9.1230841 1.3214303 0.30509296
9.1202755 1.3458956 0.29872033
9.112505 1.3512491 0.28996456
9.1179132 1.36798 0.29711217
9.107892 1.3865119 0.29602632
9.1156387 1.3991808 0.29780143
9.1069212 1.4096326 0.29541114
9.1096382 1.4186326 0.29614308
9.100481 1.4276918 0.3055023
9.1048756 1.4341736 0.30371788
9.1045103 1.4567593 0.30546102
9.1019926 1.4783847 0.29894662
9.0930843 1.4741058 0.30506554
9.0954027 1.4971197 0.2951979
9.1048517 1.5120138 0.29114723
9.0931959 1.5165747 0.28705317
9.0832987 1.5343549 0.30070141
9.0909929 1.5368071 0.29064286
9.079401 1.5520755 0.29693946
9.0771513 1.573729 0.29701656
9.2621155 1.6098088 0.23043053
9.2597427 1.6328768 0.22932459
9.2708378 1.6490803 0.2312469
9.268033 1.6496633 0.24349318
9.2553434 1.6617736 0.23794653
9.258585 1.6843251 0.24427658
9.2577143 1.6990931 0.23570563
9.250474 1.7036872 0.23690864
9.2531567 1.7188394 0.24070489
9.2421179 1.7339087 0.23348239
9.2511387 1.7471107 0.23688674
9.2501059 1.7601887 0.23042914
9.2479486 1.7666281 0.24724819
9.2476959 1.7925478 0.23172663
9.2396717 1.7880803 0.23539491
9.2460823 1.8091748 0.24869756
9.2388048 1.831737 0.24385427
9.2229395 1.8294154 0.2306944
9.2282581 1.8521514 0.23977929
9.2173557 1.8662415 0.2310295
9.2192125 1.8717626 0.24258111
9.2244558 1.8786794 0.23431341
9.2232237 1.9058857 0.23959123
9.2187929 1.9153038 0.23789836
9.2188215 1.9191802 0.23885095
9.2025013 1.9319677 0.24801446
9.1994658 1.9599968 0.2468603
9.2115688 1.9546964 0.23050807
6.4620795 2.9881103 0.92369014
6.4462824 2.9963796 0.9134782
6.4465923 3.0108182 0.92288166
6.4437914 3.0171409 0.91140383
6.4314346 3.0276408 0.90895134
6.4365835 3.0414114 0.91958702
6.4319811 3.0475123 0.92760319
6.4188175 3.0594928 0.91904253
6.246778 2.979063 0.97943568
6.2488222 2.9796424 0.98167026
6.2360616 2.9869525 0.97257996
6.2279434 3.0026226 0.9827652
6.2296009 3.0027723 0.97840142
6.2206502 3.0243037 0.97137821
6.2202096 3.037673 0.96587884
6.2173038 3.0403986 0.96517992
6.2050219 3.0427418 0.98161745
6.2007442 3.0561535 0.98107719
6.0358229 2.9701934 1.0301101
6.0269217 2.9949949 1.0344672
6.0202432 2.9911902 1.0374354
6.0244627 3.0034339 1.0273806
6.018856 3.0215139 1.0287883
6.0088735 3.0148339 1.0230458
6.0118561 3.0319161 1.021997
6.0093279 3.0303075 1.0350041
6.0060887 3.0406442 1.0216906
5.9992757 3.0509422 1.0331311
5.8210406 2.965431 1.0913255
5.8062687 2.9821346 1.0893652
5.8158422 2.9963164 1.0952003
5.8083725 2.9988859 1.0848848
5.8108368 3.0000284 1.0842611
5.7946978 3.0153804 1.0885749
5.7928047 3.0179183 1.081594
5.7898512 3.0221429 1.0846338
5.7798944 3.0473552 1.0896456
5.7766123 3.0499926 1.0965964
5.784759 3.049515 1.0968928
5.774539 3.0584049 1.0857842
5.5929627 2.9909592 1.137305
5.5867209 2.9900301 1.1467481
5.5901527 2.995739 1.1492425
5.5929499 3.0094938 1.1390036
5.58005 3.0055518 1.1432232
5.5801587 3.0228641 1.1435938
5.5832958 3.0344381 1.1411089
5.5714345 3.0269601 1.1531999
5.5665126 3.0518706 1.1367574
5.5618763 3.0508134 1.141155
5.5661206 3.0618286 1.1401232
5.5453248 3.070751 1.1503607
5.3861089 2.9743795 1.1950618
5.3773589 2.9976273 1.2091774
5.3783593 2.992157 1.1915668
5.3635688 3.010988 1.2034904
5.3691382 3.0171597 1.1992155
5.3522129 3.0156844 1.1996962
5.3473678 3.0335121 1.1973268
5.3460698 3.0309398 1.2061455
5.3491588 3.0368588 1.1982306
5.3512058 3.0462394 1.1914953
5.3434801 3.0485249 1.1935374
5.3438945 3.0662091 1.1913306
5.3384142 3.0690539 1.1961629
5.1691742 2.9853613 1.2488915
5.1581202 2.9871042 1.2637625
5.1427813 2.9961126 1.2496846
5.147913 3.0044777 1.2659671
5.1506653 3.0157568 1.252216
5.1422262 3.0143478 1.2569282
5.1258621 3.0192184 1.2635713
5.1227531 3.0406067 1.265056
5.121676 3.0466628 1.2567872
5.118382 3.0515027 1.2639312
5.1199107 3.0575156 1.2558736
5.1176076 3.0566251 1.2623707
5.1101651 3.0645564 1.2506942
5.1086349 3.08179 1.2602061
4.9391456 2.9868109 1.3103769
4.9402657 2.9865 1.3154236
4.9260883 2.9940259 1.3181821
4.9185448 3.0026536 1.3151758
4.9124761 3.014425 1.3110787
4.918129 3.0271332 1.3046803
4.9109163 3.0256107 1.3171597
4.9156365 3.0260355 1.321619
4.9068441 3.0432787 1.3068863
4.9063659 3.0432622 1.3222698
4.89539 3.062269 1.3147085
4.898025 3.0665474 1.31996
4.8856974 3.0608099 1.3058671
4.8761182 3.0716996 1.3135372
4.8835239 3.0807009 1.3061199
4.7047029 2.9769821 1.3611084
4.7017369 2.9925871 1.371177
4.7112417 2.9971216 1.3748293
4.7051964 2.9970829 1.3688893
4.7044091 3.0007944 1.3761038
4.6989965 3.0177677 1.3755013
4.6860132 3.0216234 1.3723598
4.6782722 3.0374084 1.3766692
4.6764293 3.0278809 1.3650626
4.6822476 3.0500348 1.3756578
4.6606393 3.0397727 1.3783036
4.6574602 3.0506966 1.3699932
4.6643405 3.0552855 1.3796618
4.6548643 3.0779989 1.3627419
4.6594386 3.0841041 1.3629894
4.6512184 3.0889843 1.3736722
4.6423869 3.0850787 1.3616786
4.4707646 2.9912562 1.4354939
4.4832315 2.9859657 1.416711
4.4640832 3.0107179 1.4335672
4.4755216 2.9980955 1.4336529
4.4695969 3.0065367 1.4181596
4.4553533 3.0261102 1.4207585
4.4507694 3.0204682 1.41958
4.4492569 3.0236707 1.4180217
4.4479833 3.0429318 1.4348649
4.4373837 3.0376494 1.4213295
4.434782 3.0446818 1.4338869
4.4294367 3.0483387 1.4349157
4.4252996 3.057013 1.4344642
4.4180102 3.0613003 1.435164
4.4307981 3.0838463 1.4180845
4.4080839 3.0763407 1.4343638
4.4079599 3.0884519 1.4187921
4.4066491 3.10326 1.4202198
4.2468548 2.9906526 1.491262
4.2409658 3.0018134 1.4742802
4.2415333 2.9946082 1.4781456
4.2346497 3.0063014 1.4794885
4.2287869 3.0181108 1.4833323
4.2224641 3.0268919 1.4852959
4.2168331 3.0327306 1.4836441
4.2141147 3.0401337 1.4883311
4.2076669 3.0317001 1.4789797
4.2056394 3.0462513 1.4782929
4.2050314 3.0422289 1.4892213
4.1989074 3.0564759 1.4853979
4.1957927 3.0554571 1.4884626
4.1965361 3.0717299 1.4773198
4.1786137 3.066323 1.4920912
4.1845269 3.0787852 1.4897546
4.1723957 3.0898159 1.4873735
4.1786041 3.0823357 1.486518
4.1694922 3.0926239 1.4913574
4.1710205 3.1051092 1.4848825
4.0180802 2.9865203 1.5450755
4.009994 3.0005317 1.5371115
3.9980767 2.9956775 1.5422809
3.9892163 3.0158234 1.5378811
3.9892054 3.0223122 1.5422386
3.9839582 3.0189877 1.533228
3.9763665 3.0278137 1.5494242
3.9863861 3.0271378 1.5323222
3.9755423 3.0416477 1.5396965
3.9695303 3.0419915 1.5337499
3.9570355 3.0474825 1.538113
3.9681759 3.0490494 1.5309079
3.9513445 3.0628684 1.5332752
3.9596748 3.0720043 1.5302207
3.9435976 3.0653145 1.5480933
3.9518702 3.0775702 1.5370854
3.9311244 3.0864348 1.5493531
3.9265673 3.0895271 1.535401
3.9249005 3.0859916 1.5304201
3.9306004 3.100668 1.5402507
3.930346 3.1070812 1.5300459
3.9144471 3.1088734 1.5358872
3.761157 2.9987142 1.5865834
3.7605717 3.0002971 1.6043563
3.7569249 3.0100653 1.5899366
3.7511432 3.0123761 1.6022758
3.7543464 3.018219 1.5979888
3.74981 3.0237899 1.5913092
3.7313142 3.0319872 1.5956153
3.7278302 3.030185 1.5891249
3.7341695 3.0324368 1.6035806
3.7302966 3.0431056 1.594368
3.7322581 3.054986 1.5889082
3.7083578 3.0504458 1.5997922
3.7222235 3.0664303 1.595211
3.7016623 3.0608122 1.5877131
3.713433 3.0625832 1.6008365
3.7009094 3.0640113 1.5943152
3.7016993 3.0711443 1.5907812
3.6867878 3.0790012 1.6002409
3.6853788 3.0974128 1.5867543
3.6784184 3.0961742 1.5987442
3.6822381 3.1011267 1.5974283
3.6805909 3.1064157 1.5863917
3.6698205 3.1098146 1.6061652
3.6744621 3.1169038 1.5951518
3.5255034 2.9956908 1.6572974
3.5159297 2.9903476 1.659164
3.4998279 3.0100672 1.6430129
3.5001853 2.999156 1.649574
3.4899957 3.0111232 1.6494081
3.4863126 3.0204246 1.6428708
3.4946125 3.0178475 1.6561592
3.4815898 3.0379324 1.6496161
3.4775236 3.0315633 1.6613573
3.4732244 3.0341587 1.655079
3.4779048 3.0382209 1.6468166
3.4681737 3.0568733 1.6483183
3.4603024 3.0435944 1.6446528
3.4562733 3.0548503 1.645195
3.4587986 3.0601008 1.6528293
3.6046107 3.1932228 1.5883454
3.6002414 3.191679 1.5929714
3.5891535 3.2013168 1.5928249
3.5915158 3.2110996 1.6014575
3.5856121 3.2208009 1.5878398
3.5734231 3.2194071 1.5934445
3.5729647 3.2325137 1.5928674
3.5740013 3.221987 1.5941836
3.5513654 3.2316761 1.6019334
3.5492647 3.248142 1.5901176
3.5547912 3.251219 1.59925
3.5523775 3.2543695 1.6018341
3.5345831 3.2508819 1.5890579
3.5366349 3.2542133 1.6010725
3.5273128 3.2561049 1.5978026
3.5243659 3.2702785 1.5881597
3.5270169 3.268471 1.58665
3.5290837 3.2721848 1.5896467
3.5124602 3.2777541 1.5973717
3.5035794 3.2857211 1.5966083
3.5028763 3.2837203 1.5939736
3.5112984 3.3038177 1.5895476
3.5022981 3.3106399 1.5966986
3.5005147 3.3040402 1.602252
3.4907391 3.3126509 1.6047741
3.4776869 3.3228545 1.596553
3.4749849 3.3202555 1.6016145
3.4707665 3.3242769 1.6054859
3.4695382 3.336235 1.5900291
3.456028 3.3438795 1.5976485
3.4617476 3.3353946 1.5983822
3.6026399 3.4733644 1.5377849
3.581099 3.4936619 1.5356884
3.5867021 3.4967699 1.5421264
3.5778518 3.4947033 1.5323163
3.5715163 3.5041919 1.5478573
3.5769529 3.4955928 1.5359532
3.5674441 3.5073967 1.5432309
3.5617998 3.5225997 1.5376335
3.5606918 3.5289273 1.5348539
3.5471961 3.5256157 1.5387692
3.5344274 3.5300305 1.5423888
3.5376048 3.5377452 1.5413064
3.5386789 3.5359116 1.5383393
3.5261841 3.5500824 1.5483195
3.5238724 3.5427802 1.5428091
3.5170946 3.5457833 1.5437275
3.5184062 3.5641534 1.5314841
3.5069883 3.5617623 1.5494851
3.5099664 3.5631526 1.5488616
3.4901581 3.5759442 1.5399816
3.4942582 3.5808704 1.5305781
3.481971 3.5738845 1.5439582
3.4885948 3.5928898 1.53058
3.4722447 3.5843246 1.5464553
3.465868 3.5983787 1.5301174
3.4739742 3.6105928 1.5318788
3.462992 3.6090629 1.5471138
3.4597597 3.6210668 1.5350673
3.5870144 3.759743 1.482978
3.5809524 3.7650249 1.4753542
3.5860033 3.7593784 1.4877876
3.5616438 3.7664235 1.488373
3.5706575 3.7850773 1.4831085
3.5662861 3.772373 1.4844304
3.5577829 3.7782905 1.4749651
3.5529349 3.7973197 1.4928797
3.5498416 3.790379 1.4844371
3.5419762 3.8052249 1.4831781
3.5420575 3.7998581 1.4770461
3.526593 3.8136556 1.491205
3.5234981 3.8177371 1.4747336
3.5128293 3.8226991 1.4803307
3.5227394 3.8219218 1.4796127
3.5073781 3.822027 1.4812285
3.4933319 3.8388898 1.4838074
3.4898136 3.8361726 1.4804686
3.4842029 3.8356366 1.4852494
3.4901431 3.8525167 1.4799436
3.4748173 3.8547666 1.4843463
3.4733529 3.866847 1.4776289
3.4660404 3.8611345 1.4900829
3.4622498 3.8700626 1.4825963
3.59182 4.0173135 1.4328868
3.5726953 4.0316067 1.434945
3.5751793 4.0171828 1.4289858
3.5802355 4.0245762 1.4354362
3.5619457 4.031702 1.4364853
3.5684297 4.0501175 1.4295565
3.5496011 4.0385633 1.420027
3.5551684 4.0509076 1.4177351
3.5340111 4.0613093 1.4248953
3.5453012 4.053297 1.4361553
3.5290978 4.0724678 1.4267488
3.5197284 4.0781035 1.4266441
3.5124102 4.0718203 1.4271321
3.5191262 4.0761967 1.4300382
3.5122857 4.0878944 1.4351025
3.5064874 4.0916934 1.4336221
3.4937534 4.1022882 1.4356357
3.4914832 4.1040821 1.4250494
3.4869142 4.1103568 1.4199288
3.4894986 4.1135669 1.4218675
3.4833364 4.1062255 1.4180566
3.467761 4.1151733 1.4349689
3.5953894 4.269423 1.364143
3.5799785 4.269279 1.3693473
3.5674667 4.2879739 1.3613603
3.5600121 4.2865562 1.3722916
3.5710702 4.2980971 1.368945
3.5641351 4.2930675 1.3625273
3.5466068 4.3091755 1.3775274
3.543951 4.313581 1.3708885
3.543227 4.317544 1.3720673
3.5386851 4.3116579 1.3773612
3.5310488 4.3158178 1.3651259
3.5291302 4.3305125 1.3677577
3.512409 4.3386478 1.3641037
3.5076938 4.3452878 1.3740597
3.4939032 4.3489518 1.370593
3.4967589 4.3516536 1.377141
3.4931905 4.3428073 1.3748496
3.4846151 4.3572922 1.3720247
3.4693942 4.3570461 1.3682321
3.4753454 4.3582592 1.3736314
3.5857477 4.528183 1.3217269
3.5845339 4.5320292 1.3161622
3.5659449 4.5251746 1.3138356
3.563695 4.5396328 1.3132604
3.5513942 4.5463347 1.3114694
3.5556197 4.5419335 1.3075086
3.5463862 4.5400124 1.3098383
3.5348547 4.5555701 1.321798
3.5404911 4.5619688 1.3086656
3.5223281 4.5603871 1.3119086
3.5295577 4.5761185 1.3099065
3.5214264 4.5769281 1.3067634
3.5077236 4.5854473 1.3117878
3.5116873 4.578022 1.3063009
3.4950688 4.584609 1.3225552
3.4966526 4.6017408 1.3094568
3.4742689 4.5959659 1.3094941
3.4742081 4.6049924 1.3201555
3.4661002 4.6059957 1.3122904
3.4648533 4.6151829 1.3179271
3.4668424 4.6179538 1.3143878
3.4468229 4.6189542 1.3067595
3.4436536 4.6326189 1.3227608
3.4455018 4.6366215 1.3064563
3.4218566 4.6303873 1.3118669
3.4344587 4.6521249 1.3095465
3.4139562 4.6378732 1.316597
3.4134843 4.6499624 1.3078291
3.403667 4.6603522 1.3152283
3.405978 4.6559095 1.306988
3.393919 4.6598778 1.3167002
3.3783143 4.6702552 1.3226036
3.3750746 4.6838984 1.3173716
3.3678296 4.6858315 1.3113513
3.3642738 4.6905675 1.3143146
3.3661218 4.6943612 1.3142424
3.3456428 4.684114 1.3151546
3.3522079 4.6998634 1.3234009
3.3499987 4.7122703 1.3172908
3.3351822 4.71347 1.3220012
3.3321187 4.7090993 1.3059523
3.3187611 4.7156181 1.3155618
3.3113003 4.725399 1.3141046
3.2986012 4.7344432 1.3098799
3.2998753 4.7264452 1.3056999
3.3041062 4.7268171 1.3206314
3.2882586 4.7332373 1.3206424
3.2733166 4.7527566 1.3117384
3.2666149 4.7566071 1.3105866
3.2737966 4.7521887 1.3059886
3.2656822 4.7512598 1.3123828
3.2615128 4.7635336 1.3206688
3.2469463 4.7749128 1.3141173
3.2509165 4.7801661 1.3120005
3.2306557 4.7732725 1.3172861
3.2262087 4.7771959 1.3183525
3.2166867 4.7918634 1.3212576
3.2071695 4.7981877 1.3191097
3.2087419 4.8044147 1.3162495
3.2091565 4.8044348 1.3044167
3.2049668 4.802958 1.3071107
3.187165 4.803936 1.317543
3.1776431 4.8169775 1.3148286
3.1815636 4.8206258 1.3128507
3.1633611 4.8306556 1.3194716
3.1704378 4.8228879 1.3055176
3.1585751 4.8322535 1.3217422
3.1496112 4.8387632 1.3198113
3.1384933 4.8335137 1.3196374
3.1445091 4.8353524 1.3150225
3.118686 4.8396816 1.3044794
3.1155508 4.8528957 1.3104717
3.1228418 4.8632803 1.3050725
3.1074126 4.8642845 1.3188981
3.1099992 4.8737912 1.3183396
3.0992007 4.8770857 1.3056084
3.0944421 4.8752346 1.3178474
3.0859022 4.8711429 1.3122102
3.0754256 4.8826628 1.3169466
3.064769 4.8869343 1.3191545
3.0694914 4.8921247 1.3213339
3.0436649 4.9009271 1.312379
3.0438247 4.9037747 1.3094699
3.0385795 4.8979526 1.3232355
3.0271537 4.9014831 1.3221875
3.0351639 4.9209871 1.3201234
3.0104368 4.9225106 1.3119073
3.0179429 4.9222779 1.3153079
2.9998059 4.9183583 1.3059465
3.0063996 4.9305782 1.316584
2.9951952 4.9343219 1.3081484
2.9861646 4.9390473 1.3042618
2.968173 4.9507456 1.3189787
2.9672668 4.9440184 1.3036389
2.9601202 4.9526911 1.3076047
2.95192 4.9562054 1.3068589
2.9416499 4.9618297 1.3234307
2.9431581 4.9618034 1.3155735
2.928061 4.9704885 1.31961
2.9235969 4.9726224 1.311689
2.9297645 4.9704123 1.3233443
2.9074907 4.9860382 1.3155668
2.901325 4.9905443 1.3153394
2.9098701 4.9810224 1.3042461
2.9030702 4.9912376 1.3176963
2.8802302 5.0001421 1.3105413
2.8766389 5.0056715 1.3049005
0.60922718 -4.933744 1.5484948
0.61601681 -4.9430418 1.5404222
0.63441175 -4.9485402 1.5369993
0.61047167 -4.7475548 1.5978636
0.61087787 -4.7493725 1.5887077
0.61942655 -4.7483687 1.5999994
0.63836896 -4.7391515 1.5987066
0.61969596 -4.562109 1.6522819
0.61974132 -4.5526104 1.6574701
0.63365477 -4.5466437 1.6615112
0.63687718 -4.5602522 1.6589022
0.61590987 -4.363925 1.702698
0.61274445 -4.3661914 1.7035877
0.62615496 -4.3552823 1.7142663
0.62387812 -4.3506017 1.7022843
0.63244426 -4.3640056 1.7104537
0.60483372 -4.1752367 1.7635297
0.62313116 -4.1565933 1.7660342
0.61845231 -4.1642694 1.7571927
0.63896054 -4.1643949 1.7734642
0.64350861 -4.1676602 1.7752647
0.61665457 -3.9824471 1.8190218
0.62557179 -3.9761999 1.8231187
0.63537747 -3.9626358 1.8172723
0.63586062 -3.9774406 1.815246
0.6443606 -3.9697707 1.8189465
0.61091357 -3.7788739 1.877226
0.62384152 -3.7850056 1.8767508
0.61927289 -3.7816389 1.8877438
0.62586159 -3.7835858 1.8777471
0.62872064 -3.7668047 1.8836128
0.63337886 -3.7739053 1.8841455
0.61354136 -3.5884404 1.9266279
0.60923666 -3.5879674 1.9452682
0.61908436 -3.5925627 1.9282399
0.62690455 -3.5742075 1.9380105
0.63842392 -3.5847332 1.9283384
0.63167137 -3.5876138 1.9316901
0.64444226 -3.5803447 1.9375564
0.61465603 -3.3828852 1.9971669
0.62815708 -3.3967757 1.9961412
0.62752259 -3.3912861 1.9871408
0.62741971 -3.3792105 1.9935225
0.63324761 -3.3964512 1.9995327
0.63771456 -3.388855 2.0000963
0.64515209 -3.3784482 1.9981563
0.64235884 -3.3815305 1.9848253
0.64989239 -3.3763726 1.9877412
0.66077644 -3.3834496 1.9970467
0.65752542 -3.3717685 1.9940428
0.65733331 -3.3713264 1.996302
0.67611414 -3.3762572 1.9831976
0.66589332 -3.3860283 2.0013094
0.68205291 -3.3747079 2.0013139
0.68422133 -3.3836553 1.9880416
0.68695205 -3.369899 1.9842966
0.68774152 -3.3836687 1.9965831
0.6951986 -3.3746359 1.9931347
0.70557028 -3.3794494 2.0017099
0.70524603 -3.3722425 2.0010602
0.7219165 -3.3699551 1.9999399
0.72084492 -3.3736134 1.9929695
0.72666746 -3.3722174 1.9953021
0.73060042 -3.3593855 1.9880227
0.73453653 -3.3691075 1.9908568
0.74519902 -3.3608196 1.9865013
0.73211503 -3.3564622 1.987424
0.75131607 -3.3693662 1.9964206
0.74706739 -3.3566155 1.9996384
0.75139248 -3.3689046 1.989091
0.75506628 -3.3692377 1.9998523
0.75761837 -3.3553553 1.98597
0.77319854 -3.3603621 1.992492
0.77110988 -3.3661461 1.9908473
0.78174031 -3.3527026 1.9984758
0.77520329 -3.3533041 1.9933804
0.78430927 -3.3516958 1.9916242
0.79433656 -3.3555908 1.9959394
0.79335892 -3.3484378 1.9919739
0.79559749 -3.3416612 1.9946814
0.80728716 -3.355911 1.9960114
0.80973643 -3.3523076 1.9901725
0.81830192 -3.3378215 1.9982694
0.81338775 -3.3501196 1.9995183
0.82682741 -3.3364818 1.9931396
0.82789397 -3.3540738 1.9850821
0.84386349 -3.3472512 1.9975492
0.83807516 -3.3350911 1.9850308
0.83660042 -3.3485968 1.9985685
0.85115862 -3.3445511 1.9977793
0.84842265 -3.3335006 2.0016301
0.86701494 -3.3446846 1.9879675
0.85976684 -3.3319852 1.987668
0.860614 -3.3288805 1.9939407
0.88270825 -3.3370152 1.9927149
0.8784222 -3.3287606 1.9927542
0.88607693 -3.3292122 1.9984668
0.88619703 -3.3201263 1.9951837
0.89379704 -3.3371878 1.9972323
0.89493304 -3.3243618 1.9821578
0.89527804 -3.3189414 1.9969584
0.89947206 -3.3195961 1.9993929
0.91000187 -3.332165 1.9933381
0.92023045 -3.3285511 1.9891931
0.91672993 -3.3275056 1.9957118
0.93200183 -3.315407 1.9892771
0.92731124 -3.320313 2.0011761
0.92833155 -3.3097565 2.0009396
0.94606692 -3.316256 1.9824144
0.94584906 -3.3062737 1.9954807
0.95055491 -3.3205986 1.9927269
0.95005947 -3.3153803 1.9880712
0.95199662 -3.3042812 1.989593
0.96787721 -3.3076007 1.9934685
0.95961094 -3.2990661 1.997123
0.97786158 -3.2999034 1.9916029
0.96967554 -3.3100731 1.999897
0.97338659 -3.3038628 1.9974614
0.97685939 -3.3045552 1.9872339
0.98180491 -3.310102 1.9856895
0.99981487 -3.2955778 1.9885147
0.99506915 -3.3061819 1.9952461
1.0056658 -3.2994797 1.991758
0.99778235 -3.3015263 1.9836254
1.0137725 -3.2964664 1.9826958
1.0134152 -3.2977812 1.9995911
1.0275357 -3.2919059 1.9849722
1.0299484 -3.2869413 1.9952128
1.0299236 -3.2831235 1.9834037
1.039669 -3.2789783 1.9846839
1.0478684 -3.2814393 1.9991181
1.0388907 -3.2932599 2.0015717
1.0566424 -3.2790961 1.989344
1.0509042 -3.277426 1.9936802
1.0570312 -3.2843742 2.0016804
1.0622267 -3.2762861 1.9869632
1.0643152 -3.2786818 1.9967123
1.0717829 -3.2832673 1.9900107
1.0694891 -3.2724781 1.9857051
1.0753843 -3.2765419 1.9841164
1.0825573 -3.277003 1.9986323
1.0841626 -3.2710361 1.9998864
1.0882193 -3.27191 1.9938567
1.1000462 -3.2631125 1.9880432
1.0962073 -3.2727766 1.9938211
1.1003664 -3.2618315 1.9862205
1.1098061 -3.2533822 1.994751
1.1089927 -3.2620473 1.9972163
1.1214757 -3.2575865 1.9889849
1.1296508 -3.2518089 1.9951973
1.1362351 -3.2634339 1.9994498
1.1373332 -3.2580278 1.9881641
1.139683 -3.2531369 1.994493
1.136001 -3.2609887 1.9881012
1.1465032 -3.257247 1.9905212
1.1627812 -3.2539117 1.9823555
1.1514564 -3.2457001 2.001102
1.1686597 -3.2428632 1.9896398
1.1683263 -3.2521021 2.0010884
1.179759 -3.2377229 1.9967587
1.1774019 -3.2413139 1.9992412
1.1792951 -3.2283597 1.9855609
1.1899002 -3.2376058 1.9951962
1.186832 -3.2350819 1.995398
1.1973697 -3.2266018 1.9977534
1.190325 -3.2263875 2.0018497
1.1951123 -3.2220395 1.9925566
1.2186438 -3.2250273 1.9844935
1.2107106 -3.2328854 1.9855781
1.214224 -3.2338457 1.9994221
1.2134051 -3.2216954 1.9880488
1.2350665 -3.2121823 1.9879974
1.2230452 -3.2165918 1.997061
1.2406569 -3.2085955 1.9870033
1.2384678 -3.2145844 1.9837742
1.2386317 -3.2121391 1.9991016
1.2428894 -3.2094254 1.9971131
1.2578517 -3.2076964 1.9904662
1.2647486 -3.2184148 1.9942845
1.2727276 -3.2101314 1.9954596
1.2745481 -3.2071762 1.9870954
1.2649928 -3.2070668 1.9865487
1.2753837 -3.2034831 1.9998904
1.2748358 -3.2067902 1.9995204
1.2842276 -3.1967859 1.9914469
1.2903879 -3.1911154 1.9840978
1.2918731 -3.1856823 1.9977354
1.2913673 -3.1897795 1.9913685
1.3042122 -3.1914701 1.9925436
1.3008728 -3.1896694 2.0002561
1.3187058 -3.1905336 1.9891716
1.3081722 -3.185436 1.9964381
1.3170893 -3.1944282 1.9855235
1.3193456 -3.188446 1.9895307
1.3212295 -3.1775477 2.0017648
1.3350371 -3.184962 1.9978858
1.341493 -3.1753616 1.9976503
1.3415841 -3.1707351 1.9915215
1.3553056 -3.1777294 2.0018997
1.3501996 -3.1725261 1.9922702
1.3528035 -3.1739502 1.9999616
1.3643203 -3.1703658 1.9909296
1.3631009 -3.1623199 1.9910784
1.3709642 -3.1564703 1.9953758
1.3828322 -3.1531875 1.9887317
1.3869315 -3.1605446 1.9928277
1.3871492 -3.1658909 1.9846717
1.3871287 -3.1555889 1.9992838
1.4009767 -3.1560051 1.9850372
1.4052004 -3.1459649 1.9941232
1.3997917 -3.1577554 1.9999081
1.4020717 -3.1424615 1.9873942
1.4153169 -3.1528163 2.0010369
1.4087083 -3.1397347 1.9986336
1.4263942 -3.1392095 1.9976114
1.4174335 -3.1390064 1.9873242
1.4325659 -3.1430044 1.9897766
1.4395396 -3.1314392 2.0006108
1.4411225 -3.1304398 1.9891022
1.4484562 -3.1296272 1.9857012
1.444873 -3.1386318 1.9885709
1.4470719 -3.1297617 1.9847897
1.4567542 -3.1320488 1.9887024
1.4600765 -3.125345 1.9837395
1.4609925 -3.1253524 1.9973385
1.4608834 -3.1187148 1.989171
1.4704844 -3.1213369 1.9950299
1.4825349 -3.1213744 1.990472
1.4854168 -3.1242151 1.9849257
1.4767871 -3.1041057 1.9981978
1.4847536 -3.1119602 2.0004652
1.495587 -3.1019936 1.9895964
1.5026362 -3.1067197 1.9944277
1.4935952 -3.1124961 1.9839445
1.4995885 -3.1017258 1.9914293
1.5191778 -3.0954313 1.9835206
1.5105968 -3.1038997 1.990953
1.5278715 -3.1046784 1.9963049
1.5205855 -3.0869334 1.9967669
1.5277504 -3.0821733 1.9952832
1.5281842 -3.0937991 1.9838839
1.5308825 -3.0789411 2.0003836
1.542709 -3.0813804 1.9900839
1.5393639 -3.0772045 1.9919282
1.5455325 -3.0713761 1.9824572
1.5591829 -3.0702963 1.997189
1.5649216 -3.0821326 2.0013549
1.5580897 -3.0810261 1.9826382
1.5566067 -3.0715349 1.9995568
1.5755827 -3.0792048 1.9991194
1.5730721 -3.0707643 1.9849344
1.5791589 -3.0639458 1.9834795
1.5817425 -3.069618 1.9974511
1.5940233 -3.0629497 1.9934587
1.5881453 -3.054424 1.9931486
1.5927931 -3.0565562 1.9917661
1.5921698 -3.057255 1.9963893
1.5957091 -3.049088 1.9999548
1.6005287 -3.0467033 1.9908415
1.6222638 -3.049639 1.991882
1.6235584 -3.0393786 1.9991809
1.6306647 -3.0473213 1.9911103
1.6363131 -3.0369678 1.9951732
1.6359299 -3.0386174 1.9837043
1.6315511 -3.0304258 1.9985551
1.6468592 -3.0418646 1.9890614
1.6407815 -3.0382016 1.9966507
1.6393238 -3.0352707 1.990183
1.6614285 -3.0317888 1.9838698
1.6544167 -3.0308375 1.9923849
1.6684421 -3.0328541 1.9889187
1.6697632 -3.0120234 1.9952615
1.6630105 -3.0098004 1.9897044
1.6803175 -3.0122137 2.0002377
1.6861523 -3.0232556 1.9966967
1.6868346 -3.0032361 1.9994452
1.6780199 -3.0135376 1.9835793
1.6967913 -3.0095372 1.9883605
1.6890917 -3.0076694 1.994334
1.6950756 -2.9970472 1.9989635
1.7095715 -2.9966302 1.999275
1.7005976 -2.9991195 1.9981101
1.7179636 -2.9925861 1.9968547
1.7097689 -2.9929664 1.990867
1.7121042 -2.99173 1.9915127
1.826092 -3.1605778 1.9332964
1.8278607 -3.1557665 1.9389923
1.8337598 -3.1563914 1.9263457
1.8244367 -3.1489203 1.9332187
1.8410834 -3.1396666 1.9283596
1.8423561 -3.140115 1.941557
1.8439368 -3.1337316 1.929899
1.8443488 -3.1341739 1.9424025
1.863502 -3.1269987 1.9321476
1.8566639 -3.1216726 1.9407456
1.8704678 -3.1217372 1.9446584
1.8626024 -3.1244435 1.930854
1.8804289 -3.1256576 1.93389
1.8856056 -3.1205981 1.9418561
1.8776515 -3.1232917 1.9365292
1.8848345 -3.1091089 1.9282007
1.8852115 -3.1177385 1.9436963
1.8939266 -3.1103449 1.9361844
1.8951417 -3.1081836 1.9332761
1.9060982 -3.0972424 1.933116
1.9056489 -3.0968757 1.9303077
1.9091088 -3.1087494 1.9422032
1.9187605 -3.1071675 1.9302887
1.9114445 -3.1047764 1.9408314
1.932091 -3.0947034 1.9260722
1.9274068 -3.0818076 1.9428815
1.9343904 -3.0928915 1.9284409
1.9368658 -3.0796132 1.9387674
1.9318255 -3.089469 1.9286226
1.9438732 -3.0727139 1.9267802
1.955757 -3.08075 1.9426599
1.9448287 -3.0696645 1.944015
1.9657922 -3.073262 1.9442952
1.9548373 -3.068506 1.9443035
1.9744213 -3.0674307 1.9317157
1.9792423 -3.0553632 1.9293487
1.9808688 -3.0606315 1.9332168
1.9880508 -3.0477405 1.9276761
1.9855556 -3.0442019 1.9295865
1.9929117 -3.0529239 1.9255527
1.9984215 -3.0540669 1.9307775
1.9998071 -3.0504389 1.9443768
2.0025439 -3.0501444 1.9316614
2.0055573 -3.0450983 1.9409786
2.0085747 -3.0447576 1.9286419
2.0190008 -3.0438814 1.9256377
2.0270557 -3.0256608 1.9346237
2.0189748 -3.0245359 1.9337537
2.0253494 -3.0301807 1.9336692
2.0336304 -3.0327396 1.9421035
2.0378737 -3.0140553 1.9266297
2.047338 -3.0182478 1.9320127
2.0503974 -3.0239625 1.934913
2.0407376 -3.0109186 1.9400766
2.0603909 -3.0191083 1.9427921
2.0477037 -3.0011191 1.9435886
2.0520084 -2.9993184 1.9398053
2.0652947 -3.0098374 1.9343398
2.0777075 -2.9982173 1.9404171
2.0700314 -3.002548 1.9411167
2.0707858 -2.9868624 1.9376763
2.185082 -3.1437869 1.8706625
2.1959574 -3.1438687 1.8716481
2.1897292 -3.1378257 1.8828353
2.2086604 -3.1363406 1.8829848
2.2103026 -3.1317503 1.8782693
2.2127371 -3.127059 1.8724951
2.2113838 -3.1332805 1.8733358
2.224561 -3.131285 1.8829249
2.2238109 -3.1211567 1.8853062
2.2237563 -3.1144617 1.8804896
2.240257 -3.1066737 1.8737097
2.24629 -3.1124098 1.8838005
2.233304 -3.1087697 1.8768809
2.2515008 -3.1105893 1.8883866
2.2498429 -3.0951538 1.8814168
2.2634652 -3.1016662 1.8760663
2.2513089 -3.0939102 1.8814163
2.2599888 -3.0973513 1.8856778
2.2782536 -3.085912 1.8769771
2.2788951 -3.0788925 1.8718749
2.2747157 -3.0797336 1.8714582
2.283752 -3.0788987 1.8821968
2.2828746 -3.075402 1.873461
2.2950733 -3.0780563 1.8797847
2.2987731 -3.0667124 1.878417
2.2954986 -3.0660856 1.887404
2.3068693 -3.0619502 1.8810079
2.3035855 -3.0534651 1.8880258
2.3045585 -3.0510418 1.8833319
2.3168266 -3.0522985 1.8825003
2.323988 -3.062052 1.8776644
2.3307281 -3.0470824 1.8704942
2.3282022 -3.0372987 1.8836457
2.336936 -3.0396206 1.8709613
2.331989 -3.0425422 1.8864336
2.34567 -3.0330338 1.8793395
2.3483331 -3.0364454 1.8731815
2.3445957 -3.027427 1.8723031
2.3478715 -3.0217173 1.8706369
2.3664489 -3.028017 1.8844968
2.3641903 -3.0114281 1.8853798
2.3770909 -3.0123677 1.8780032
2.362817 -3.020097 1.8771751
2.3816898 -3.0033517 1.8707842
2.3878736 -3.0158083 1.8782243
