# .PCD v0.7 - Point Cloud Data file format
VERSION 0.7
FIELDS x y z
SIZE 4 4 4
TYPE F F F
COUNT 1 1 1
WIDTH 1549
HEIGHT 1
VIEWPOINT 0 0 0 1 0 0 0
POINTS 1549
DATA ascii
13.853481 0.51099795 1.0516634
13.860968 0.52405351 1.0499936
13.85617 0.55993456 1.0516642
13.861161 0.57643759 1.0411801
13.867201 0.59669054 1.0511346
13.866172 0.60709906 1.049189
13.848825 0.63372868 1.0494905
13.858264 0.65672743 1.0473784
13.865427 0.67642909 1.0533218
13.862884 0.68893665 1.0432104
13.85382 0.70882589 1.0511017
13.844961 0.71691644 1.0527072
13.854405 0.74095047 1.0508534
13.845493 0.77074456 1.0461636
13.84607 0.78737354 1.0423887
13.856575 0.80379593 1.0496851
13.845107 0.82372075 1.0442755
13.853913 0.83396089 1.0425302
13.84058 0.85226774 1.0411531
13.853164 0.88896132 1.0529515
13.835609 0.89754885 1.0453084
13.845919 0.91826171 1.0464264
13.837807 0.92943001 1.0522505
13.847815 0.95272434 1.0485421
13.833105 0.97766066 1.0421376
13.834594 0.99419326 1.052832
10.795687 -4.9855905 1.3302025
10.803122 -4.954844 1.3253524
10.809865 -4.9462566 1.3303149
10.811831 -4.9314413 1.3330823
10.815103 -4.9107485 1.330853
10.825826 -4.9082494 1.3307252
10.845069 -4.8887262 1.3275771
10.848573 -4.8692894 1.3280413
10.841425 -4.8536978 1.3315314
10.861112 -4.8425622 1.3370723
10.871031 -4.8168621 1.3371726
10.86837 -4.810668 1.332956
10.880838 -4.7846503 1.3222537
10.878247 -4.7835655 1.3312842
10.898403 -4.766088 1.3259152
10.896309 -4.7447438 1.3279436
10.894065 -4.7309928 1.3343835
10.908652 -4.7205539 1.3251392
10.923681 -4.7040558 1.3363562
10.92218 -4.6946435 1.3235688
10.926199 -4.6820641 1.3213321
10.930296 -4.6588759 1.3301302
10.950155 -4.649929 1.329778
10.959291 -4.6302605 1.335333
10.957437 -4.6171031 1.3231785
10.970191 -4.5926867 1.3371718
10.964952 -4.5771384 1.3297104
10.966133 -4.573607 1.3374735
10.978047 -4.5416279 1.3265108
10.981157 -4.5377107 1.3297269
10.991459 -4.5163155 1.3302799
10.999502 -4.4973412 1.3387697
11.016322 -4.4850049 1.320946
11.012768 -4.4700084 1.327521
11.014748 -4.4633222 1.3319744
11.024552 -4.450314 1.3255568
11.028328 -4.4289565 1.3393905
11.044621 -4.4128094 1.3214502
11.048655 -4.3911171 1.3201747
11.041705 -4.372663 1.3274925
11.05795 -4.3702335 1.3208734
11.054727 -4.3460665 1.3378874
11.059971 -4.3313627 1.331888
11.067369 -4.3264756 1.325526
11.081323 -4.3058496 1.3304831
11.079707 -4.2816391 1.3330718
11.091652 -4.279851 1.3216332
11.09741 -4.2479467 1.3309482
11.105206 -4.2381635 1.3265535
11.111704 -4.2214637 1.3252025
11.125498 -4.2146311 1.3308614
11.112652 -4.197113 1.3252599
11.136798 -4.1804199 1.3389256
11.134923 -4.162375 1.3220336
11.146665 -4.1564035 1.3303146
11.143341 -4.1380525 1.3273444
11.142585 -4.113739 1.3306923
11.150368 -4.1096296 1.3304659
11.167445 -4.0836644 1.3245363
11.160105 -4.0771189 1.3198117
11.171392 -4.062676 1.3264163
11.188317 -4.0469542 1.3350273
11.179619 -4.0329394 1.3248122
11.184564 -4.0066319 1.337114
11.192595 -3.9943929 1.3198512
11.208886 -3.9712656 1.3253955
11.202185 -3.9546614 1.3197011
11.218809 -3.9560189 1.3225561
11.215186 -3.926023 1.3358082
11.225611 -3.9090686 1.3200291
11.231289 -3.9065065 1.3231091
11.24355 -3.8926783 1.3263189
11.244401 -3.8731849 1.3279431
11.255014 -3.8543611 1.3202673
11.257908 -3.8330986 1.3292148
11.263516 -3.8211167 1.3256661
11.254647 -3.8013854 1.3230902
11.260062 -3.7905569 1.3235179
11.26831 -3.7688577 1.3382947
11.269787 -3.7622175 1.3343718
11.275464 -3.7353606 1.3373487
11.284199 -3.721683 1.3384844
11.296122 -3.7125731 1.3234361
11.289646 -3.6982465 1.3315269
11.295473 -3.6864011 1.3251877
11.310225 -3.6543002 1.3351306
11.321407 -3.6563993 1.3290975
11.309991 -3.6383924 1.3381782
11.31898 -3.6174252 1.3332359
11.322724 -3.6002455 1.3392043
11.342524 -3.5826318 1.3362926
11.345278 -3.5615048 1.3313146
11.349146 -3.5536544 1.3196949
11.357943 -3.5374568 1.3266431
11.354809 -3.5205872 1.3296707
11.365314 -3.5140986 1.329026
11.365739 -3.48154 1.3305022
11.360109 -3.4654865 1.3341974
11.383538 -3.4655113 1.3230655
11.382002 -3.4468369 1.3333118
11.386413 -3.4333868 1.325363
11.387889 -3.4021838 1.3227258
11.384366 -3.3920922 1.3321161
11.3892 -3.3781607 1.3218746
11.211077 -3.3160875 1.3606728
11.225764 -3.2848983 1.3621095
11.219786 -3.2781749 1.3602549
11.235261 -3.26195 1.3585963
11.234409 -3.2471433 1.3610493
11.242404 -3.2186968 1.3663059
11.240623 -3.2106426 1.3491355
11.250873 -3.2058918 1.3672839
11.258462 -3.1894231 1.3596333
11.25542 -3.1728556 1.350017
11.262115 -3.1492417 1.3503593
11.259579 -3.1355534 1.3662453
11.258458 -3.1124356 1.3532031
11.27546 -3.0984123 1.3607274
11.270782 -3.0897882 1.3673941
11.288535 -3.0776949 1.3668362
11.291523 -3.0518866 1.3586555
11.297318 -3.0403118 1.3595419
11.30124 -3.0256078 1.3612075
11.297489 -2.9983845 1.3637444
11.3041 -2.9888833 1.3541932
11.502481 -3.0369325 1.3346153
11.505346 -3.0195882 1.3304473
11.515147 -2.9895926 1.3245822
11.704111 -3.0384214 1.3036081
11.708127 -3.0037191 1.307001
11.711563 -2.9903142 1.3004637
11.898663 -3.0243914 1.28175
11.914826 -3.009506 1.2699962
11.912633 -3.0025904 1.2697092
12.105024 -3.0214715 1.2551546
12.115837 -3.0091183 1.255409
12.115055 -2.9981229 1.2369663
12.322353 -3.0289333 1.2244653
12.311557 -2.998946 1.2249063
12.520173 -3.0360358 1.1957164
12.519819 -3.0267563 1.1916054
12.532904 -3.0064247 1.1860931
12.727855 -3.0202162 1.1708474
12.718493 -3.0140729 1.1539059
12.728821 -2.9917886 1.1696695
12.925364 -3.0281692 1.1328819
12.929412 -3.0040073 1.1381922
13.127906 -3.0337107 1.1151811
13.129027 -3.0134435 1.11298
13.130565 -3.001158 1.1033671
13.323994 -3.0173695 1.0775627
13.340247 -3.00053 1.0826263
13.544184 -3.0288923 1.0544772
13.547693 -3.0072038 1.0427271
13.727578 -3.0222182 1.0274976
13.749917 -3.0145562 1.0313863
13.743448 -2.987062 1.021399
13.935783 -3.0201967 1.0003741
13.939626 -2.994148 0.9893043
14.154876 -3.0122409 0.9641884
14.146907 -2.9924331 0.95644474
13.834689 -0.98200017 1.0404783
13.843256 -0.96262538 1.0400774
13.84759 -0.9334985 1.0395858
13.84566 -0.92990667 1.0416292
13.839475 -0.90468156 1.0504889
13.842688 -0.87780213 1.0478295
13.849901 -0.86415416 1.0481571
13.845922 -0.84122384 1.0518751
13.84223 -0.82381952 1.0411451
13.849628 -0.80308384 1.0545437
13.844066 -0.77581686 1.0413519
13.846106 -0.76134789 1.0482286
13.847717 -0.74388379 1.0449241
13.848809 -0.72966158 1.0459017
13.851919 -0.70290923 1.0527925
13.863861 -0.69420207 1.0472493
13.853117 -0.67951226 1.0560389
13.862673 -0.65000612 1.0484418
13.855921 -0.62536901 1.0589303
13.858411 -0.61448282 1.0508344
13.854273 -0.5902828 1.0506836
13.856915 -0.56513965 1.0456785
13.866408 -0.5594542 1.0588125
13.85257 -0.53371829 1.0468423
13.859681 -0.50588852 1.0422968
13.853657 -0.48710507 1.0471293
13.862062 -0.4800275 1.047321
13.859231 -0.4643282 1.0576868
13.868774 -0.43628928 1.0533566
13.86878 -0.42664072 1.0405784
13.860662 -0.40198395 1.0526643
13.872367 -0.3755109 1.0505567
13.85904 -0.36034483 1.0547966
13.858819 -0.33979025 1.0454333
13.866602 -0.31286973 1.0445596
13.869812 -0.29269236 1.0431284
13.877827 -0.28480148 1.0494325
13.866007 -0.26040754 1.0520929
13.864526 -0.24710771 1.0434483
13.878688 -0.23441343 1.0451074
13.880044 -0.21042065 1.0520774
13.873459 -0.19528019 1.0461742
13.864739 -0.17399728 1.0560898
13.880233 -0.15343793 1.0472119
13.866336 -0.12557225 1.0459059
13.871539 -0.11494584 1.0454282
13.875283 -0.096726328 1.0534912
13.865304 -0.070722073 1.0465978
13.877959 -0.046567172 1.0536532
13.881942 -0.028591834 1.0540514
13.867558 -0.0095744599 1.0590905
13.894073 0.005139654 1.1412778
13.880697 0.028324855 1.144035
13.877211 0.046770185 1.1479986
13.884818 0.071112305 1.1604743
13.891093 0.080477551 1.1442227
13.876863 0.11343462 1.1468369
13.890669 0.11628764 1.1561012
13.877555 0.15169699 1.150166
13.891469 0.171018 1.1428519
13.885754 0.17590967 1.1552007
13.885051 0.21334212 1.1603403
13.885148 0.21741201 1.1492913
13.887976 0.2380349 1.1573135
13.87474 0.26633292 1.150304
13.873952 0.28100008 1.1532859
13.876886 0.30155849 1.1498513
13.882407 0.31607121 1.1498964
13.877166 0.33764479 1.1459775
13.885962 0.35333455 1.1420068
13.887417 0.38353872 1.143555
13.881193 0.39329624 1.1431634
13.880082 0.4234342 1.1474699
13.887896 0.43670976 1.1530278
13.883704 0.45708644 1.1475126
13.872476 0.47703996 1.1572939
13.884203 0.50031877 1.1482637
13.872468 0.50953698 1.1543767
13.880751 0.53395879 1.1426945
13.885088 0.54764909 1.1473337
13.865428 0.5632937 1.1428097
13.867289 0.59324127 1.1486764
13.868731 0.60263157 1.1453149
13.874452 0.62041533 1.1558638
13.865705 0.65461475 1.1474248
13.871414 0.67822033 1.1595758
13.866879 0.69421393 1.1556431
13.873286 0.69916099 1.1415668
13.865779 0.73310643 1.1525515
13.866563 0.75213146 1.1578668
13.87196 0.7722652 1.1594681
13.872805 0.77505594 1.1516594
13.859489 0.80011207 1.1538845
13.862785 0.83174002 1.1545383
13.856604 0.83549744 1.1500373
13.861956 0.86586922 1.1497891
13.859432 0.87263662 1.1461829
13.852949 0.90676945 1.1481737
13.852362 0.91438061 1.144761
13.862733 0.94378793 1.1410259
13.858393 0.95963055 1.1580786
13.855626 0.97738451 1.1585774
13.845024 1.0029163 1.1447893
11.251822 -4.9680843 1.3706123
11.251713 -4.9585047 1.3571918
11.253942 -4.9444189 1.353472
11.271129 -4.9194026 1.3564363
11.262496 -4.9125004 1.3631612
11.28369 -4.8966389 1.3621398
11.280398 -4.8721552 1.3553361
11.295301 -4.8640881 1.3666008
11.302344 -4.8522191 1.3541303
11.306485 -4.8372436 1.3617487
11.304317 -4.8233924 1.3587937
11.328293 -4.7965913 1.369729
11.318827 -4.7944789 1.3590505
11.325619 -4.7620764 1.3576795
11.335353 -4.7451806 1.367492
11.35179 -4.7339425 1.357438
11.347183 -4.7328267 1.3561296
11.355751 -4.7036166 1.3671412
11.355561 -4.69415 1.3542649
11.362879 -4.6673069 1.360598
11.377793 -4.6693754 1.3650061
11.38973 -4.6341887 1.3604305
11.39258 -4.6351657 1.3621727
11.221051 -4.5414815 1.3870722
11.211703 -4.5195203 1.3864954
11.232146 -4.5077543 1.3813342
11.242513 -4.4872055 1.381457
11.23155 -4.4846773 1.3949493
11.251576 -4.4689054 1.3820577
11.258704 -4.4523597 1.3801497
11.252144 -4.4274225 1.3803047
11.269969 -4.4170485 1.3997694
11.263197 -4.3903017 1.38237
11.278145 -4.377862 1.3882129
11.291412 -4.3610997 1.3803691
11.284081 -4.3502026 1.388634
11.291566 -4.3352242 1.3817819
11.299151 -4.3174734 1.3817834
11.300208 -4.3059382 1.3818736
11.308351 -4.2934957 1.3828174
11.314563 -4.2738123 1.3929976
11.320909 -4.2624798 1.3978429
11.326696 -4.2440743 1.3937163
11.335063 -4.2168531 1.3863031
11.349251 -4.202476 1.3999171
11.355573 -4.181519 1.3886847
11.350137 -4.1791439 1.3966784
11.357827 -4.1552281 1.3866624
11.365497 -4.1362791 1.3924121
11.373234 -4.1351881 1.394827
11.381893 -4.1138639 1.3811396
11.380711 -4.0921507 1.3829902
11.384351 -4.0705848 1.3874441
11.403843 -4.0665646 1.3833084
11.209167 -3.9877191 1.4242895
11.214723 -3.9752104 1.4238415
11.229024 -3.9539843 1.409933
11.231297 -3.9308925 1.4240968
11.243532 -3.9259338 1.4213582
11.241495 -3.8990183 1.4238504
11.241851 -3.8892016 1.4117992
11.248498 -3.8663042 1.425585
11.256973 -3.8654804 1.425053
11.26988 -3.8308568 1.412649
11.25863 -3.8298469 1.416662
11.28178 -3.8088365 1.4175366
11.28446 -3.799058 1.4239827
11.29321 -3.7725177 1.4178581
11.296102 -3.759232 1.4210219
11.296232 -3.7534509 1.4154236
11.298834 -3.7327597 1.4239564
11.309361 -3.7108457 1.4196937
11.313653 -3.7058585 1.4205543
11.317391 -3.6733439 1.4203302
11.328703 -3.6574378 1.4254005
11.324005 -3.6437178 1.415758
11.34016 -3.632632 1.4201634
11.342739 -3.618089 1.4153711
11.339172 -3.6059248 1.4081191
11.338746 -3.5788782 1.4108955
11.3527 -3.5744567 1.4186031
11.355165 -3.564712 1.4124572
11.353345 -3.5358582 1.4155242
11.372363 -3.5284271 1.415324
11.371135 -3.514823 1.4152408
11.374954 -3.4910326 1.4130812
11.38911 -3.4761817 1.4262041
11.387649 -3.463824 1.4180596
11.381372 -3.4400842 1.4262618
11.387822 -3.4217987 1.4256861
11.207189 -3.3575025 1.4402589
11.223999 -3.3330541 1.4421792
11.214641 -3.3353879 1.4371079
11.228329 -3.3036439 1.4436153
11.221794 -3.2980461 1.4478675
11.235154 -3.273524 1.4400439
11.246333 -3.2597203 1.4511981
11.250613 -3.2522297 1.4388301
11.246726 -3.2358446 1.4343154
11.25102 -3.2178168 1.4521929
11.254716 -3.19537 1.4414037
11.266405 -3.1807969 1.4394214
11.259992 -3.1602428 1.4394571
11.268485 -3.1506412 1.435582
11.283464 -3.1321924 1.441644
11.282673 -3.1249795 1.4365603
11.274037 -3.1111619 1.4496063
11.296533 -3.0976171 1.4344627
11.286639 -3.0724895 1.4400175
11.292208 -3.0675769 1.4479072
11.295632 -3.0434549 1.4425443
11.308247 -3.0321095 1.4360491
11.298856 -3.0116203 1.4343961
11.309479 -2.9870589 1.4466268
11.507848 -3.0225883 1.4150234
11.520683 -3.0123475 1.4214616
11.508413 -2.9950981 1.4259808
11.721021 -3.0295539 1.3817437
11.726678 -3.0080795 1.3934444
11.717867 -3.0053251 1.3943033
11.908984 -3.0324769 1.3569651
11.922723 -3.0219288 1.3617646
11.929943 -3.0049949 1.3712807
12.127751 -3.0298979 1.3430215
12.12557 -3.0037272 1.3406782
12.13832 -2.9889483 1.3325182
12.32995 -3.0180974 1.3189853
12.333676 -3.0029542 1.3113537
12.3397 -2.9863839 1.3088534
12.530063 -3.0294781 1.2861998
12.528664 -3.0107851 1.2756618
12.729251 -3.0286915 1.2524843
12.741887 -3.0172071 1.2561648
12.744014 -3.0043619 1.2665602
12.937398 -3.0232258 1.2396525
12.935494 -3.0079734 1.2371616
13.138515 -3.0424974 1.2094892
13.141489 -3.0124869 1.2063172
13.156806 -3.0006509 1.2025082
13.342892 -3.0192406 1.1784799
13.359623 -2.9992237 1.1822152
13.539207 -3.0190132 1.1500998
13.54879 -3.0067158 1.1582586
13.562027 -2.9964974 1.1414878
13.75923 -3.01266 1.1268141
13.76252 -2.9920738 1.1158956
13.957007 -3.0278308 1.0905936
13.956697 -3.0025139 1.1035234
14.16702 -3.0276053 1.0633873
14.159732 -3.0022955 1.0768229
13.849192 -0.98817688 1.1547744
13.84266 -0.9612962 1.1596946
13.855634 -0.93263984 1.15658
13.859396 -0.91729629 1.1531422
13.846651 -0.89555216 1.1578026
13.857132 -0.88659829 1.1500791
13.864556 -0.86361009 1.1564573
13.852453 -0.84675485 1.142836
13.859591 -0.81708175 1.1499583
13.870087 -0.80346769 1.1597117
13.858932 -0.79560047 1.1413387
13.873908 -0.77563208 1.1505208
13.873777 -0.7440291 1.1490318
13.870505 -0.72997713 1.1435568
13.863769 -0.70995647 1.1604949
13.861665 -0.68071377 1.1470541
13.871811 -0.66527963 1.1572665
13.868308 -0.64315349 1.144998
13.871157 -0.63506812 1.1430644
13.881102 -0.61763841 1.1554052
13.880772 -0.59248751 1.1562719
13.882042 -0.57345766 1.1577643
13.872468 -0.55562866 1.1515152
13.881377 -0.54211521 1.1599723
13.884785 -0.51635516 1.1491029
13.885103 -0.49368799 1.1481274
13.871954 -0.4818373 1.1432362
13.86899 -0.45442492 1.1411196
13.873731 -0.44507223 1.1477357
13.876511 -0.42665699 1.1524278
13.871605 -0.38942575 1.1429156
13.887538 -0.37175164 1.153077
13.884936 -0.36445254 1.1417099
13.87606 -0.34901759 1.1444979
13.875612 -0.33092171 1.1536863
13.884268 -0.29322678 1.1461812
13.891922 -0.28937379 1.1511652
13.874657 -0.26915029 1.1441991
13.875249 -0.24482487 1.1472222
13.88243 -0.21833116 1.1492963
13.894276 -0.19732839 1.1492363
13.876582 -0.18094981 1.1474847
13.889023 -0.16770312 1.1536653
13.89007 -0.14383742 1.1559135
13.893878 -0.12089565 1.1568893
13.886847 -0.10974733 1.1561915
13.892283 -0.091367945 1.1599772
13.882678 -0.070648842 1.1446164
13.886079 -0.049706601 1.1542106
13.892475 -0.021925081 1.1509274
13.880919 -0.0026122844 1.1492757
13.902493 0.0012908748 1.2460902
13.909067 0.034821566 1.2553195
13.901795 0.049165588 1.249042
13.896745 0.067110784 1.2463334
13.892642 0.077845521 1.2553999
13.907815 0.11386471 1.2434725
13.906747 0.12015234 1.2528905
13.890291 0.14974225 1.2438769
13.903401 0.16565751 1.2432711
13.893203 0.18997215 1.2426043
13.901324 0.20262621 1.2438951
13.904774 0.22186796 1.2593242
13.897427 0.23387799 1.249705
13.903773 0.26090443 1.2586385
13.887385 0.28392318 1.2589147
13.900037 0.30223626 1.2558179
13.900733 0.31962934 1.2596169
13.890821 0.34074163 1.2536142
13.891869 0.35516724 1.2441353
13.892282 0.37962303 1.25958
13.892002 0.39245719 1.248288
13.892986 0.40902463 1.2568474
13.889373 0.4385547 1.2580268
13.896112 0.45476988 1.2468432
13.891759 0.47496149 1.2592894
13.887654 0.48819605 1.2506602
13.880425 0.52254593 1.2600361
13.896969 0.52742928 1.251137
13.887483 0.55383247 1.2572769
13.888491 0.5811497 1.2484865
13.884915 0.58871394 1.2531451
13.890022 0.61781597 1.2549866
13.88366 0.62388498 1.2469745
13.878451 0.6573016 1.2557948
13.882032 0.66699946 1.2454245
13.878032 0.69325459 1.2489077
13.885375 0.7129702 1.2473607
13.882067 0.72994524 1.2513179
13.869833 0.73817694 1.2623
13.883712 0.76818645 1.2612222
13.868773 0.77541828 1.2483327
13.878467 0.80858052 1.2451705
13.869974 0.8162325 1.2487035
13.873443 0.83955365 1.2462807
13.865704 0.86736029 1.2541845
13.867568 0.87209862 1.2489734
13.872889 0.90513933 1.2441093
13.876636 0.91585833 1.256853
13.864311 0.9353565 1.2584625
13.862944 0.94977361 1.250717
13.860471 0.97031939 1.2508405
13.865081 1.0016524 1.2447648
11.248542 -4.9726763 1.4473186
11.261712 -4.9740853 1.4488976
11.261682 -4.9563241 1.4494042
11.281802 -4.9276471 1.4494609
11.284587 -4.9152589 1.4499012
11.280179 -4.8961835 1.459986
11.287709 -4.8778529 1.4555944
11.306366 -4.8730226 1.4538258
11.310932 -4.8517094 1.4539379
11.313706 -4.8406739 1.4518917
11.328218 -4.8207884 1.449093
11.339044 -4.8146791 1.4491808
11.331426 -4.7955251 1.4513155
11.344292 -4.7831535 1.4464033
11.357193 -4.7548776 1.4581456
11.350513 -4.7378683 1.45322
11.353894 -4.7201657 1.4508722
11.372862 -4.7106218 1.4575922
11.37004 -4.7033048 1.4498538
11.387307 -4.6799846 1.4573697
11.382506 -4.668901 1.4489802
11.211241 -4.578589 1.476009
11.223579 -4.5579867 1.4812729
11.218032 -4.5512013 1.4830896
11.22755 -4.5181756 1.477354
11.228787 -4.5184698 1.4727902
11.245078 -4.5019984 1.4700823
11.258999 -4.4731536 1.4810619
11.259619 -4.4537044 1.4834933
11.272477 -4.4435377 1.4733707
11.27283 -4.4247003 1.478448
11.284771 -4.4199915 1.4828142
11.27861 -4.4093223 1.4721371
11.277691 -4.3905592 1.4725914
11.298567 -4.3686137 1.4704083
11.293685 -4.3517437 1.4722593
11.304217 -4.3448749 1.4749007
11.312019 -4.3303556 1.4706973
11.31078 -4.3014646 1.4702452
11.331948 -4.2859416 1.4842527
11.322973 -4.2762699 1.4813817
11.339053 -4.2608395 1.4874954
11.339477 -4.237731 1.4685452
11.349201 -4.2216797 1.4726167
11.359359 -4.2108693 1.4828835
11.367311 -4.1910362 1.4742615
11.357091 -4.1867428 1.4767411
11.369491 -4.1606984 1.4779645
11.377665 -4.1419225 1.4722947
11.385365 -4.127984 1.4863555
11.387051 -4.1090059 1.474287
11.385842 -4.0999107 1.4818397
11.204003 -4.0092177 1.5017927
11.209822 -4.0020938 1.4968619
11.219688 -3.9907088 1.5069072
11.239801 -3.9772472 1.5009435
11.23127 -3.9598572 1.5034225
11.245195 -3.9358976 1.4960873
11.240323 -3.9295719 1.5116611
11.24976 -3.9013324 1.5052983
11.253235 -3.8971713 1.5020306
11.264619 -3.8799596 1.5119674
11.263534 -3.8635838 1.509584
11.277271 -3.8469944 1.4986784
11.286056 -3.8261194 1.5035034
11.284863 -3.8106923 1.5061284
11.297685 -3.7893353 1.5104737
11.292964 -3.7795687 1.5031011
11.300886 -3.7601688 1.5063692
11.304359 -3.7568059 1.5021842
11.301448 -3.735419 1.50646
11.315248 -3.7280767 1.5122392
11.318961 -3.7072265 1.4986787
11.320269 -3.6780243 1.5059847
11.330649 -3.6654012 1.4984349
11.345834 -3.6593115 1.510574
11.343619 -3.6457193 1.5083247
11.34573 -3.6221457 1.5000892
11.360444 -3.6159256 1.4954929
11.358405 -3.5914855 1.4984919
11.372159 -3.5751882 1.5071027
11.370167 -3.5503013 1.5072736
11.373932 -3.5468881 1.5125051
11.384113 -3.5273323 1.5111418
11.381579 -3.5025392 1.5065978
11.391473 -3.4876838 1.512332
11.393484 -3.4801414 1.49584
11.393223 -3.4555664 1.5070962
11.214846 -3.3836839 1.5338491
11.221629 -3.3767865 1.5240934
11.211389 -3.3611462 1.5347883
11.229737 -3.3524876 1.5345165
11.228235 -3.3250313 1.5217971
11.231943 -3.3123379 1.5327661
11.234265 -3.3071012 1.5326538
11.252022 -3.2768717 1.5315157
11.25549 -3.2695096 1.5220318
11.262444 -3.2472646 1.521228
11.260633 -3.2383721 1.5187571
11.260445 -3.2274284 1.5275404
11.270478 -3.2114348 1.5363141
11.271184 -3.1817801 1.5380899
11.271597 -3.1782939 1.531659
11.279267 -3.1557443 1.5222521
11.277885 -3.1354952 1.5224055
11.29637 -3.1220901 1.5371063
11.293694 -3.1097951 1.5234803
11.301511 -3.0951021 1.536404
11.308503 -3.0867548 1.5225188
11.313003 -3.0631096 1.523869
11.306263 -3.0539227 1.5254987
11.308275 -3.0284984 1.5210627
11.31204 -3.0071092 1.5243862
11.329353 -3.0024743 1.5345261
11.529063 -3.0343437 1.5040671
11.517149 -3.0211239 1.4963771
11.519914 -2.9949398 1.5052307
11.721066 -3.0351903 1.4879107
11.723152 -3.0225811 1.4882836
11.731331 -3.0097661 1.4765322
11.933081 -3.0370722 1.4530833
11.924262 -3.0172369 1.4443861
11.930984 -2.9978633 1.461291
12.133453 -3.0336866 1.421928
12.133659 -3.017236 1.4307249
12.148492 -2.9969313 1.4366686
12.348259 -3.0255697 1.4076086
12.344275 -3.021512 1.3972378
12.348055 -2.9996018 1.4031175
12.54503 -3.0204151 1.3803385
12.557447 -3.0089507 1.3681026
12.744477 -3.036691 1.3539478
12.749875 -3.0154984 1.3476253
12.752151 -3.008471 1.3571277
12.953317 -3.0308123 1.3210403
12.95015 -3.0169156 1.3334301
12.952903 -3.0000842 1.3277366
13.165033 -3.0159979 1.3037739
13.153476 -3.0075302 1.3096069
13.36125 -3.0231054 1.2789789
13.357912 -3.0062177 1.2874199
13.555913 -3.0229237 1.251653
13.571301 -3.0147438 1.2444021
13.580341 -2.9884968 1.2463868
13.772638 -3.0210783 1.2284667
13.780209 -2.9981372 1.2314795
13.974041 -3.0187428 1.2081356
13.968313 -3.0023737 1.2004361
14.17772 -3.0233312 1.1777344
14.178975 -3.0123467 1.1701937
13.870254 -0.98525774 1.262167
13.86534 -0.95634687 1.2520376
13.862425 -0.94404083 1.243217
13.875356 -0.93171406 1.2477838
13.860615 -0.91214359 1.2521352
13.862882 -0.8858465 1.2590988
13.869133 -0.85967827 1.2599806
13.865839 -0.83558238 1.2461385
13.87942 -0.835868 1.2512698
13.87107 -0.79835898 1.2449183
13.875987 -0.78259391 1.2504072
13.876897 -0.77311081 1.2454629
13.887651 -0.74788415 1.2534789
13.869558 -0.73104048 1.2544737
13.876004 -0.71022552 1.2556895
13.886775 -0.68840331 1.2438511
13.884481 -0.66156316 1.2588277
13.883043 -0.65922403 1.2585454
13.887736 -0.62448275 1.258621
13.877533 -0.61924464 1.2568475
13.880952 -0.59021461 1.2514795
13.889832 -0.58137262 1.2562332
13.893741 -0.56284785 1.246851
13.885638 -0.54346108 1.254948
13.898504 -0.51864558 1.2444944
13.892558 -0.5040499 1.2564958
13.894748 -0.47271061 1.255969
13.891886 -0.46374586 1.2584115
13.888715 -0.43099785 1.2562244
13.885592 -0.40933532 1.259903
13.900669 -0.4051097 1.253238
13.890351 -0.37283221 1.2560402
13.88476 -0.35744712 1.2579914
13.889759 -0.35093859 1.2599524
13.902828 -0.31231174 1.2473511
13.905417 -0.30035079 1.2499661
13.899981 -0.28689435 1.2445406
13.89399 -0.25696579 1.2486987
13.890414 -0.25084743 1.246223
13.904624 -0.22846368 1.246027
13.902486 -0.21158803 1.2506731
13.893656 -0.1855886 1.2482122
13.9076 -0.16571161 1.2617513
13.90347 -0.14133945 1.242413
13.901273 -0.12437509 1.262315
13.906447 -0.10527217 1.2547908
13.89421 -0.092029259 1.2613351
13.89652 -0.065173171 1.2584196
13.902961 -0.042261448 1.2622336
13.906898 -0.025481347 1.2490419
13.890614 -0.011154356 1.2533358
14.110019 0.016628262 1.322134
14.115861 0.035815939 1.3335234
14.115215 0.05063891 1.3298939
14.115203 0.063058168 1.3238375
14.115066 0.080472209 1.3374923
14.107377 0.10549613 1.3249983
14.106205 0.13270429 1.3399682
14.10209 0.14625482 1.3384577
14.101761 0.16367199 1.334335
14.108213 0.18475978 1.3251468
14.098932 0.21416423 1.3217751
14.100526 0.22942443 1.3379039
14.113482 0.24407943 1.3291686
14.102781 0.25879094 1.3331654
14.105997 0.29346091 1.3348894
14.102839 0.30056506 1.3219506
14.107161 0.3266477 1.3365333
14.106424 0.3487933 1.3249803
14.10415 0.37081575 1.3311584
14.097726 0.37952331 1.3387384
14.102085 0.39920992 1.3360375
14.103045 0.42077866 1.3289118
14.100108 0.43561894 1.3367565
14.108407 0.46010122 1.3396285
14.100676 0.48816904 1.3374869
14.094641 0.4934772 1.3227662
14.095639 0.52353156 1.3344456
14.091193 0.53330207 1.3285888
14.095167 0.56127822 1.3250731
14.10529 0.58333713 1.3305844
14.102967 0.61029065 1.3361025
14.097916 0.61876708 1.3235103
14.105711 0.64489508 1.32608
14.101323 0.65993935 1.3334545
14.09978 0.68789667 1.3292203
14.096068 0.69049108 1.3306187
14.097608 0.71478361 1.3223968
14.090799 0.73535711 1.3242717
14.098107 0.76065838 1.33445
14.081871 0.77686554 1.3270158
14.09112 0.79155856 1.3268645
14.085858 0.8220365 1.3355204
14.087977 0.84117365 1.3306363
14.092639 0.85681456 1.3211294
14.084647 0.87183124 1.3399143
14.092394 0.904082 1.3216293
14.081511 0.91884619 1.3279738
14.08238 0.92780316 1.3352304
14.085096 0.94509608 1.328128
14.077963 0.96720928 1.337574
14.083368 0.999654 1.3220558
11.265653 -4.9909801 1.5366074
11.261867 -4.9666009 1.5471592
11.277464 -4.9438066 1.5358152
11.281027 -4.9418187 1.5421991
11.294978 -4.9132957 1.5358895
11.295869 -4.9101005 1.5349703
11.301502 -4.8870597 1.5408018
11.318815 -4.8733492 1.5398468
11.327854 -4.8656201 1.5345275
11.324545 -4.8416176 1.5352477
11.325863 -4.8347058 1.538627
11.336036 -4.8185334 1.5506666
11.336738 -4.7936945 1.5497723
11.346074 -4.7722015 1.5351274
11.361772 -4.7636442 1.5332577
11.371138 -4.7410607 1.5388265
11.379562 -4.7396874 1.551669
11.373797 -4.7078218 1.5424455
11.387054 -4.6937165 1.5451649
11.39497 -4.6896982 1.5360916
11.21988 -4.5956621 1.5617834
11.231746 -4.5738974 1.5641749
11.235629 -4.5581417 1.5755813
11.238596 -4.5397391 1.5726478
11.246896 -4.5323052 1.5624291
11.253304 -4.52215 1.558942
11.24526 -4.4901929 1.5609671
11.270037 -4.4906015 1.5589873
11.265568 -4.4643321 1.5752332
11.263796 -4.4567037 1.5596091
11.272928 -4.4269953 1.5666687
11.284073 -4.4118285 1.5598423
11.297586 -4.3991632 1.5731124
11.302485 -4.3898945 1.5691168
11.304428 -4.3786664 1.556878
11.31613 -4.3473492 1.5591084
11.324323 -4.3503737 1.5576012
11.314519 -4.334898 1.5599815
11.322713 -4.3101454 1.5729189
11.327131 -4.293396 1.5577639
11.335902 -4.2737241 1.5765873
11.351712 -4.2690954 1.5748391
11.360673 -4.2371192 1.5700091
11.362882 -4.2263885 1.5586923
11.361073 -4.2198372 1.5628393
11.367002 -4.207684 1.5625306
11.375141 -4.1734161 1.5634159
11.38175 -4.1750083 1.5639873
11.390718 -4.1544409 1.573513
11.3926 -4.1354671 1.5639813
11.212604 -4.0460157 1.581965
11.218016 -4.0346799 1.5850954
11.221658 -4.020329 1.5843704
11.220448 -4.0096936 1.5985359
11.2279 -3.9867685 1.5834043
11.239475 -3.9637933 1.5845692
11.250722 -3.9585371 1.5841373
11.242831 -3.9325075 1.5862403
11.25549 -3.9233241 1.59303
11.257652 -3.9180498 1.582904
11.270262 -3.891839 1.5986362
11.277174 -3.885869 1.5900596
11.287194 -3.8618875 1.6001815
11.276468 -3.8447249 1.5852786
11.279886 -3.8256977 1.5976326
11.28815 -3.8206594 1.597286
11.297556 -3.8099184 1.5865117
11.306509 -3.7925894 1.5860755
11.317543 -3.7681012 1.5991236
11.315344 -3.746928 1.5817393
11.322998 -3.7386017 1.5948511
11.326361 -3.728797 1.5982109
11.341125 -3.7143834 1.5898226
11.34599 -3.6960859 1.5828598
11.33593 -3.6797395 1.5991791
11.338202 -3.6604753 1.5847847
11.360105 -3.6371286 1.5853717
11.351212 -3.6301312 1.5875206
11.361859 -3.6173801 1.5983832
11.365534 -3.5920861 1.5946369
11.371801 -3.5843749 1.5834278
11.371159 -3.5585144 1.5862268
11.373854 -3.543081 1.5876358
11.388138 -3.5279534 1.5915309
11.395438 -3.5080338 1.5959544
11.399035 -3.4909687 1.5838166
11.218348 -3.4188745 1.6228515
11.208012 -3.419251 1.6093856
11.219802 -3.3940389 1.6128237
11.222434 -3.3701906 1.6057023
11.221297 -3.3650904 1.6104311
11.22893 -3.3456261 1.6051525
11.239339 -3.3284383 1.6194323
11.251136 -3.3219151 1.6129583
11.246805 -3.2930198 1.610515
11.246877 -3.2854326 1.6092412
11.254788 -3.2735479 1.6059293
11.258055 -3.256779 1.6065969
11.267833 -3.2329769 1.6168258
11.281028 -3.2312791 1.6152457
11.287079 -3.2154319 1.6231018
11.277837 -3.1966445 1.6147517
11.283295 -3.1721179 1.6079123
11.28301 -3.1604433 1.6119124
11.296228 -3.1377251 1.6091179
11.306983 -3.1195405 1.618214
11.296441 -3.118027 1.6234919
11.302566 -3.0978081 1.6098293
11.309335 -3.0723498 1.6042532
11.326312 -3.0582142 1.6046526
11.321686 -3.0425224 1.605171
11.324895 -3.0405462 1.6087421
11.319732 -3.0175636 1.621099
11.327706 -2.999295 1.6093836
11.531657 -3.0429792 1.5809745
11.540864 -3.0292621 1.5986491
11.539145 -3.0104501 1.5820719
11.73489 -3.0398152 1.5662835
11.744811 -3.0165017 1.563834
11.749132 -3.0005085 1.5597366
11.946247 -3.0425704 1.5518827
11.951509 -3.0162537 1.5338681
11.94032 -2.999332 1.5430346
12.154084 -3.0269921 1.5110036
12.143557 -3.0182693 1.5138983
12.148254 -3.004575 1.5144227
12.343425 -3.024354 1.4940073
12.349239 -3.0169773 1.5017462
12.362899 -3.0039179 1.4964254
12.547105 -3.0374844 1.4670601
12.554235 -3.0035424 1.4720606
12.557145 -2.9885759 1.4667181
12.755229 -3.0149374 1.4579734
12.769306 -2.9981527 1.4569035
12.968327 -3.0215149 1.4239516
12.976939 -3.0187366 1.4314003
12.966051 -2.997797 1.4296528
13.171909 -3.0198474 1.3943903
13.172014 -3.0076001 1.3986067
13.767731 -3.1204476 1.3277689
13.756941 -3.0974774 1.3243282
13.771125 -3.0757954 1.3383278
13.77994 -3.0534163 1.3343576
13.783641 -3.0411737 1.3293644
13.786245 -3.0274398 1.3285795
13.77953 -3.0093205 1.3324836
13.97431 -3.0284297 1.3155736
13.9933 -2.9969766 1.3067442
14.19485 -3.0312276 1.2881267
14.186457 -3.0130403 1.2740365
14.070484 -0.97760457 1.3397392
14.081463 -0.94817257 1.3280022
14.08316 -0.94142145 1.327756
14.074168 -0.91182059 1.328698
14.089701 -0.90573198 1.3313209
14.084244 -0.87133723 1.3321313
14.080358 -0.86749983 1.3282617
14.093855 -0.84221339 1.3253467
14.079283 -0.81851268 1.3345346
14.08655 -0.79177016 1.3339578
14.090971 -0.78740197 1.3225179
14.091548 -0.75341678 1.3208702
14.080361 -0.73906773 1.3263317
14.0889 -0.71501791 1.3217506
14.098353 -0.69671518 1.3236126
14.090403 -0.68512142 1.3402221
14.103234 -0.65863895 1.3210201
14.092169 -0.63985604 1.327454
14.098161 -0.61681563 1.3379362
14.093314 -0.60765016 1.335507
14.087862 -0.5751785 1.3377906
14.090943 -0.56321758 1.3344024
14.09235 -0.54350436 1.3257047
14.09919 -0.51628506 1.3213968
14.101421 -0.50061768 1.3357302
14.105487 -0.49387956 1.3219947
14.106135 -0.45526025 1.3350774
14.107553 -0.44862938 1.3272777
14.095379 -0.41690198 1.3228515
14.113658 -0.41089019 1.3279229
14.109482 -0.39117089 1.3257968
14.10756 -0.36918396 1.3359615
14.102224 -0.34657711 1.3261678
14.108162 -0.31788889 1.323921
14.109765 -0.30770043 1.3376679
14.105674 -0.29414982 1.3384784
14.10782 -0.26062757 1.3382329
14.103021 -0.2463357 1.3249416
14.110394 -0.22484045 1.3237005
14.113315 -0.20565958 1.328793
14.101279 -0.1912223 1.333926
14.107089 -0.17924505 1.321366
14.103037 -0.15311614 1.3317323
14.109163 -0.1215333 1.3311057
14.113016 -0.10880447 1.3209858
14.110587 -0.10059623 1.3247339
14.108942 -0.070644237 1.3223213
14.107024 -0.045865741 1.334517
14.111787 -0.034060575 1.3285238
14.115281 -0.019654859 1.322027
14.910794 0.0050356789 1.3445506
14.924455 0.033785831 1.3450979
14.925526 0.058246315 1.3520885
14.916934 0.068623446 1.3509758
14.907687 0.10267036 1.3429056
14.908291 0.11413398 1.3433572
14.912614 0.14382483 1.354074
14.914495 0.15149724 1.3498824
14.908544 0.18386 1.337809
14.916569 0.19967197 1.3404541
14.918069 0.22402559 1.3454897
14.907795 0.24205367 1.3384618
14.918039 0.2611962 1.3350805
14.915246 0.27181947 1.3412626
14.91131 0.29329687 1.340678
14.919274 0.3155084 1.3507437
14.907662 0.34220219 1.349687
14.906737 0.37096554 1.3354896
14.921592 0.39399412 1.3528425
14.904344 0.40529472 1.3451948
14.909712 0.41837043 1.3410888
14.920087 0.44147664 1.3541993
14.903405 0.47516069 1.345641
14.903313 0.48641297 1.3468955
14.909372 0.51412082 1.3488172
14.91482 0.53021401 1.3521409
14.910303 0.55514407 1.3413494
14.904701 0.57962775 1.3385129
14.904872 0.59947342 1.3378974
14.902368 0.62260759 1.3477756
14.912186 0.63167542 1.3499234
14.897869 0.65171248 1.3543721
14.896634 0.67569077 1.3517003
14.906812 0.70022899 1.3394773
14.898214 0.71150911 1.3541596
14.89151 0.72894663 1.3441333
14.908101 0.7626071 1.3382365
14.89387 0.77143377 1.3360237
14.896775 0.8012293 1.3528582
14.899035 0.82934642 1.3520293
14.891144 0.8481375 1.3394723
14.885371 0.85349637 1.3461572
14.884019 0.87853354 1.3360268
14.899965 0.89469081 1.3496422
14.88366 0.92322254 1.3537465
14.882009 0.94605047 1.3544987
14.890301 0.96649814 1.3481232
14.892668 0.99377406 1.3497875
14.892793 1.0050416 1.340462
11.276173 -4.9938111 1.6331105
11.277766 -4.9720492 1.6351349
11.285312 -4.9643049 1.6249063
11.286875 -4.9392662 1.6309075
11.311751 -4.9227486 1.6253867
11.300482 -4.9151144 1.6426663
11.322265 -4.9002433 1.624112
11.320645 -4.8716912 1.6384768
11.33612 -4.8556042 1.6370075
11.327073 -4.8515301 1.6268911
11.332743 -4.8235831 1.6316541
11.349399 -4.8210015 1.6424472
11.348056 -4.7978106 1.6252428
11.356463 -4.7799716 1.6373259
11.37085 -4.7641492 1.6301652
11.379694 -4.7464671 1.634868
11.385795 -4.7338514 1.6386621
11.393319 -4.7296815 1.6352183
11.211539 -4.620811 1.6542686
11.211808 -4.6040573 1.6593775
11.22194 -4.5883951 1.6566153
11.236813 -4.5828156 1.6606071
11.242455 -4.5652952 1.6519525
11.250874 -4.5460625 1.6652904
11.251351 -4.5391154 1.658595
11.264647 -4.5099754 1.6537162
11.262625 -4.5013633 1.645579
11.264374 -4.4918323 1.6457281
11.282657 -4.4670191 1.6628236
11.277761 -4.4483914 1.6610268
11.297954 -4.4460673 1.6592379
11.295362 -4.4152827 1.6473643
11.29674 -4.4052448 1.6573386
11.309441 -4.393158 1.6508645
11.315457 -4.3669395 1.6556469
11.314756 -4.3537498 1.65387
11.329156 -4.348886 1.6649975
11.335395 -4.3285542 1.6499387
11.341762 -4.3161988 1.663968
11.345201 -4.2949748 1.6608901
11.346822 -4.2797742 1.6643937
11.346632 -4.2733593 1.6629301
11.354547 -4.2517376 1.6557441
11.372413 -4.2435641 1.6648757
11.363783 -4.2155008 1.6644484
11.379913 -4.1942434 1.6614246
11.394244 -4.1846709 1.6474698
11.399681 -4.1749201 1.6580435
11.203367 -4.0765676 1.6873678
11.207635 -4.0693278 1.6798894
11.228803 -4.0464621 1.6717832
11.233453 -4.0297594 1.6742554
11.236617 -4.0310936 1.6825039
11.232574 -4.0004907 1.6830727
11.237639 -3.9844241 1.6758428
11.242256 -3.978112 1.6740001
11.263827 -3.963331 1.6858522
11.251422 -3.9489539 1.6715686
11.269567 -3.9300394 1.6714686
11.27481 -3.9125583 1.6829667
11.272552 -3.8995883 1.6816807
11.282165 -3.8876262 1.6814394
11.294229 -3.8581352 1.6841981
11.294519 -3.8583016 1.6818864
11.295356 -3.8389938 1.6799598
11.308942 -3.8206391 1.6686561
11.300662 -3.8062613 1.6764363
11.324212 -3.7898154 1.682889
11.313457 -3.7807276 1.6725438
11.32258 -3.7518799 1.6839596
11.323179 -3.730751 1.6726176
11.34247 -3.7254472 1.6775025
11.341497 -3.713496 1.6761353
11.343262 -3.6866491 1.6788511
11.342691 -3.6843376 1.6851169
11.360173 -3.6537917 1.6739718
11.366329 -3.6368537 1.6814314
11.360243 -3.6216719 1.6695566
11.380588 -3.62253 1.6709818
11.370564 -3.5995278 1.6854594
11.391935 -3.5811675 1.6852633
11.381942 -3.5687346 1.6745614
11.396811 -3.5424709 1.6799935
11.39029 -3.5396175 1.6764481
11.2166 -3.4636767 1.7015891
11.218935 -3.4344594 1.6992308
11.230103 -3.4241948 1.6979644
11.228709 -3.4051025 1.6960267
11.235418 -3.3907299 1.6973706
11.243531 -3.3914223 1.7058498
11.246099 -3.3757641 1.696815
11.248449 -3.3550971 1.7043318
11.240076 -3.3245363 1.702224
11.257113 -3.3254492 1.7070744
11.250582 -3.29512 1.6931541
11.266964 -3.2872829 1.6928072
11.260965 -3.273083 1.7070744
11.273679 -3.2650604 1.7047768
11.284432 -3.2350905 1.7011877
11.276508 -3.2217479 1.7012357
11.277041 -3.2105548 1.7012646
11.288518 -3.2017078 1.706277
11.287488 -3.1859086 1.7061596
11.30433 -3.1577251 1.7094325
11.305999 -3.1407027 1.7073312
11.313726 -3.131907 1.6973574
11.321085 -3.1136961 1.7058673
11.322688 -3.1073368 1.706677
11.321972 -3.0747664 1.7017276
11.317644 -3.0746412 1.6943858
11.333344 -3.0584822 1.7024951
11.329048 -3.0353241 1.7037038
11.329744 -3.0176501 1.7049575
11.350301 -3.0075681 1.6986344
11.546268 -3.0310352 1.6713607
11.548022 -3.0200882 1.6793166
11.539781 -3.00615 1.6697044
11.560026 -2.9949534 1.6706668
11.753499 -3.0185294 1.6462021
11.749629 -3.0007317 1.6482718
11.758395 -2.9915142 1.6506977
11.947894 -3.0197749 1.6382663
11.966 -3.0023787 1.6299005
11.965336 -2.9886389 1.6357957
12.151176 -3.0234022 1.6109985
12.159142 -3.0122614 1.6032536
12.368025 -3.0411599 1.5911338
12.374353 -3.0261569 1.5963043
12.361621 -2.9942927 1.5915138
12.559787 -3.0372891 1.5659217
12.566882 -3.0086739 1.5753545
12.576379 -2.9873796 1.5690486
12.769003 -3.0181601 1.5412529
12.779923 -3.0075665 1.5527179
12.970219 -3.0335767 1.5186415
12.984457 -3.0101433 1.5209458
12.990926 -2.9950027 1.52496
13.181148 -3.0223789 1.5045232
13.182885 -3.0018158 1.5009032
14.890219 -0.9670192 1.3397175
14.882838 -0.95143825 1.3528938
14.879074 -0.93325251 1.3541801
14.89545 -0.91174841 1.3430386
14.890143 -0.88475245 1.3386676
14.897332 -0.86684752 1.3392774
14.901428 -0.84058279 1.3542351
14.885479 -0.82551205 1.3487302
14.885656 -0.79783845 1.3414576
14.887819 -0.78467315 1.3409998
14.898343 -0.76865405 1.3542855
14.904605 -0.74136788 1.3423824
14.904015 -0.71917003 1.3478934
14.904682 -0.70189112 1.354135
14.894178 -0.67118442 1.3465973
14.899275 -0.65452582 1.3361877
14.904952 -0.63497901 1.3512641
14.905558 -0.61256093 1.3406309
14.900629 -0.59111506 1.3368893
14.9084 -0.56862682 1.3455294
14.915683 -0.55670738 1.3494036
14.916223 -0.53958857 1.3397772
14.904831 -0.50409412 1.3515607
14.89892 -0.48893782 1.3398336
14.919223 -0.46526122 1.3380222
14.911959 -0.45743531 1.3520772
14.914255 -0.42485049 1.3448856
14.9116 -0.41254902 1.3393172
14.918282 -0.38603583 1.3543987
14.921193 -0.37258351 1.3511711
14.912716 -0.35264987 1.3390647
14.908083 -0.33294931 1.3432777
14.913795 -0.30538499 1.3421847
14.911263 -0.284446 1.3354462
14.916973 -0.26389074 1.3515821
14.920843 -0.25125688 1.3347402
14.918738 -0.2169541 1.3496789
14.909414 -0.20590606 1.3361138
14.914492 -0.18874604 1.348256
14.914622 -0.16921565 1.3530437
14.911496 -0.1386748 1.3369575
14.916234 -0.11324938 1.3397636
14.925157 -0.10256573 1.3493252
14.912956 -0.074840426 1.3390162
14.913989 -0.061800659 1.3484524
14.911128 -0.0252578 1.3497119
14.911396 -0.011156843 1.3444631
14.938348 0.016072908 1.4584417
14.919929 0.025354601 1.4597775
14.933621 0.054515641 1.4598314
14.932073 0.080328487 1.4496133
14.934409 0.090686679 1.4440079
14.919523 0.10980315 1.4482728
14.934169 0.13658473 1.4594496
14.918476 0.16429304 1.4628527
14.932192 0.16906378 1.461985
14.927137 0.19405511 1.4544044
14.936805 0.21420567 1.4504774
14.931431 0.2359504 1.4550016
14.927363 0.25143141 1.4478568
14.923321 0.2854363 1.4456947
14.929031 0.30187887 1.4530606
14.929108 0.32356516 1.4587133
14.933419 0.34005666 1.4503177
14.928879 0.36104444 1.4488013
14.927712 0.37596461 1.4512262
14.92565 0.40607667 1.4578139
14.915977 0.42613178 1.4437234
14.922348 0.44111761 1.4505498
14.913214 0.47236985 1.4520297
14.916906 0.47994232 1.4466872
14.918407 0.51361698 1.4569608
14.927245 0.52778834 1.4480947
14.921706 0.54672128 1.4548947
14.927744 0.58159268 1.4618577
14.912235 0.59580553 1.4629167
14.919123 0.60849202 1.4532646
14.912568 0.6320715 1.4628451
14.911895 0.66261679 1.4465896
14.918018 0.68465233 1.4607654
14.905593 0.69103307 1.4616936
14.907796 0.71959692 1.4554776
14.920244 0.73770982 1.4626148
14.903796 0.75102425 1.4478679
14.91412 0.77114487 1.4471763
14.911377 0.79655492 1.4598826
14.909664 0.82967949 1.4444617
14.898271 0.83710605 1.4518076
14.896428 0.86474425 1.4488875
14.898301 0.8794204 1.4471928
14.89432 0.90261436 1.45107
14.89124 0.92898357 1.4627035
14.901914 0.94880158 1.4516437
14.899696 0.97320223 1.4530938
14.902702 0.98898548 1.4538612
14.904988 1.0031142 1.459237
11.281453 -4.9831405 1.7323015
11.292674 -4.9536495 1.7161676
11.30304 -4.9384575 1.7279363
11.301612 -4.9307785 1.7251338
11.318441 -4.9157 1.7231783
11.332 -4.8998156 1.7245903
11.336626 -4.8748083 1.732203
11.338328 -4.8675537 1.7154387
11.354429 -4.844101 1.7247937
11.34304 -4.8296309 1.7137946
11.355021 -4.8122516 1.7174317
11.360752 -4.8105931 1.7148058
11.370327 -4.7854896 1.7316079
11.371648 -4.768712 1.7203153
11.390144 -4.761981 1.7283185
11.386663 -4.7485461 1.7164131
11.220887 -4.6409693 1.7344661
11.226279 -4.6351042 1.7432089
11.234886 -4.6199279 1.739583
11.232826 -4.6029072 1.7345963
11.239745 -4.5806484 1.7511486
11.250278 -4.559381 1.7535098
11.258165 -4.5552392 1.7451155
11.262832 -4.5364537 1.7376302
11.256184 -4.5258274 1.7409983
11.277516 -4.5053163 1.7419144
11.286922 -4.4935074 1.7381634
11.293606 -4.4827886 1.7446282
11.28901 -4.449924 1.7506117
11.300767 -4.4455585 1.7379488
11.307514 -4.420692 1.7518686
11.310792 -4.4116869 1.7513707
11.316409 -4.4011693 1.7393208
11.31361 -4.3723369 1.7503536
11.323304 -4.356482 1.7363009
11.336344 -4.345602 1.7470393
11.350277 -4.3316026 1.7538574
11.340438 -4.317183 1.7356563
11.357041 -4.2936015 1.7345729
11.359606 -4.2844834 1.7420992
11.369485 -4.274816 1.7387278
11.373262 -4.2480469 1.7485888
11.37652 -4.2418141 1.7531861
11.387705 -4.2245126 1.7508259
11.3899 -4.2036281 1.7485218
11.398022 -4.1957912 1.7412905
11.210137 -4.1114984 1.7729964
11.215675 -4.0919385 1.7625443
11.222989 -4.0817976 1.7598412
11.229198 -4.0550919 1.7704152
11.242912 -4.0444841 1.7748073
11.233232 -4.0360551 1.7701113
11.253392 -4.0103025 1.755782
11.258127 -3.9992764 1.7628797
11.26048 -3.9719439 1.7549798
11.260507 -3.9623575 1.7590258
11.27328 -3.939779 1.7628767
11.276984 -3.9373906 1.7706413
11.290215 -3.913393 1.7728927
11.28072 -3.9088697 1.7661875
11.281776 -3.8762946 1.7744198
11.287204 -3.8790393 1.7554029
11.307913 -3.8472426 1.7664527
11.314271 -3.836307 1.7728348
11.307705 -3.8285933 1.7708479
11.313216 -3.8064053 1.7627381
11.322752 -3.7969742 1.7614895
11.336117 -3.7693474 1.7669047
11.337223 -3.7539773 1.7605851
11.34056 -3.7335665 1.7630484
11.337169 -3.7375417 1.762339
11.341988 -3.7215104 1.7631297
11.347768 -3.6901686 1.7599542
11.364576 -3.677846 1.7719436
11.367743 -3.6574445 1.7558688
11.368903 -3.6568639 1.7661966
11.381929 -3.6320589 1.7701626
11.373686 -3.6191781 1.7659551
11.390835 -3.6104572 1.7613101
11.381642 -3.5836446 1.7612607
11.394891 -3.5654459 1.7614139
11.217559 -3.4882421 1.782522
11.210762 -3.4700882 1.7783817
11.220767 -3.4602828 1.7907201
11.22274 -3.4524441 1.7876087
11.228616 -3.4285591 1.7892193
11.244799 -3.4167371 1.7797693
11.244925 -3.3982272 1.7873273
11.240821 -3.3876143 1.7877266
11.252051 -3.3712177 1.7790515
11.26321 -3.3465743 1.7926816
11.254499 -3.3343935 1.7882283
11.266123 -3.3138845 1.7862864
11.273583 -3.3082232 1.7785003
11.27336 -3.2854199 1.7828968
11.270004 -3.2815497 1.7955154
11.288237 -3.2662847 1.7842864
11.276997 -3.2356589 1.7758908
11.293293 -3.2338796 1.7824253
11.289968 -3.2055922 1.7896669
11.297944 -3.1908462 1.7858557
11.299529 -3.1894879 1.7785226
11.316638 -3.1611631 1.7759892
11.311784 -3.1500115 1.7834014
11.319121 -3.1236954 1.7778945
11.330832 -3.1253254 1.7805294
11.335141 -3.0932918 1.7826942
11.328198 -3.077044 1.7797437
11.332838 -3.0690241 1.7828245
11.34399 -3.0488331 1.7784386
11.342361 -3.045146 1.7930386
11.3569 -3.0243325 1.7932301
11.344083 -3.0108464 1.7859737
11.34871 -2.9866292 1.7940898
11.553111 -3.0300465 1.7719839
11.559669 -3.0152748 1.7732097
11.568841 -3.0005431 1.770672
11.752748 -3.0268533 1.7478254
11.761157 -3.0027869 1.7379422
11.772625 -2.9918504 1.7524347
11.972484 -3.035768 1.7140397
11.974188 -3.0001509 1.7213839
11.976061 -3.0015664 1.7263811
12.163656 -3.0307059 1.699003
12.166409 -3.0035727 1.7036948
12.360922 -3.0417187 1.6862857
12.383567 -3.027003 1.688236
12.383649 -3.0051484 1.6775175
12.574949 -3.0259147 1.6537066
12.583072 -3.0123329 1.6651733
12.585663 -2.9958682 1.6652701
12.784117 -3.0279193 1.6435381
12.796425 -3.0160265 1.6444451
12.793706 -2.9937158 1.6476654
12.998056 -3.0180583 1.620286
12.993418 -2.9997613 1.6261464
13.185943 -3.0277035 1.6087081
13.186609 -3.0148587 1.5966104
14.90644 -0.97180736 1.4484196
14.895919 -0.94376791 1.4479672
14.904102 -0.92736888 1.4555675
14.901953 -0.9107269 1.4518666
14.89976 -0.88447201 1.4514242
14.903029 -0.86336637 1.4565139
14.897753 -0.84607422 1.447094
14.914576 -0.82422405 1.4453217
14.908813 -0.79530376 1.4483321
14.909458 -0.78843153 1.4564104
14.908166 -0.76792324 1.4456822
14.914141 -0.73929012 1.4622072
14.919634 -0.7237981 1.4543433
14.912698 -0.6917516 1.4623314
14.922031 -0.6831643 1.4557829
14.910894 -0.65254581 1.4495466
14.924818 -0.62841296 1.4598074
14.909292 -0.6086365 1.4511216
14.911965 -0.59577447 1.4505576
14.91762 -0.58338857 1.4560659
14.911324 -0.55338717 1.4612811
14.914269 -0.53847533 1.4543262
14.913713 -0.51910549 1.4620589
14.925261 -0.48767737 1.4610322
14.92477 -0.46789184 1.4477855
14.917701 -0.46019128 1.4443486
14.924366 -0.43948615 1.4442346
14.921264 -0.41519639 1.4630858
14.929445 -0.38909438 1.4539866
14.917035 -0.35816973 1.4564596
14.930103 -0.35434413 1.4481194
14.928358 -0.32834592 1.4538751
14.919628 -0.30365005 1.4581836
14.918603 -0.28812054 1.4531024
14.916521 -0.25376925 1.4469876
14.921164 -0.24714479 1.4477537
14.92234 -0.21448345 1.4484041
14.923374 -0.2055245 1.4525225
14.923229 -0.18895385 1.4619206
14.933957 -0.16533545 1.4614202
14.927129 -0.12916104 1.4439212
14.931931 -0.11521554 1.4515959
14.92246 -0.090453818 1.4631412
14.937267 -0.067143194 1.4493899
14.926965 -0.046310429 1.4491636
14.930519 -0.041202269 1.4547346
14.93481 -0.015255645 1.4521395
14.930699 0.014180012 1.5667493
14.939697 0.040441986 1.5680274
14.938064 0.0571803 1.5720952
14.935901 0.066867985 1.5715082
14.93621 0.10116468 1.5640373
14.944165 0.10582604 1.5604986
14.943636 0.12516055 1.5594406
14.929326 0.15408692 1.5583854
14.934761 0.18649043 1.5616082
14.945738 0.20313708 1.5699475
14.934091 0.22467722 1.5641274
14.94795 0.23522927 1.5637238
14.943059 0.26419127 1.559213
14.942206 0.27106267 1.5635444
14.940737 0.29834455 1.5613271
14.931768 0.31371158 1.5629259
14.939231 0.3487089 1.5630144
14.945607 0.36958531 1.5711844
14.930899 0.37611437 1.5709134
14.939384 0.41386709 1.5664451
14.93618 0.42024827 1.5626731
14.927127 0.44079366 1.5686097
14.937641 0.47678134 1.5626655
14.923615 0.49227896 1.5627502
14.933891 0.5066995 1.5692749
14.921921 0.53257215 1.5703253
14.93152 0.54635805 1.5655323
14.92118 0.5669992 1.5607756
14.91898 0.59344035 1.5617087
14.93648 0.6089043 1.5595558
14.929482 0.64173025 1.5629462
14.918683 0.64609814 1.566045
14.933792 0.68160433 1.5642952
14.922927 0.70373791 1.5572077
14.932118 0.71683025 1.5637064
14.927805 0.73866397 1.5552443
14.924514 0.75083798 1.5597358
14.9164 0.77344054 1.564037
14.9235 0.79464161 1.5539491
14.911505 0.81417036 1.5584962
14.917327 0.84755832 1.5550412
14.90651 0.87103337 1.5551275
14.918764 0.8905322 1.5698944
14.909239 0.90011042 1.5659709
14.912597 0.91985279 1.5543169
14.902425 0.95628399 1.5636752
14.903762 0.97045434 1.5643874
14.90956 0.99757087 1.5668837
14.899632 1.0128767 1.569764
11.294033 -4.9803314 1.8157998
11.300389 -4.9674196 1.8195971
11.303062 -4.9573236 1.8225372
11.326509 -4.9266191 1.817625
11.330506 -4.9123521 1.8144985
11.338633 -4.8957801 1.8071015
11.335579 -4.8928642 1.8203493
11.351184 -4.8797765 1.8211024
11.359896 -4.8616633 1.8217901
11.354004 -4.8468776 1.8119254
11.369452 -4.8252053 1.8220406
11.368518 -4.8041253 1.8093017
11.37136 -4.7872968 1.8108838
11.377118 -4.7739244 1.8073851
11.214337 -4.6865201 1.8416579
11.211905 -4.6750216 1.837399
11.222055 -4.6534147 1.840242
11.225431 -4.6430182 1.8403496
11.229539 -4.610703 1.8427372
11.234312 -4.6110506 1.8240683
11.249199 -4.5826993 1.8312197
11.254178 -4.5820093 1.82359
11.266397 -4.5651827 1.8369184
11.260176 -4.5492797 1.8277386
11.270434 -4.5192122 1.8331568
11.275644 -4.5181074 1.8344313
11.296575 -4.4933619 1.8416611
11.300324 -4.4717283 1.8236271
11.304161 -4.4524527 1.842239
11.310363 -4.4548483 1.8248247
11.317873 -4.4287796 1.8400739
11.312513 -4.4241309 1.840317
11.319502 -4.3936419 1.8416814
11.339797 -4.3757305 1.8232343
11.33089 -4.3738947 1.8391314
11.347379 -4.3531613 1.8404013
