# .PCD v0.7 - Point Cloud Data file format
VERSION 0.7
FIELDS x y z
SIZE 4 4 4
TYPE F F F
COUNT 1 1 1
WIDTH 1567
HEIGHT 1
VIEWPOINT 0 0 0 1 0 0 0
POINTS 1567
DATA ascii
-6.3379297 0.81218302 0.17050207
-6.3445072 0.80472279 0.15994054
-6.3381763 0.78970033 0.17131771
-6.3477926 0.78562826 0.1699055
-6.3388867 0.78351349 0.15973148
-6.3390999 0.76290756 0.17212403
3.232811 3.0089045 1.1023105
3.2150979 3.0198116 1.1016757
3.2225957 3.0290391 1.0910041
3.2047701 3.0344286 1.1017377
3.2116106 3.0375569 1.0966491
3.2055538 3.0310369 1.0972011
3.1977317 3.044203 1.085693
3.2011092 3.0350606 1.0864394
3.1855967 3.0409372 1.1006262
3.1836154 3.0513942 1.0893804
3.1806624 3.0523849 1.0950112
3.176017 3.0598526 1.0870615
3.1707308 3.0590148 1.0838577
3.1747668 3.0645545 1.101567
3.1695304 3.0811436 1.0979346
3.159199 3.0758915 1.083318
3.1494133 3.087039 1.0974096
3.1481137 3.0857916 1.0979062
3.1475542 3.0932658 1.0998331
3.1411755 3.102999 1.0877763
3.1435447 3.0940254 1.0922755
3.1315389 3.1046593 1.0998138
3.131577 3.1142657 1.1020918
3.1284053 3.1121731 1.0854927
3.1229367 3.1291149 1.101072
3.1138299 3.1200025 1.0869943
3.1101003 3.1253879 1.099665
3.1204562 3.1337633 1.0866958
3.1113029 3.1458747 1.0968138
2.975235 3.0054505 1.172172
2.9761217 3.0219822 1.1742941
2.9615018 3.0108223 1.1626813
2.9544148 3.0240207 1.1763122
2.9495997 3.0183737 1.1634938
2.94818 3.0315907 1.1632665
2.9423337 3.0400393 1.1695824
2.942404 3.0491028 1.1769451
2.9351394 3.0528729 1.1683508
2.9348998 3.0518463 1.1675416
2.9247725 3.0479496 1.1724465
2.93011 3.0491259 1.1697488
2.9175639 3.0598748 1.1717626
2.9133997 3.0677345 1.162852
2.9228604 3.0749826 1.1641778
2.919497 3.0650206 1.1746097
2.8959007 3.0734272 1.1693851
2.8986146 3.0861249 1.169125
2.8886857 3.0757847 1.1685418
2.890157 3.089437 1.1628445
2.8908134 3.0972002 1.1691691
2.876369 3.0945442 1.1725948
2.8792212 3.1035917 1.1626998
2.8840816 3.1127295 1.1766008
2.8800261 3.1155891 1.1736926
2.8572907 3.1193514 1.1767704
2.8649817 3.1237893 1.1642095
2.8674424 3.1152189 1.1803064
2.8496373 3.1210027 1.1820295
2.8512437 3.1325464 1.1733772
2.8471472 3.129041 1.1684661
2.8493698 3.1353912 1.1768836
2.8350124 3.1488993 1.1703386
2.8307545 3.1515791 1.168928
2.6978929 3.0180948 1.2462668
2.7048075 3.0224519 1.2434888
2.6947949 3.0188279 1.2611631
2.6922159 3.0219984 1.2462875
2.6857285 3.0317032 1.2532221
2.6809592 3.0273592 1.2477332
2.6875322 3.0432692 1.2547776
2.669189 3.0457573 1.2442169
2.6792581 3.0382497 1.2432152
2.6627772 3.0508513 1.2609504
2.6648803 3.0574629 1.2576897
2.6644294 3.0551763 1.255026
2.6611955 3.0470695 1.2449845
2.6556306 3.0605814 1.2543653
2.6551847 3.0718093 1.2497087
2.6416688 3.0624757 1.2569717
2.6426585 3.0639286 1.2564139
2.6306877 3.0712569 1.25462
2.6281509 3.0728781 1.2615997
2.6246073 3.082247 1.2574679
2.618794 3.0779533 1.256241
2.6097147 3.0974481 1.2490264
2.6179667 3.0979533 1.2500101
2.6161721 3.0971432 1.2608167
2.6037533 3.100142 1.2591678
2.6066728 3.0938847 1.2445083
2.5968502 3.1128821 1.2476305
2.5864649 3.1041787 1.2544156
2.5942805 3.1172137 1.2591625
2.5890708 3.1109855 1.2496252
2.5797243 3.1232293 1.252147
2.5691459 3.1306841 1.250522
2.571348 3.1306868 1.245767
2.5545287 3.1331952 1.2565725
2.5685112 3.1275904 1.2467535
2.5608397 3.1492159 1.2470598
2.5585039 3.1453347 1.2427523
2.5392849 3.1553888 1.2461362
2.5468464 3.1575844 1.258956
2.4242573 3.0160108 1.3418419
2.427218 3.0121565 1.3334969
2.4126959 3.0220652 1.329026
2.4165442 3.0185218 1.3409827
2.4156327 3.0225103 1.331879
2.4055221 3.024837 1.3336079
2.4055877 3.0238535 1.3334056
2.3859551 3.0249 1.3257715
2.3820105 3.0310986 1.3246468
2.3814449 3.0492346 1.3421797
2.3736944 3.0440547 1.3374968
2.3689377 3.0460219 1.3255939
2.3758316 3.0576577 1.3402395
2.3582499 3.057337 1.3279878
2.3726201 3.0603054 1.3363763
2.357882 3.0573676 1.3237493
2.3648684 3.0587049 1.3268024
2.3516479 3.0646236 1.3275714
2.3507886 3.0708165 1.3312142
2.3488002 3.0806673 1.3296742
2.3443401 3.0669954 1.3396416
2.3351924 3.0727994 1.3282691
2.3341374 3.0897346 1.3252314
2.3277235 3.0933297 1.338578
2.3290534 3.0955415 1.3316035
2.3187673 3.0872664 1.3384081
2.3158498 3.0902328 1.3232727
2.3159807 3.1042392 1.3307849
2.2968762 3.1016507 1.3412244
2.3014102 3.1013432 1.3382553
2.3043995 3.1008492 1.338361
2.2973518 3.1154857 1.3410233
2.2789273 3.1133502 1.3373793
2.2774606 3.1090882 1.334095
2.269336 3.1304479 1.329793
2.2742326 3.1258178 1.3339922
2.2659292 3.122571 1.3379407
2.2624862 3.1237605 1.3326838
2.2665508 3.1301553 1.3416331
2.2610507 3.1453981 1.3270754
2.2525771 3.147949 1.3288304
2.2442048 3.1477754 1.3420346
2.2384903 3.1535048 1.3299221
2.2291276 3.1420996 1.3303723
2.2364762 3.1469061 1.3290132
2.2395184 3.1609502 1.3398608
2.2267556 3.151036 1.3243046
2.1126614 3.0119119 1.4066745
2.1187911 3.0111763 1.4124067
2.1138663 3.0092993 1.4102429
2.0943794 3.0233119 1.4074974
2.0966434 3.0333195 1.4214518
2.0921078 3.0219843 1.4180151
2.0954554 3.0256629 1.4200588
2.0792494 3.0410705 1.4038008
2.0816801 3.043905 1.4184848
2.0749543 3.0383658 1.4201587
2.0726683 3.0484016 1.4097354
2.0728607 3.0487552 1.4156398
2.0587811 3.0483758 1.4167361
2.0625339 3.052706 1.4089198
2.0635371 3.0435004 1.4081919
2.0584908 3.0539637 1.4132155
2.0500038 3.0519829 1.4190102
2.0435565 3.0580087 1.4173108
2.0408471 3.0706816 1.4155502
2.0328178 3.0608494 1.4053608
2.0264585 3.0729558 1.4023232
2.0296719 3.0694833 1.4167612
2.0187857 3.0761638 1.4079477
2.008992 3.0708334 1.4205983
2.0113783 3.0907471 1.4211831
2.0130324 3.089859 1.4093769
1.9997064 3.0847323 1.4127415
1.9921712 3.0974109 1.4192896
2.0029328 3.0916367 1.4156741
1.9919298 3.1020937 1.4193958
1.9907335 3.0904555 1.4123994
1.9864959 3.1062994 1.4191118
1.9766922 3.0955293 1.409692
1.9780713 3.0992415 1.4121355
1.9720972 3.1096201 1.4116918
1.966704 3.1059368 1.4075654
1.9695009 3.1132154 1.4155236
1.9556586 3.1172504 1.4133778
1.9483604 3.1163428 1.4026811
1.9574431 3.1287315 1.4196706
1.9502436 3.1242275 1.4022574
1.936044 3.1197929 1.4179294
1.9285531 3.1298656 1.4200785
1.9316386 3.1256325 1.4031935
1.9371638 3.139744 1.4139464
1.9222416 3.1327848 1.4182814
1.9231893 3.1329486 1.4071667
1.9120915 3.1436005 1.4173646
1.9188441 3.1512883 1.4039385
1.9148962 3.1523962 1.4201908
1.9079343 3.150646 1.4092349
1.9035555 3.1590416 1.4111463
1.8948449 3.1642952 1.4204384
1.8882799 3.1569872 1.4028115
1.8848261 3.1595609 1.4166161
1.8721216 3.1715724 1.4207876
1.8837484 3.1688957 1.4024553
1.7712491 3.0214779 1.4920009
1.7821727 3.0230653 1.486691
1.7596666 3.0250804 1.4998397
1.7734095 3.0245125 1.488595
1.7561929 3.0239484 1.4831089
1.7608844 3.0190604 1.5002453
1.7548646 3.0319974 1.4874489
1.7512145 3.0258744 1.4946073
1.7413656 3.0314441 1.4911648
1.7356848 3.0330417 1.4824392
1.7316684 3.0395527 1.5017065
1.7373065 3.0411747 1.5000968
1.7176315 3.0444815 1.4980435
1.7311016 3.0457258 1.4929698
1.713324 3.0539515 1.4848853
1.7100568 3.0510697 1.4894717
1.7039227 3.0463729 1.4845601
1.704989 3.0622339 1.4910961
1.6932102 3.0524576 1.5007788
1.6979858 3.0612152 1.4896415
1.6940324 3.0701745 1.4826038
1.689343 3.0689933 1.4947823
1.6830406 3.0723622 1.4878681
1.6746817 3.0734296 1.4998044
1.6812458 3.0609508 1.4975783
1.6797222 3.0694396 1.4900885
1.6627817 3.0760326 1.4955257
1.6609265 3.0679333 1.494454
1.665604 3.0723002 1.5012418
1.6599609 3.0856905 1.4944288
1.6431774 3.0793788 1.4942228
1.6393529 3.0926325 1.4904895
1.6477038 3.0838418 1.4877845
1.6291373 3.0909534 1.4838125
1.6425039 3.0888934 1.485033
1.6336411 3.0895774 1.49242
1.6172855 3.0975919 1.4840833
1.6263639 3.1080253 1.4853368
1.6143676 3.1074135 1.4886525
1.6091558 3.1054392 1.4830599
1.5971279 3.1109653 1.4888632
1.6048911 3.1169536 1.4856335
1.5889176 3.1155832 1.4913323
1.5902363 3.1199396 1.501868
1.5875797 3.121959 1.488075
1.5861406 3.1194153 1.4927036
1.5720853 3.1248186 1.4830899
1.5696903 3.1236064 1.5016592
1.5685457 3.114707 1.4973719
1.5707138 3.124908 1.4888719
1.5672864 3.1273963 1.4836655
1.5496591 3.1219661 1.4822209
1.5487992 3.1248841 1.4971855
1.5536351 3.1334455 1.494292
1.5490036 3.1436779 1.4912095
1.5505762 3.136802 1.483381
1.5367744 3.1402044 1.4987596
1.533356 3.1455491 1.4907359
1.5285037 3.154089 1.4916286
1.5193614 3.1491399 1.5005442
1.521716 3.1451094 1.4897763
1.5188612 3.1478007 1.4914122
1.5145589 3.1539841 1.4938065
1.5052183 3.1493585 1.4826082
1.4929813 3.1644595 1.4994948
1.4976588 3.1654942 1.4873638
1.494505 3.1570909 1.4965
1.4867271 3.1696365 1.4888514
1.4909225 3.1616995 1.4876194
1.4760076 3.1689932 1.4993213
1.4700054 3.1630175 1.4848816
1.4732325 3.1785657 1.4910284
1.4580927 3.1741936 1.5012599
1.4653442 3.1848655 1.4847732
1.3851796 3.0209267 1.5811886
1.3783467 3.012711 1.5766706
1.3793802 3.0057352 1.5816754
1.3695474 3.015378 1.5771575
1.3720632 3.0136154 1.5626408
1.3533443 3.0213404 1.5733621
1.3663248 3.0274687 1.576058
1.3448629 3.0212319 1.5722588
1.3495452 3.024266 1.5620501
1.3444564 3.0189657 1.5804821
1.3428782 3.0341322 1.5797114
1.3378253 3.0266526 1.5688126
1.3282518 3.0243957 1.5690311
1.3236805 3.0364976 1.5769917
1.3145888 3.0353096 1.5812948
1.3109778 3.0396001 1.5714338
1.3180856 3.0410707 1.5658178
1.3078866 3.0452816 1.5720876
1.313886 3.0383799 1.5795203
1.3096741 3.050597 1.5797871
1.3038918 3.0454462 1.5733608
1.2973362 3.0594549 1.5776011
1.2798793 3.0481055 1.5777365
1.2826384 3.0564029 1.5681317
1.2733556 3.0598288 1.5755029
1.2683735 3.0638669 1.5653343
1.2735279 3.0592382 1.5748121
1.2730638 3.0686386 1.5666823
1.2588671 3.0682693 1.5698385
1.2521007 3.0679212 1.5634053
1.2455986 3.0660262 1.5700203
1.2526677 3.0618138 1.5688494
1.2439747 3.0643854 1.5745406
1.2354147 3.0739594 1.5667461
1.2372475 3.078496 1.5806007
1.2264491 3.0822985 1.5767224
1.2254798 3.075506 1.5664502
1.2339858 3.0725026 1.5638195
1.2143598 3.0795579 1.5790663
1.2178876 3.0841048 1.5722176
1.2149798 3.0864098 1.5817327
1.1986846 3.0800469 1.5653005
1.2012162 3.0892563 1.5697104
1.1894368 3.0941732 1.5819707
1.1898605 3.0851927 1.5770503
1.1841365 3.0896864 1.5742211
1.1945319 3.0974858 1.562894
1.1746528 3.098068 1.566864
1.1721407 3.1033039 1.5761958
1.164873 3.0963495 1.568387
1.1707544 3.0907712 1.5812018
1.1661488 3.0931845 1.5659782
1.1651086 3.1024184 1.5782943
1.148476 3.1041639 1.5738637
1.1441015 3.1106269 1.5787953
1.1548045 3.1156616 1.5665692
1.142676 3.1153898 1.5804968
1.1392182 3.1195395 1.5733671
1.1397281 3.1054797 1.56984
1.1295676 3.1084573 1.5777308
1.1315963 3.1216235 1.578422
1.1264375 3.1144936 1.5799111
1.126053 3.1106353 1.5690247
1.1179824 3.1144583 1.5782804
1.105479 3.118223 1.5724018
1.0979052 3.1170092 1.5699666
1.0981032 3.1279876 1.5656742
1.0922264 3.1198311 1.5639523
1.099218 3.1365094 1.5665976
1.0826802 3.1273549 1.5706532
1.0740312 3.1245582 1.566314
1.0860714 3.1409342 1.57329
1.0795984 3.1412597 1.5748585
1.0622371 3.1378505 1.5787073
1.0741295 3.146276 1.564784
1.0601411 3.1314678 1.5681163
1.0637155 3.1412001 1.5809022
1.0429955 3.1494 1.5640129
1.0405515 3.1489379 1.5622895
1.0407509 3.136287 1.5699049
1.0450038 3.1393378 1.5732232
1.0249155 3.1387815 1.5714236
1.0318011 3.1561074 1.5684611
1.0202534 3.140429 1.5806073
1.0125524 3.1610019 1.5797029
1.0109262 3.1519477 1.5625204
1.0126303 3.150831 1.5736063
1.0071183 3.1533597 1.5714343
1.0047151 3.1578114 1.5673488
1.0005865 3.1668317 1.5691669
1.0040715 3.1644764 1.5725963
0.99087292 3.1664062 1.5740362
0.99587274 3.1595967 1.5713749
0.97790813 3.1656168 1.571614
0.9720878 3.1683152 1.5710112
0.96536112 3.1737685 1.5799453
0.96145016 3.1653092 1.5663601
0.9686231 3.1757228 1.5739068
0.95362234 3.1681206 1.5645149
0.95453417 3.1807785 1.562759
0.95726228 3.1813126 1.5772698
0.94341797 3.1730406 1.5723381
0.95101172 3.1741633 1.5792313
0.93594235 3.1817183 1.5707847
0.94111031 3.1878512 1.5636828
0.92567366 3.171658 1.580687
0.91916937 3.1759562 1.5678906
0.91907805 3.1918314 1.5641729
0.90653157 3.1771119 1.5715238
0.9045915 3.1877122 1.57021
0.90089387 3.1854501 1.5681136
0.86214489 3.0172284 1.6563225
0.84826934 3.0174718 1.6444622
0.84128523 3.0070615 1.6588587
0.84585291 3.0062361 1.6580961
0.84331721 3.0143936 1.6598547
0.83778405 3.0204673 1.6446317
0.81945288 3.0108726 1.6440107
0.81740236 3.0131559 1.6474029
0.82270116 3.0179253 1.6601342
0.80668467 3.0234251 1.6493487
0.80857009 3.0241659 1.6456199
0.79877526 3.0152161 1.660961
0.7971186 3.023469 1.644724
0.78985685 3.0204775 1.6465002
0.80183107 3.0191402 1.6552777
0.79556233 3.0364614 1.6489792
0.79406911 3.019644 1.6519418
0.77195328 3.024971 1.6560494
0.77322817 3.039793 1.6437939
0.76723295 3.0227962 1.6559117
0.77045077 3.0318842 1.6476498
0.76993823 3.0353782 1.6493232
0.76476538 3.0414183 1.6581404
0.76335406 3.0444002 1.6428633
0.74371743 3.0435622 1.6451516
0.75285685 3.0406623 1.6436696
0.73569632 3.040478 1.6442851
0.74149692 3.0423877 1.6491479
0.73140371 3.0497839 1.6477591
0.72905368 3.035398 1.6483058
0.71882004 3.0484445 1.6568787
0.72032297 3.0451946 1.6478896
0.72349799 3.0409892 1.6438905
0.71548891 3.0395916 1.6618292
0.71220118 3.0427775 1.6578916
0.71120048 3.039325 1.6500219
0.70871645 3.0429351 1.6609411
0.68684655 3.0565705 1.6527497
0.68983811 3.0443389 1.6509398
0.69143963 3.0539849 1.6537354
0.69358647 3.0576262 1.6485746
0.68430483 3.0470006 1.6591669
0.66603291 3.063782 1.6445628
0.66376054 3.0567873 1.6475761
0.65942568 3.0507393 1.6527961
0.67115188 3.0679266 1.6535904
0.655007 3.0668671 1.6570276
0.64978015 3.068176 1.6531388
0.65636057 3.0567164 1.6560628
0.64112991 3.0710998 1.6476834
0.64869356 3.0718722 1.6420015
0.63109517 3.0676069 1.6447566
0.62408787 3.069315 1.6433611
0.62247539 3.0729971 1.6540452
0.62387484 3.056592 1.6577615
0.61049324 3.0761621 1.6577511
0.61790472 3.0638375 1.6557732
0.60875213 3.0705378 1.6542022
0.61570954 3.0680714 1.6602757
0.60558993 3.0746281 1.6598421
0.6070897 3.0730038 1.659297
0.60290647 3.0780375 1.6536083
0.58147705 3.0803218 1.6487553
0.57865113 3.0652525 1.6467181
0.5865081 3.0758429 1.6474154
0.5780803 3.0773127 1.6468284
0.56964105 3.0704567 1.6530685
0.55922276 3.0787117 1.6451663
0.56723237 3.0781894 1.6539611
0.56131434 3.0718131 1.648482
0.55496168 3.0712039 1.6605539
0.5480628 3.0706797 1.656841
0.55547422 3.0729957 1.6545998
0.5380317 3.0767562 1.6564826
0.53855085 3.0726454 1.6481549
0.53976631 3.0843799 1.6605023
0.52039373 3.0919487 1.645205
0.52726018 3.0933745 1.65738
0.52622348 3.087086 1.6482556
0.51398045 3.0791566 1.6519841
0.51625735 3.0891528 1.6543386
0.51060528 3.0965295 1.6554101
0.50123942 3.095598 1.6580445
0.50963134 3.0815053 1.6436925
0.49990502 3.0922143 1.644489
0.48185 3.0884223 1.6562848
0.49614155 3.0895424 1.6549207
0.47513488 3.0818143 1.6542594
0.48630229 3.0973358 1.6465925
0.46834433 3.084902 1.6502852
0.47411406 3.0990338 1.6432693
0.46223733 3.0918028 1.642931
0.45143113 3.0994966 1.6609682
0.46325848 3.0998735 1.644226
0.46073306 3.0948167 1.6575116
0.43900323 3.095998 1.6463302
0.4490684 3.0957651 1.6555998
0.43776861 3.0988209 1.6564784
0.42580661 3.0973401 1.6522217
0.42617691 3.1021984 1.6548802
0.43023914 3.0971243 1.6510254
0.42728454 3.1044724 1.6593007
0.42399088 3.1053138 1.6546369
0.41873369 3.1022835 1.6497231
0.41673338 3.1010289 1.6591314
0.40801796 3.1023469 1.6491063
0.40812048 3.0980332 1.6582395
0.39749181 3.1067238 1.6498256
0.38774091 3.1077573 1.6593339
0.39373252 3.1134667 1.6531098
0.38238192 3.1075449 1.6612269
0.3871758 3.1029756 1.6561131
0.38024434 3.099421 1.6512682
0.36864826 3.114918 1.6428261
0.37213767 3.1127245 1.6525687
0.36503479 3.1061258 1.6430746
0.34790608 3.1039412 1.6487182
0.35990989 3.1154399 1.6425098
0.34349906 3.1015003 1.6567982
0.33659598 3.1178658 1.6562656
0.34346813 3.1071949 1.6492865
0.33845669 3.105633 1.6572198
0.3283309 3.1014552 1.661086
0.35202366 3.2923975 1.5800551
0.34835482 3.2887723 1.5762179
0.33442795 3.3023617 1.5652878
0.33100641 3.3031406 1.5716847
0.35087302 3.4827433 1.4892102
0.34663063 3.4877779 1.4922076
0.33667606 3.4702291 1.4911004
0.32618815 3.4838729 1.4988582
0.34534615 3.6594231 1.4047083
0.33555627 3.6665957 1.4058161
0.32963189 3.6631186 1.4150205
0.33842432 3.8432148 1.3402462
0.34726322 3.8513193 1.3384898
0.32517138 3.8405805 1.337059
0.32947582 3.8566418 1.3322833
0.33119282 3.8532951 1.3320773
0.31590658 3.8448288 1.3338646
0.31951249 3.8507099 1.3288447
0.31087554 3.8439598 1.3363338
0.30797571 3.8525114 1.3305346
0.28618315 3.8402312 1.3408048
0.29359439 3.8459756 1.32806
0.28611854 3.8459077 1.3229585
0.27688563 3.8490973 1.3266642
0.26622149 3.8419411 1.325985
0.27078104 3.8418527 1.3415202
0.25513411 3.8518291 1.3281577
0.26127407 3.8507633 1.3402524
0.24239358 3.8464129 1.3251806
0.25100175 3.8445156 1.3382516
0.23381022 3.846179 1.3386408
0.22688849 3.8606079 1.3243805
0.22722158 3.8529155 1.3296657
0.22245263 3.8613455 1.3377615
0.22138897 3.8644669 1.3383298
0.21964569 3.8575039 1.3384455
0.21343721 3.8602507 1.3281811
0.19386582 3.8544948 1.336502
0.20638886 3.8552158 1.3401307
0.18383974 3.8499033 1.3415279
0.19436121 3.8527577 1.3242624
0.18527152 3.8540494 1.3411065
0.18192117 3.8610339 1.3299468
0.16385575 3.848609 1.3269128
0.17388582 3.860481 1.3267035
0.16448385 3.8559704 1.3392425
0.15519731 3.8506124 1.3342465
0.15564615 3.8510444 1.3232204
0.14441545 3.8493617 1.3326489
0.13681324 3.8504918 1.3365055
0.13060813 3.867506 1.3229651
0.12713714 3.8607936 1.3304724
0.12051009 3.8560941 1.3247273
0.12272307 3.8586926 1.3263284
0.12190183 3.8566854 1.3395797
0.10087121 3.8506403 1.3281064
0.09237922 3.8606732 1.3310684
0.098891109 3.8565197 1.3342634
0.09437675 3.8665009 1.3355839
0.079290681 3.8542449 1.3378506
0.088061191 3.8611495 1.3369547
0.083291143 3.8499489 1.3291774
0.066028208 3.8574872 1.3365389
0.063020073 3.8526051 1.326345
0.061612915 3.852268 1.3339971
0.05345704 3.856267 1.3354652
0.053827714 3.857141 1.3268346
0.037160341 3.869894 1.3339263
0.043687955 3.8634996 1.3308825
0.031535998 3.8673868 1.3354738
0.021650564 3.865412 1.3268679
0.030869318 3.8640347 1.3269675
0.012310702 3.8507624 1.334519
0.001113603 3.8598499 1.3371091
-0.00027739879 3.8528981 1.3392906
0.0059837853 3.8631587 1.3254071
-0.0062870015 3.859158 1.3323411
-0.0071884212 3.8638582 1.3319789
-0.020997982 3.8604546 1.325181
-0.017851301 3.8502672 1.3422362
-0.030113345 3.8555629 1.3372899
-0.030981101 3.8554459 1.3309475
-0.031749208 3.8621387 1.3313211
-0.044965763 3.8630028 1.3407782
-0.055592116 3.8678446 1.3232871
-0.064036824 3.8643157 1.3360676
-0.066364862 3.8538849 1.3248659
-0.061758816 3.8679209 1.3383906
-0.077514805 3.8535156 1.3285451
-0.080068558 3.8676257 1.3285533
-0.085567005 3.8548417 1.3339057
-0.096011482 3.8665583 1.339197
-0.092798226 3.862875 1.3312447
-0.089211091 3.8513429 1.3242276
-0.096166641 3.8545525 1.3421308
-0.10061307 3.8546853 1.3365912
-0.11227884 3.8578577 1.3407145
-0.11514601 3.8510036 1.3389747
-0.12448826 3.8537612 1.3229383
-0.12367578 3.8593321 1.341128
-0.14285485 3.8647716 1.3266574
-0.13668123 3.8651335 1.3240345
-0.14521596 3.8540754 1.3378667
-0.14170271 3.8519711 1.3403131
-0.16520624 3.8482773 1.3261226
-0.1708063 3.8655033 1.3322262
-0.16194549 3.8564296 1.3416708
-0.16896121 3.849854 1.3244373
-0.17771634 3.8593018 1.3301449
-0.18250743 3.8549271 1.3416146
-0.18910848 3.8567381 1.3387223
-0.19017978 3.8500872 1.3363982
-0.19387364 3.860266 1.3232297
-0.20373486 3.8593218 1.3281778
-0.21114926 3.8602378 1.3296609
-0.21275358 3.8609173 1.3286061
-0.22825396 3.8558204 1.3387212
-0.23430938 3.8490703 1.3225117
-0.23759773 3.8589275 1.3360085
-0.23517798 3.8493557 1.3253968
-0.2412881 3.8585441 1.3368697
-0.25028992 3.8520224 1.3419728
-0.26161537 3.8471677 1.3375434
-0.26610887 3.8578122 1.3324659
-0.2656537 3.8464022 1.328608
-0.26371488 3.8587472 1.3257406
-0.28283033 3.8409512 1.3380948
-0.27183023 3.8424582 1.3240252
-0.27703899 3.846035 1.3401463
-0.28875032 3.8573892 1.3270365
-0.29107279 3.8479908 1.3234637
-0.30192181 3.8549469 1.3337253
-0.30766708 3.8559339 1.3394958
-0.31784123 3.8377833 1.3362817
-0.31309223 3.8454428 1.3420359
-0.33220041 3.8403959 1.3405213
-0.33417541 3.8415878 1.3416041
-0.3237955 3.839133 1.3245949
-0.34748456 3.8368225 1.3315709
-0.33505183 3.8481534 1.3303171
-0.35572827 3.8425133 1.3400881
-0.35997677 3.8513756 1.3372464
-0.35396293 3.8398433 1.33583
-0.36217791 3.8434868 1.3367087
-0.37360629 3.8372285 1.3257003
-0.37927961 3.8372111 1.3301058
-0.38646674 3.8405666 1.3361713
-0.39257038 3.8396494 1.340258
-0.39568245 3.8403902 1.3225175
-0.39181775 3.8389096 1.3365984
-0.409206 3.842098 1.3255376
-0.41682243 3.8463826 1.3238446
-0.40727985 3.842025 1.3311324
-0.41915286 3.8347957 1.3225844
-0.43014634 3.8414807 1.3283063
-0.43214732 3.8278341 1.3345462
-0.42974195 3.8323414 1.3246846
-0.44127017 3.8360853 1.3344564
-0.44871089 3.8420568 1.3255268
-0.45389119 3.8372316 1.3356822
-0.46498969 3.8403561 1.3295987
-0.46714813 3.8412013 1.3283802
-0.47099859 3.8369255 1.3233919
-0.46756029 3.826112 1.3317697
-0.47266909 3.8296399 1.3274351
-0.49205506 3.8365006 1.3300641
-0.48520017 3.8310997 1.337818
-0.48820585 3.8195026 1.3299409
-0.50143874 3.8257959 1.3286679
-0.50360018 3.8322392 1.3232096
-0.51560539 3.8329136 1.3415234
-0.51369303 3.8167579 1.3413372
-0.5129981 3.8220797 1.3375375
-0.51729041 3.8161662 1.3235943
-0.5332039 3.8304696 1.3338562
-0.5334509 3.8307118 1.3316635
-0.55106789 3.823133 1.3247617
-0.54092991 3.8178711 1.3269626
-0.55866784 3.8246984 1.3361638
-0.55767781 3.8146849 1.3325227
-0.56214488 3.8179862 1.330278
-0.56829715 3.8085189 1.332607
-0.57463443 3.8250642 1.3409945
-0.5847702 3.822634 1.3242126
-0.58884805 3.8096063 1.3224858
-0.58266288 3.8216462 1.3417605
-0.59866935 3.8213828 1.3342227
-0.60157621 3.8165698 1.3421969
-0.60228115 3.8193307 1.3377799
-0.61378372 3.8083918 1.3241382
-0.60892606 3.8182952 1.334594
-0.62631184 3.8073545 1.336386
-0.62136739 3.8153834 1.3355343
-0.62803435 3.7985828 1.3330711
-0.63148195 3.803009 1.338406
-0.63665503 3.798924 1.336614
-0.64255214 3.8041348 1.3353993
-0.65598583 3.8117404 1.33022
-0.66144389 3.8039408 1.3286568
-0.67131776 3.8099377 1.3370178
-0.67483205 3.8060901 1.3361526
-5.6508603 3.0333557 0.21689413
-5.6419415 3.037818 0.21165553
-5.6507626 3.0250995 0.22046688
-5.6607323 3.024328 0.21310699
-5.6727276 3.015518 0.21867862
-5.6595974 2.9997618 0.20727198
-5.6786175 3.0006137 0.21266896
-5.6763201 2.9906008 0.20891914
-5.6711946 2.973484 0.20845582
-5.6870947 2.9629037 0.2207294
-5.6883197 2.961575 0.205082
-5.6994715 2.9533834 0.22179891
-5.6958513 2.9405775 0.21370541
-5.7034082 2.9419975 0.2127542
-5.6983142 2.935607 0.21091241
-5.7076373 2.9265206 0.22124019
-5.7083559 2.9025772 0.22035119
-5.7236667 2.9050825 0.21738647
-5.7227159 2.8968539 0.20524782
-5.5583358 2.8146296 0.29036519
-5.5654378 2.7977526 0.30222085
-5.5681758 2.7938311 0.29384509
-5.5741868 2.7776265 0.3006295
-5.5682797 2.7779498 0.29680556
-5.5833135 2.7674415 0.29456857
-5.5801778 2.751673 0.29122835
-5.5867038 2.7592378 0.2919333
-5.5941072 2.735533 0.30313805
-5.604465 2.7368083 0.29411435
-5.6069503 2.7226012 0.29309687
-5.6041951 2.7251844 0.30298495
-5.6095729 2.7089112 0.2967394
-5.6033158 2.7104983 0.30208239
-5.6102633 2.7018523 0.29554743
-5.6210237 2.6820216 0.28630817
-5.6140103 2.6891651 0.28910989
-5.6303263 2.67361 0.28729123
-5.625926 2.6744676 0.28958774
-5.6303101 2.6487732 0.30098528
-5.4775934 2.5667708 0.36589387
-5.4718885 2.5691569 0.38133436
-5.4762845 2.5499377 0.36834297
-5.4869156 2.5407376 0.36478531
-5.4921932 2.5483413 0.38043338
-5.483995 2.5289245 0.36410809
-5.4850249 2.5202506 0.38278842
-5.5032425 2.5189788 0.37378126
-5.5032682 2.5058148 0.37350446
-5.5009866 2.5119629 0.37541109
-5.507297 2.4883995 0.38081568
-5.508575 2.494107 0.37626243
-5.5144024 2.4789739 0.38015118
-5.5132098 2.4767542 0.3825061
-5.5155644 2.4727914 0.38013572
-5.5222602 2.4605501 0.36602464
-5.5252709 2.4507911 0.37092042
-5.5295897 2.4463165 0.38223049
-5.5429053 2.4253073 0.36806718
-5.5364866 2.4300601 0.36774758
-5.548151 2.4119725 0.37156501
-5.5543995 2.4160657 0.36879542
-5.3767719 2.3253009 0.4584904
-5.3835626 2.3118799 0.45379314
-5.3879876 2.3195312 0.45285267
-5.3947725 2.3039029 0.44739547
-5.395658 2.3086696 0.45990869
-5.3916368 2.2925115 0.45568126
-5.3962955 2.2864218 0.45818347
-5.3951068 2.2701232 0.45318204
-5.414227 2.265523 0.45784131
-5.4095197 2.2580254 0.45434654
-5.4075708 2.2630773 0.46032354
-5.4158044 2.2445674 0.46040666
-5.4087243 2.2448506 0.45567262
-5.4225745 2.2215567 0.46284622
-5.4218712 2.2205744 0.46232697
-5.4286437 2.2067997 0.45319465
-5.4396334 2.2115426 0.44552198
-5.4281101 2.2006397 0.44910482
-5.4415779 2.1937716 0.45564565
-5.4303756 2.1947558 0.4622516
-5.4426575 2.1808224 0.4614765
-5.4489517 2.1617789 0.44976297
-5.4551525 2.1529284 0.44590849
-5.4460764 2.1533298 0.44634017
-5.2790637 2.0707309 0.53326172
-5.2832193 2.0714743 0.53410971
-5.2964964 2.0642989 0.52729362
-5.2974358 2.0517068 0.5371722
-5.2947822 2.0486963 0.52778423
-5.3055773 2.039927 0.5269863
-5.3097563 2.0419042 0.53986514
-5.2946997 2.0206046 0.54131496
-5.3113465 2.0161116 0.5415327
-5.3118377 2.0236909 0.5297749
-5.3118863 2.0105166 0.52984071
-5.3048911 1.996069 0.53804266
-5.3170371 1.9912159 0.52646589
-5.315989 1.9882848 0.52969748
-5.3250523 1.9708585 0.53732342
-5.3234925 1.9654777 0.52358872
-5.3227205 1.9587486 0.53924376
-5.3290591 1.9498959 0.5410158
-5.3339381 1.9472061 0.52571529
-5.3385882 1.9468249 0.5254187
-5.3349862 1.929184 0.53937602
-5.3513074 1.9213171 0.52631801
-5.3394165 1.9240724 0.53584307
-5.3390923 1.9106337 0.52987701
-5.3555255 1.9108797 0.53392839
-5.3443227 1.8954225 0.54004669
-5.17378 1.8229096 0.60677493
-5.1805515 1.8275704 0.61221814
-5.1855407 1.8100588 0.6224308
-5.1858201 1.8105927 0.61972505
-5.1863866 1.7974141 0.6068449
-5.1929851 1.7905889 0.61356825
-5.1926317 1.7783191 0.61052096
-5.2027426 1.7690279 0.62151277
-5.1988101 1.765947 0.62023216
-5.2108154 1.7567022 0.6109795
-5.2166929 1.7475588 0.61725718
-5.2157192 1.7541721 0.61544657
-5.2092919 1.7383138 0.60337871
-5.2126422 1.7246838 0.61910266
-5.218688 1.7329851 0.60890937
-5.2176037 1.7171755 0.61915576
-5.2297859 1.7041967 0.60440069
-5.2250051 1.7035737 0.6076262
-5.2292223 1.6893407 0.61504602
-5.2347102 1.685549 0.62049967
-5.2294402 1.6783168 0.60409212
-5.2378821 1.6744851 0.62158322
-5.2281251 1.6594967 0.61050504
-5.2304254 1.6635644 0.61308891
-5.2369914 1.6439825 0.61126983
-5.2337403 1.6478708 0.62094003
-5.2402329 1.6419528 0.60493356
-5.2414699 1.623181 0.61560982
-5.2394714 1.6225475 0.61936194
-5.2500429 1.6187716 0.60663444
-5.0797029 1.5493461 0.69387794
-5.0811334 1.5473027 0.6847207
-5.085063 1.5373313 0.68789697
-5.080061 1.5273643 0.70246613
-5.0924649 1.5331255 0.68478179
-5.086678 1.5244217 0.69831735
-5.0912113 1.5114992 0.69326961
-5.0917411 1.499603 0.69678807
-5.1015844 1.4919587 0.6870141
-5.0876656 1.4959861 0.70080841
-5.1064644 1.4771388 0.68577898
-5.0978975 1.4790093 0.69581157
-5.0984778 1.4590887 0.70298129
-5.0958719 1.4662988 0.68729544
-5.0986872 1.4632237 0.6844852
-5.1191764 1.4480441 0.7000885
-5.1061201 1.4304303 0.68988967
-5.1181016 1.4343758 0.69491786
-5.1065545 1.4305569 0.6994279
-5.1247716 1.4227257 0.69509435
-5.1091847 1.4181548 0.69904536
-5.1286168 1.4042001 0.6920017
-5.1180062 1.3917042 0.69217521
-5.1202164 1.3838434 0.68669933
-5.1181021 1.3751872 0.68529165
-5.1187878 1.3680508 0.69585055
-5.1238604 1.3759701 0.69594455
-5.139122 1.3538973 0.68713582
-5.1293449 1.3453509 0.70166272
-5.1350484 1.3405567 0.69551575
-5.1450748 1.3333095 0.69195783
-5.1311407 1.3285794 0.70160794
-5.1442399 1.3163995 0.68592769
-5.1371555 1.3239391 0.68955487
-5.1555367 1.3155125 0.69169658
-5.1553159 1.3083096 0.69387555
-5.144526 1.2979336 0.69115001
-5.1536322 1.2941856 0.69353056
-5.1515369 1.282094 0.6945461
-5.1549048 1.2661688 0.69795179
-5.1644096 1.2620764 0.70129681
-5.1574621 1.2537677 0.68710119
-5.1608548 1.2541994 0.68791735
-5.1599174 1.2435447 0.68346769
-5.1553426 1.2363279 0.69778842
-5.1686158 1.2311413 0.69210583
-5.1597004 1.2185438 0.70324928
-5.1735005 1.2186294 0.69784939
-5.3435302 1.2439747 0.60767734
-5.353971 1.2460866 0.60867727
-5.3609962 1.2404528 0.61279672
-5.344666 1.2235154 0.61582202
-5.3625207 1.2249244 0.60649586
-5.359549 1.2089999 0.61373436
-5.3610163 1.1993687 0.62097788
-5.3681526 1.1981727 0.61025888
-5.360961 1.1875908 0.61416888
-5.3626151 1.1848977 0.60539341
-5.3696589 1.1724737 0.60780919
-5.3669767 1.1713345 0.61981988
-5.3632841 1.1648858 0.61368221
-5.3754616 1.1564726 0.61809492
-5.364603 1.1518992 0.61140698
-5.38306 1.131982 0.61628687
-5.5537686 1.169656 0.53914291
-5.557775 1.1642218 0.52818781
-5.5524893 1.1476319 0.53415042
-5.563283 1.1510299 0.52492172
-5.5628414 1.1290162 0.53077322
-5.5599728 1.1313062 0.54299188
-5.5650826 1.1188997 0.53627056
-5.5563197 1.1159164 0.52864689
-5.5631328 1.1053815 0.52396297
-5.576623 1.0979688 0.52687722
-5.5652227 1.100917 0.53759819
-5.5710673 1.0814694 0.53065521
-5.5678568 1.0689073 0.534895
-5.5786724 1.0671403 0.53030777
-5.5787058 1.0673934 0.53148395
-5.7531209 1.0856998 0.46284169
-5.7551093 1.0865833 0.44946212
-5.7638078 1.0777754 0.46088284
-5.7601185 1.0636888 0.44955447
-5.7611017 1.0576358 0.45860142
-5.75916 1.0444962 0.45838657
-5.7664857 1.0470136 0.44651639
-5.7607431 1.034233 0.44987831
-5.7707496 1.012117 0.45926967
-5.7653322 1.0114369 0.45671245
-5.7787271 0.99804431 0.4466444
-5.7808652 1.0041578 0.4455139
-5.776372 0.98305607 0.44363174
-5.7804465 0.98711544 0.45572141
-5.9567046 1.0017405 0.36993077
-5.9630799 0.98941606 0.37895057
-5.9696584 0.99120414 0.3785522
-5.9680953 0.98016167 0.3734397
-5.9631591 0.96052843 0.37427965
-5.9688196 0.96771735 0.38250989
-5.9570255 0.94290447 0.36541981
-5.9752879 0.93733519 0.38251752
-5.974669 0.93763006 0.3665897
-5.9759212 0.93520969 0.38279939
-5.9650717 0.91874588 0.37162578
-5.9801135 0.91728544 0.37646225
-6.1474686 0.93766749 0.29153556
-6.1539035 0.91366094 0.30379227
-6.1654387 0.91593468 0.28475592
-6.1561217 0.91388017 0.30125046
-6.1585627 0.90494013 0.301276
-6.1580815 0.87904656 0.28407803
-6.160491 0.87506902 0.29552242
-6.1588159 0.87112528 0.29289582
-6.1609192 0.85930508 0.30215654
-6.1741838 0.85370541 0.29830971
-6.1626 0.84334612 0.29614577
-6.1760435 0.82782876 0.29858488
-6.3589911 0.84605277 0.21202153
-6.3592234 0.85058057 0.21190444
-6.3629489 0.83390808 0.21146221
-6.3466363 0.81894523 0.21374306
-6.3475089 0.82278967 0.22066469
-6.356925 0.80951363 0.21226265
-6.3489556 0.79532689 0.2206621
-6.3517127 0.78905582 0.21208526
-6.358304 0.77553684 0.22177412
-6.3670473 0.76973099 0.20457228
-6.3533387 0.76389498 0.21021086
-6.5484142 0.78020978 0.1293733
-6.541503 0.77248096 0.14063613
-6.5550213 0.76220572 0.12582295
-6.5462461 0.75218606 0.14374271
-6.5505366 0.73386639 0.13727649
-6.5432162 0.72462016 0.12551509
-6.5474839 0.7137081 0.13637571
-6.5603151 0.71728343 0.14261203
-6.5634451 0.69318211 0.13193864
-6.5637636 0.68384343 0.12432682
-6.5584311 0.68259162 0.14071153
3.2349977 3.011421 1.1212213
3.243365 3.0263195 1.1266422
3.2349088 3.0131121 1.1310452
3.2225356 3.0348518 1.1204447
3.2312973 3.0397842 1.1280344
3.2315123 3.0353687 1.1316015
3.2180023 3.0484893 1.1203558
3.2238104 3.0398507 1.1197393
3.2044361 3.0409925 1.1307667
3.2117882 3.048296 1.1313318
3.1967335 3.0529435 1.1190174
3.1987872 3.0701489 1.1170877
3.1862555 3.0630958 1.1174431
3.1981206 3.067873 1.1150364
3.1793787 3.0856218 1.1330659
3.1882207 3.0878019 1.12219
3.1806233 3.0806944 1.1199507
3.1817741 3.0836239 1.1245944
3.1623025 3.0914137 1.1259077
3.173852 3.0907972 1.1300579
3.1659603 3.0993731 1.134395
3.1457481 3.1142561 1.1314831
3.1436002 3.1208675 1.1170694
3.1418016 3.1236098 1.1229903
3.1375902 3.1118827 1.1222234
3.131402 3.1332757 1.119206
3.1343319 3.1313562 1.1246563
3.1350164 3.1348782 1.1286173
3.1203387 3.1432252 1.1159556
2.9973609 3.0169158 1.1968158
2.9883168 3.0173521 1.2033061
2.983604 3.0218921 1.2002846
2.9759734 3.0286055 1.199486
2.9739232 3.0378482 1.1970471
2.9777882 3.0272133 1.1985046
2.9608805 3.0347304 1.1969848
2.9609497 3.0495234 1.2091808
2.9664636 3.0493531 1.2005407
2.9559326 3.0588632 1.1958954
2.9527342 3.0593669 1.2111037
2.9518449 3.0550146 1.202589
2.9374399 3.0701432 1.194461
2.9400079 3.0618408 1.2088991
2.9217715 3.0756936 1.2084384
2.9210906 3.0776227 1.213207
2.9218614 3.0868611 1.201363
2.9211068 3.0803914 1.200188
2.9125426 3.0836637 1.1947248
2.9153326 3.0806394 1.1946596
2.9134717 3.0986564 1.210992
2.9068131 3.1000297 1.1988719
2.8916347 3.1112497 1.1977862
2.8883224 3.1092944 1.2043097
2.8794425 3.1133657 1.2006037
2.8900964 3.1210244 1.1947505
2.8855133 3.113728 1.1940652
2.8690805 3.1299567 1.2028456
2.8714671 3.1219065 1.21084
2.8683851 3.1209373 1.2117575
2.8652322 3.1424041 1.2066457
2.8584061 3.1415148 1.1988668
2.8594544 3.1497548 1.1982733
2.8594115 3.1389961 1.2116964
2.7226186 3.0071645 1.2837137
2.7255728 3.0266521 1.2808279
2.7226686 3.025887 1.2866354
2.7190738 3.0330255 1.2846674
2.7042542 3.0268927 1.2906511
2.6974237 3.0420249 1.2916737
2.6915052 3.0383573 1.290177
2.70047 3.0322223 1.283811
2.6816504 3.0514996 1.2817112
2.6822324 3.0551035 1.284885
2.6762321 3.0495579 1.2887782
2.6836984 3.0511563 1.2883753
2.6682737 3.0540459 1.2834297
2.6586514 3.0575409 1.2818509
2.6670556 3.0704222 1.2903734
2.6614387 3.0606837 1.2902682
2.6568391 3.0692432 1.2827413
2.6507375 3.0709889 1.2853311
2.6382649 3.0781417 1.283456
2.6436875 3.0901084 1.2814486
2.6322787 3.0803118 1.2901648
2.6247578 3.0822237 1.2767551
2.6368291 3.0929585 1.2825162
2.6239495 3.0983236 1.2880598
2.6294863 3.0963509 1.2827779
2.6235404 3.1130242 1.2840568
2.6174841 3.1093659 1.2902005
2.6038959 3.1038797 1.2744009
2.5928924 3.110199 1.2820715
2.6000087 3.1262245 1.2780317
2.5851126 3.1151299 1.2805246
2.5989277 3.1208084 1.2812645
2.5793281 3.1228569 1.2890805
2.5854845 3.1363299 1.2786087
2.5771797 3.1396489 1.2825173
2.5635877 3.141336 1.2794584
2.5712698 3.1412861 1.2891066
2.5650904 3.1519723 1.2896397
2.5631065 3.1559842 1.2728697
2.5487883 3.1514471 1.2885085
2.5504253 3.1563532 1.2894422
2.5545504 3.1594191 1.2724499
2.5394104 3.1672347 1.2739077
2.5320814 3.1655614 1.2852463
2.5342758 3.1799426 1.2763175
2.5203736 3.1850965 1.2854958
2.5234079 3.182302 1.2910502
2.5160854 3.1777027 1.2837229
2.5092909 3.1954987 1.2768457
2.5057218 3.1833611 1.2818758
2.4977865 3.1972499 1.2882626
2.5107801 3.1996582 1.2741717
2.5067763 3.2113254 1.2843595
2.4842257 3.200068 1.2893426
2.4930086 3.215414 1.2851824
2.4928582 3.221272 1.2826571
2.4818811 3.2145832 1.2738247
2.4764538 3.2249954 1.2768866
2.4636941 3.213042 1.2742445
2.4640524 3.2219532 1.2759708
2.4694362 3.2273674 1.288098
2.4612019 3.2302184 1.2791518
2.4588721 3.2335138 1.2783977
2.4467251 3.2387116 1.2829169
2.4395568 3.2371502 1.2793193
2.3378346 3.0927787 1.3566685
2.3241765 3.108866 1.3653326
2.3216817 3.1039982 1.360965
2.3222444 3.1108482 1.3612062
2.3201602 3.1025386 1.3669268
2.299798 3.1241 1.3546361
2.3115585 3.1219184 1.3617774
2.2943683 3.1219037 1.3688012
2.2964194 3.1342432 1.3576164
2.2829854 3.1239202 1.36147
2.2859495 3.1267745 1.3646803
2.2877126 3.1402805 1.3607442
2.2781355 3.1356063 1.3687127
2.2641864 3.1358132 1.3603096
2.270474 3.1382596 1.3603815
2.2624779 3.1446717 1.3588051
2.2621868 3.1471765 1.3518438
2.2490323 3.1568279 1.3616705
2.2428975 3.1528716 1.3606453
2.2455735 3.1598272 1.3661119
2.1258609 3.0039499 1.429799
2.1358018 3.024189 1.4452736
2.1218023 3.0192103 1.432907
2.1157675 3.0246463 1.4375864
2.1213253 3.0207379 1.4415575
2.1069508 3.033206 1.448792
2.1109958 3.0297596 1.4353886
2.1080754 3.0375402 1.4485002
2.0949776 3.0435715 1.4345253
2.1008506 3.0366688 1.4443817
2.0921862 3.0406857 1.4453897
2.0886593 3.0388322 1.4436733
2.0806029 3.0471725 1.4340203
2.0801759 3.0536749 1.4468514
2.0844243 3.0499365 1.4328279
2.0726399 3.0560288 1.4483323
2.0680857 3.0503759 1.437456
2.0701244 3.066016 1.4314319
2.0652704 3.0727761 1.4485165
2.0464375 3.0696311 1.4357817
2.0574572 3.0620472 1.444153
2.0494809 3.0751665 1.4477659
2.0397842 3.0844631 1.4368203
2.0404305 3.0775707 1.4294841
2.0339038 3.0791688 1.4355223
2.03335 3.0932283 1.4447719
2.0282967 3.0869837 1.4454932
2.012363 3.0870316 1.4389855
2.0104012 3.0864835 1.4363745
2.0055201 3.0913646 1.4477611
2.0079005 3.0915315 1.4487125
1.998648 3.1079917 1.4399376
1.9930048 3.0990293 1.4376199
1.9964119 3.1149912 1.4455764
1.9924791 3.1087081 1.4323035
1.9945806 3.1061571 1.4302685
1.9859278 3.1228421 1.4391736
1.9779925 3.127887 1.4453169
1.9635456 3.1152678 1.4481088
1.966484 3.1220689 1.4329842
1.9608051 3.1355555 1.435235
1.9560736 3.124099 1.4311607
1.9625636 3.1313121 1.4353446
1.9467322 3.1262496 1.4327168
1.9388534 3.1415749 1.4410387
1.9376979 3.1433265 1.4440482
1.9345038 3.1407537 1.4409873
1.9402108 3.154578 1.4402224
1.9320575 3.1582916 1.444095
1.9266924 3.1492834 1.4320316
1.9261988 3.1589403 1.4307239
1.9079524 3.1482131 1.4352347
1.905628 3.1683276 1.4442399
1.9074837 3.1569657 1.4454699
1.906708 3.1620839 1.4393184
1.8942504 3.1704097 1.4322178
1.7906133 3.0019209 1.5183957
1.7983177 3.0213649 1.5171639
1.7852536 3.0170298 1.5169634
1.7960588 3.0117075 1.5250787
1.7747971 3.0302737 1.5201807
1.7722241 3.0149786 1.5218918
1.7741585 3.0217485 1.5210596
1.7650948 3.0347669 1.526214
1.7572575 3.0314062 1.5138412
1.7632653 3.0399883 1.5271546
1.7621692 3.0435224 1.5273328
1.748702 3.0389481 1.5244592
1.7539996 3.0455 1.5147607
1.7390933 3.047051 1.5172561
1.732299 3.0515375 1.5158395
1.7406032 3.057652 1.5166557
1.7306153 3.0499051 1.5217755
1.7197918 3.057302 1.5174533
1.7141193 3.0610728 1.5273157
1.7160705 3.0550659 1.5233117
1.711332 3.0521808 1.520399
1.7067682 3.06005 1.510475
1.6993276 3.0574415 1.5246722
1.7021853 3.0641546 1.5179951
1.7075351 3.068305 1.5133855
1.6914649 3.0649946 1.5124773
1.6962078 3.0759342 1.5214146
1.686067 3.080292 1.5153476
1.6716007 3.0832224 1.510656
1.6669937 3.0723522 1.5175679
1.6783795 3.0809948 1.5192113
1.6668493 3.0893288 1.5263462
1.6653918 3.0944803 1.5085008
1.6581283 3.086751 1.5150031
1.6641846 3.0886364 1.523296
1.645628 3.0987196 1.5259244
1.6461599 3.0978169 1.5171449
1.6356261 3.0910482 1.5103815
1.639022 3.0940914 1.5242124
1.6377231 3.0968084 1.5248432
1.623333 3.1151958 1.511793
1.630583 3.1063404 1.5247587
1.624965 3.1203184 1.5205641
1.6214982 3.1113272 1.5263344
1.6045308 3.1126893 1.5116901
1.615853 3.1197956 1.5248352
1.6098006 3.1117373 1.5147898
1.5949657 3.1174519 1.5156939
1.5933641 3.1308727 1.5173652
1.5855904 3.1273077 1.5194839
1.5784444 3.1336689 1.5177261
1.578245 3.1315999 1.5248553
1.5710084 3.1282353 1.5237108
1.5795742 3.14573 1.5113294
1.5739071 3.1305861 1.5180707
1.5735928 3.1310964 1.5096844
1.5664204 3.1498895 1.5110126
1.5491998 3.138186 1.515834
1.5528802 3.1492221 1.5118608
1.5382289 3.1568291 1.5221134
1.5456933 3.1416376 1.5165242
1.5313967 3.1505973 1.5266688
1.5242265 3.1566741 1.5112578
1.5359088 3.1556735 1.5111566
1.5152068 3.1533654 1.5137326
1.5212431 3.1551056 1.5146461
1.5188901 3.1540394 1.5121862
1.5178624 3.1601214 1.5158621
1.5016533 3.1742556 1.5084199
1.5014681 3.1781135 1.5264363
1.4915324 3.1738133 1.527119
1.4960047 3.1795974 1.5146254
1.4906186 3.1825953 1.5260788
1.412197 3.0149121 1.5929531
1.4115258 3.0175586 1.5968561
1.393428 3.0106339 1.6003881
1.3962409 3.0257523 1.6007484
1.3965912 3.0242419 1.6050915
1.3806149 3.0309243 1.6014756
1.3771936 3.0218258 1.5996306
1.371786 3.0271995 1.5914047
1.3670584 3.0214558 1.5868883
1.3698347 3.0347393 1.6033014
1.3640617 3.0316393 1.5967189
1.3666148 3.0320544 1.5908347
1.3530684 3.0385606 1.5960841
1.3430512 3.0320714 1.5945157
1.3533918 3.0301268 1.5895066
1.3480726 3.0364027 1.5892555
1.3391353 3.0434573 1.5979873
1.3283502 3.0493064 1.5901799
1.3293366 3.0546331 1.5947222
1.3258041 3.0469439 1.5906471
1.3186821 3.0576921 1.601577
1.324975 3.0552061 1.591033
1.3053813 3.0433893 1.6051117
1.3110344 3.0457737 1.5908239
1.3151165 3.0627193 1.59272
1.2941871 3.0585697 1.5990266
1.2930039 3.0697083 1.590528
1.3005501 3.0542908 1.6060249
1.2802864 3.0640905 1.6050007
1.2845625 3.0745919 1.5944453
1.2847611 3.0622075 1.5928019
1.275887 3.0603549 1.5868427
1.2764665 3.0631502 1.5872426
1.2711221 3.0758424 1.5882086
1.2714876 3.0768633 1.6043081
1.2537466 3.0812037 1.5944514
1.2623099 3.0686126 1.5939331
1.2423722 3.0878217 1.5962027
1.2379289 3.0910237 1.5864837
1.2324589 3.0827608 1.6054835
1.2364312 3.078958 1.5903224
1.2387578 3.0905452 1.591538
1.2351227 3.0869782 1.5937842
1.2318851 3.0823359 1.5869639
1.2296112 3.0823307 1.5994117
1.2234344 3.0888581 1.5944533
1.2073987 3.0882249 1.5951631
1.2108423 3.0919328 1.5933473
1.1965531 3.0954785 1.5930046
1.1925427 3.0978377 1.6026762
1.1875297 3.1084552 1.5868281
1.1873531 3.1056874 1.6008564
1.18839 3.1035752 1.5896131
1.1716707 3.1025186 1.5920286
1.1681288 3.1034832 1.5927459
1.1770326 3.1025689 1.5983038
1.1609757 3.1099191 1.6015478
1.1656263 3.105015 1.5868249
1.1684588 3.1101267 1.5939789
1.1509464 3.1155353 1.6018294
1.1431032 3.12024 1.5986406
1.1394098 3.1290798 1.5910332
1.1497425 3.1232708 1.5996691
1.1288297 3.1250587 1.6056097
1.1303302 3.1276233 1.5908823
1.1325457 3.1234124 1.5936141
1.120317 3.1274679 1.6020755
1.1113302 3.1204994 1.6040183
1.1076183 3.1206908 1.5894647
1.1110582 3.1276999 1.5987169
1.1023465 3.1311977 1.5910776
1.1104438 3.1353364 1.590688
1.0909317 3.1341445 1.602905
1.1000533 3.1363783 1.5953319
1.0951134 3.1444538 1.5887513
1.0954438 3.1390877 1.5963938
1.0785041 3.1458383 1.5865319
1.0700237 3.1479497 1.5881475
1.0634841 3.1506987 1.588407
1.0623887 3.1412394 1.5941336
1.0705433 3.1474223 1.6018226
1.0510567 3.1460586 1.5921208
1.0511785 3.1495409 1.5997037
1.0435152 3.1465051 1.5880032
1.0482768 3.1628919 1.6028668
1.0464557 3.1639736 1.5908593
1.0322753 3.1524823 1.6041034
1.0282309 3.1568789 1.5979658
1.0258001 3.159107 1.5930905
1.0236268 3.1646125 1.5972753
1.0271782 3.1626477 1.6061683
1.0184165 3.1655731 1.5922291
1.0199511 3.1729991 1.6003098
1.0090666 3.1571431 1.6038988
1.0064796 3.1704319 1.6024243
0.99875438 3.1662846 1.6005876
0.99901968 3.172344 1.6058217
0.99252719 3.1787479 1.5940211
0.97989523 3.1671121 1.6030229
0.98238605 3.1776962 1.5961108
0.96905965 3.1762266 1.6058205
0.96462446 3.1703925 1.5970486
0.96624815 3.1704919 1.5943018
0.95595086 3.1841078 1.5943043
0.94924057 3.1795394 1.5862067
0.96105391 3.1916506 1.5925794
0.9510287 3.1884339 1.603635
0.94623584 3.1831334 1.5997244
0.89794886 3.0130932 1.6813596
0.89060009 3.0064025 1.6736755
0.87633747 3.0108001 1.6831703
0.8717829 3.0151789 1.6654854
0.87845463 3.0256 1.6665605
0.862378 3.0101438 1.6799183
0.86630213 3.0123997 1.6673809
0.86212701 3.0108926 1.6656339
0.8643229 3.0237863 1.6793556
0.85757279 3.016315 1.6664683
0.84691048 3.0166776 1.6787566
0.83933622 3.0338762 1.6831303
0.84407628 3.0209987 1.6706831
0.83830947 3.0277548 1.6814027
0.83485615 3.0253725 1.6813366
0.83247632 3.031105 1.6846141
0.82345271 3.0249548 1.6689525
0.82189006 3.0388246 1.670595
0.8185789 3.0390866 1.6839484
0.8089878 3.0367968 1.6686532
0.80650783 3.0280442 1.6725494
0.79631472 3.0359192 1.6724788
0.79049361 3.032737 1.6783711
0.79222399 3.0279927 1.6698658
0.78467232 3.0440013 1.6778306
0.77705318 3.0418382 1.670386
0.77270985 3.0348606 1.6756552
0.77270341 3.0505316 1.6736641
0.77433807 3.0471041 1.6708108
0.76932466 3.0382996 1.6845493
0.76901454 3.0512307 1.6684229
0.75259912 3.0381861 1.6790649
0.75611162 3.0435393 1.6654241
0.74551505 3.0548429 1.6659443
0.74641174 3.0428171 1.6813843
0.73527169 3.0473952 1.6735783
0.73668557 3.0518551 1.6777176
0.72336739 3.0605347 1.6764568
0.72805661 3.0550771 1.6707032
0.72989112 3.0488353 1.6750858
0.72546285 3.046514 1.6713462
0.7249068 3.0520098 1.6735146
0.71499133 3.0652521 1.6799945
0.71143371 3.0521326 1.6767426
0.70839489 3.0641465 1.6804349
0.70079482 3.0692585 1.6676818
0.68538725 3.0600238 1.6783706
0.69411772 3.061712 1.6767272
0.68158609 3.0723314 1.66862
0.68329954 3.0690293 1.6732711
0.66939425 3.0655439 1.6746068
0.6717481 3.0657492 1.6804502
0.67626899 3.0602865 1.6785533
0.66726851 3.0755155 1.6825608
0.65501481 3.0719564 1.6776119
0.64645231 3.0650492 1.6768105
0.6451354 3.0669875 1.6658161
0.65450597 3.0619109 1.6755571
0.64223188 3.0685587 1.6749712
0.64184934 3.081177 1.6701424
0.62611663 3.0641487 1.6808937
0.63171852 3.073734 1.6709213
0.62316257 3.0721016 1.6745636
0.61270857 3.0857308 1.6725181
0.62626088 3.0713704 1.6660026
0.61486304 3.0727119 1.6716751
0.60266268 3.0770032 1.6783868
0.59946662 3.0749323 1.6791291
0.6060105 3.084856 1.6656322
0.59196728 3.0786672 1.6838727
0.59309423 3.0810168 1.6842098
0.58497125 3.0732408 1.6732633
0.58687478 3.0811822 1.679821
0.57241946 3.0829444 1.6791509
0.5759176 3.082535 1.6832691
0.57289922 3.095005 1.667884
0.57555205 3.0795529 1.6759506
0.5649156 3.0851843 1.6811134
0.55502039 3.08164 1.6753726
0.55162722 3.0883346 1.6826217
0.54647338 3.0804391 1.6714052
0.54165572 3.0887046 1.6716033
0.54589039 3.0831587 1.6789397
0.53668177 3.0874438 1.6672411
0.52680212 3.0995147 1.6743418
0.52103961 3.0928555 1.6731272
0.5198909 3.0931389 1.6756811
0.52680796 3.0870764 1.6830932
0.51888669 3.0954108 1.6661938
0.50522357 3.1046445 1.6752276
0.49880865 3.0930185 1.6756105
0.5011763 3.1008697 1.6835097
0.50374109 3.0972514 1.6651199
0.49364129 3.1087217 1.6702778
0.49184194 3.0946105 1.6667755
0.47714242 3.0990357 1.6758887
0.48122731 3.1066122 1.684566
0.46786523 3.105407 1.6664678
0.46191427 3.1005824 1.6759965
0.45906308 3.1063979 1.6740578
0.46524483 3.1101024 1.679798
0.45180863 3.1004794 1.6727002
0.44627073 3.0977273 1.681301
0.44234204 3.1091821 1.6806951
0.44357055 3.1031456 1.6653067
0.44129577 3.1067181 1.6736784
0.4281334 3.0986853 1.6689677
0.42364752 3.1016011 1.6823987
0.42106259 3.1028774 1.6703582
0.42800552 3.1056147 1.6834922
0.41300905 3.1188471 1.6796956
0.42375186 3.1029577 1.6656474
0.40739608 3.1058452 1.668224
0.39964041 3.1091201 1.6816387
0.41127801 3.1179402 1.668406
0.40752643 3.108803 1.6781411
0.39214587 3.1108222 1.6792448
0.39205384 3.1126745 1.6826714
0.3853921 3.116262 1.6667877
0.38668907 3.1111133 1.6730609
0.38111928 3.1152899 1.6719919
0.37175226 3.114532 1.6744649
0.36833626 3.1217415 1.679263
0.36749616 3.1255195 1.6667795
0.36007008 3.1252599 1.6825657
0.35941064 3.1255741 1.6686705
0.34848574 3.1148343 1.6762559
0.33866376 3.1283298 1.6651616
0.33226782 3.1194911 1.6771287
0.3299875 3.1162782 1.6834269
0.33397967 3.1118245 1.6733878
0.3556253 3.3053098 1.603537
0.34076476 3.2967598 1.5989393
0.33070168 3.3117011 1.5976236
0.32815447 3.3035479 1.5955583
0.33909369 3.4821451 1.5147783
0.3381806 3.4910975 1.5213261
0.34485233 3.4945614 1.5208975
0.3404291 3.4959636 1.5111648
0.34465036 3.6825933 1.4392139
0.33823538 3.6744006 1.4409015
0.34178054 3.6734657 1.4326513
0.34993061 3.8655038 1.3568385
0.33731574 3.8488517 1.3540512
0.32338449 3.8542447 1.3626565
0.34253046 4.0407763 1.2877879
0.34404215 4.0479584 1.2799512
0.33210105 4.0466623 1.2751192
0.31973076 4.0457935 1.2912366
0.3176271 4.0373187 1.2903647
0.32211751 4.0475364 1.2808378
0.30829498 4.0464077 1.289921
0.30622163 4.0426269 1.2873529
0.3068803 4.0515962 1.2876699
0.28475127 4.0520005 1.2729249
0.29122686 4.0417738 1.280957
0.2813789 4.038682 1.2757101
0.28369373 4.049273 1.2887138
0.26117596 4.0531178 1.280403
0.25477511 4.040484 1.28318
0.26750183 4.0579658 1.2757449
0.25070113 4.0472517 1.286759
0.24298325 4.0400906 1.2735782
0.23269683 4.0592155 1.2889606
0.24272694 4.0418396 1.284349
0.23801154 4.0565677 1.2891202
0.22132781 4.0470762 1.2904173
0.21939683 4.0455294 1.2819304
0.2104691 4.0470948 1.2769216
0.21323022 4.0478897 1.2789201
0.19876787 4.0470424 1.2780495
0.19687006 4.0550261 1.2861214
0.18598598 4.0609236 1.2866971
0.18192072 4.0621672 1.2860705
0.17323761 4.0590734 1.287748
0.17994244 4.0568981 1.2838418
0.17141829 4.0436726 1.2901406
0.16419084 4.0541501 1.2745966
0.14847626 4.0613346 1.2803298
0.14775258 4.0569148 1.2865779
0.14902705 4.0636683 1.2917064
