# .PCD v0.7 - Point Cloud Data file format
VERSION 0.7
FIELDS x y z
SIZE 4 4 4
TYPE F F F
COUNT 1 1 1
WIDTH 1569
HEIGHT 1
VIEWPOINT 0 0 0 1 0 0 0
POINTS 1569
DATA ascii
-4.5413303 1.4973527 0.97022349
-4.5298595 1.4969119 0.9716751
-4.5300088 1.5024945 0.96459132
-4.5353465 1.4874704 0.97482109
-4.5338287 1.4777962 0.96117771
-4.5462804 1.4799414 0.95857781
-4.5404301 1.4675246 0.97217536
-4.5486603 1.4652258 0.97225672
-4.5510073 1.4656729 0.96358532
-4.7257309 1.5110604 0.88690317
-4.7311459 1.5049095 0.88705683
-4.7208133 1.4923129 0.8931123
-4.7290201 1.4816407 0.89109617
-4.7243018 1.4876965 0.88040459
-4.7293439 1.4773265 0.88639033
-4.7280207 1.4565526 0.88087559
-4.7492876 1.463668 0.8893013
-4.736948 1.4445829 0.88178825
-4.7445173 1.4451721 0.88108516
-4.7407494 1.4484441 0.89675021
-4.7551084 1.4283814 0.89287794
-4.7493048 1.4207225 0.88302535
-4.7574363 1.4269187 0.88911986
-4.7475748 1.4198866 0.88789237
-4.7483954 1.4098555 0.88291985
-4.7632208 1.4031824 0.88380122
-4.7635522 1.3972673 0.89842874
-4.7554479 1.3857077 0.88060462
-4.754848 1.3885851 0.89000595
-4.7749414 1.3772279 0.88931841
-4.9363031 1.423719 0.81666476
-4.9446549 1.4075263 0.80154228
-4.9428501 1.4051715 0.81926346
-4.9549413 1.3946387 0.81660265
-4.9482498 1.385236 0.81056368
-4.9465213 1.3829494 0.80450732
-4.963902 1.382264 0.81919414
-4.9666452 1.3716058 0.80898237
-4.9672027 1.3634616 0.80831176
-4.9583497 1.3571283 0.80295038
-4.9701738 1.3482709 0.82052988
-4.9560971 1.3330173 0.80883545
-4.9771328 1.3415148 0.80170774
-4.9604378 1.3198581 0.81097144
-4.9663939 1.3268195 0.81775939
-4.9783792 1.3174267 0.80919039
-4.9764109 1.3125608 0.80686837
-4.9797463 1.3068497 0.80082303
-4.9732838 1.282469 0.81357104
-5.1656942 1.3343283 0.7283805
-5.165308 1.330475 0.73982096
-5.1673317 1.3225576 0.72295332
-5.1610398 1.3154539 0.74153125
-5.1618652 1.306885 0.72540307
-5.1734171 1.2941902 0.72318953
-5.1781712 1.2913305 0.7385388
-5.171484 1.2722493 0.73598063
-5.1671085 1.2716337 0.73467207
-5.1687689 1.2592721 0.73594618
-5.1776705 1.2544935 0.73053724
-5.1732073 1.2519368 0.72849208
-5.1772933 1.2491815 0.72574937
-5.178237 1.2345331 0.72312522
-5.180593 1.2208639 0.73915702
-5.1790667 1.2174377 0.72972131
-5.1797438 1.2110425 0.72465563
-5.3643036 1.254375 0.64919567
-5.3722267 1.2423313 0.6589005
-5.3614483 1.2303821 0.66348088
-5.3693848 1.2312754 0.65052235
-5.38272 1.2183664 0.66224933
-5.3780899 1.2030953 0.6584655
-5.3761916 1.2085947 0.64728022
-5.3769073 1.1934422 0.64967513
-5.3815808 1.18151 0.65589559
-5.3756795 1.1705843 0.66297483
-5.3748331 1.1760147 0.65937722
-5.3908911 1.1752427 0.651245
-5.397233 1.1669599 0.65867501
-5.3789845 1.1524404 0.65451229
-5.3936839 1.1462754 0.64495671
-5.396646 1.1264197 0.64764863
-5.5835004 1.1673821 0.5848152
-5.5814624 1.1517838 0.57289815
-5.5770183 1.1531597 0.57657439
-5.5863433 1.1420741 0.57685286
-5.5885777 1.1334614 0.57009166
-5.574399 1.1304069 0.57009095
-5.5883412 1.1226156 0.56934208
-5.5748429 1.1146679 0.58161068
-5.5854964 1.0936053 0.57525331
-5.5856948 1.0911547 0.57658148
-5.58319 1.0835325 0.56916404
-5.5849624 1.0795531 0.57394552
-5.5986409 1.0616117 0.56790239
-5.5886321 1.0559287 0.57857525
-5.5983338 1.0495833 0.56843913
-5.7756457 1.0724493 0.50450915
-5.7721343 1.0691993 0.49914157
-5.7893605 1.0609871 0.49363673
-5.7743068 1.06365 0.49488178
-5.7855988 1.0476326 0.50149101
-5.7755518 1.0356265 0.48829466
-5.7929106 1.023344 0.4989379
-5.7854767 1.0188681 0.49946067
-5.7840748 1.0258749 0.50212342
-5.7919888 1.004643 0.50626588
-5.7900276 1.0084112 0.48763016
-5.7934394 0.99717879 0.49382606
-5.8022075 0.99019694 0.49989358
-5.7964687 0.97973424 0.49670982
-5.9709535 0.98936331 0.42705095
-5.9773803 0.980299 0.41202137
-5.9769912 0.97530717 0.41280124
-5.9859471 0.97916931 0.41719905
-5.9743686 0.96584237 0.41669956
-5.9801159 0.94599915 0.42306599
-5.981709 0.94950366 0.42130041
-5.981926 0.93097132 0.41640413
-5.9959354 0.92503464 0.41262963
-5.9838657 0.92618871 0.42649797
-5.9949679 0.91567868 0.40817279
-5.9971719 0.90011376 0.40914598
-5.9943938 0.90629762 0.41349196
-6.1728168 0.91150469 0.33152109
-6.1848745 0.90274131 0.34313715
-6.1774201 0.88955545 0.3432802
-6.1835866 0.89608967 0.33529982
-6.1915069 0.88370818 0.33716103
-6.1843114 0.87860692 0.34146121
-6.1808782 0.86685342 0.33529302
-6.1835647 0.8452639 0.34699407
-6.1845641 0.8427251 0.33151126
-6.1845784 0.84420741 0.33059508
-6.1802344 0.83049071 0.33663931
-6.3816843 0.84980589 0.26401502
-6.3691587 0.83373266 0.26539248
-6.3764777 0.83272523 0.26194799
-6.3717647 0.82501793 0.25476757
-6.3851776 0.80571455 0.25113308
-6.3742781 0.79104066 0.26439407
-6.3895345 0.79486454 0.26471618
-6.3730774 0.77886111 0.25115174
-6.3920903 0.76400352 0.26772347
-6.3920074 0.75463772 0.25923398
-6.3858676 0.74733847 0.25488371
-6.576519 0.77475101 0.18482804
-6.5630846 0.75470477 0.18122537
-6.573082 0.74050373 0.17883195
-6.5702472 0.73400921 0.18605328
-6.571034 0.73952132 0.18752037
-6.5785465 0.73087192 0.18173255
-6.5657244 0.71976209 0.18886401
-6.5664539 0.71070898 0.19006209
-6.5705991 0.70279646 0.19082014
-6.5832205 0.68206877 0.17320609
-6.5801797 0.67444718 0.19090395
-6.7637339 0.6771751 0.10101782
-6.7581854 0.65867913 0.10553391
-6.7654028 0.66040742 0.10475164
-6.7711396 0.65562087 0.10451091
-6.762651 0.64464164 0.10235268
-6.7670178 0.63390523 0.10033503
-6.7725573 0.61438686 0.1073335
4.8526855 2.684598 0.70352793
4.8641176 2.6793048 0.68483686
4.8458543 2.691112 0.69767684
4.8483486 2.6958995 0.69666702
4.8394318 2.706996 0.69116896
4.8428144 2.7178144 0.69469547
4.8410034 2.7268615 0.70203191
4.8280668 2.7191355 0.69592357
4.8327279 2.7269673 0.70147008
4.8201847 2.7296569 0.69877386
4.8167162 2.7386649 0.69693565
4.8123975 2.7428274 0.70303464
4.8093786 2.7524583 0.69417655
4.81919 2.7683246 0.70334661
4.8079824 2.7790253 0.69685924
4.8112674 2.7768681 0.69444156
4.79807 2.7766697 0.69432759
4.7921991 2.7873137 0.69974947
4.800211 2.8064065 0.68627018
4.6344938 2.7036154 0.76595217
4.6254673 2.7140789 0.77072054
4.614594 2.7240403 0.77293456
4.6098099 2.7348087 0.77806789
4.6161594 2.7392237 0.77236146
4.6116695 2.7362759 0.77065474
4.6006837 2.7404673 0.7800954
4.6072707 2.7553239 0.76264769
4.5937352 2.7681825 0.76915908
4.5856128 2.7729347 0.76808405
4.5840015 2.7751269 0.77068275
4.5848646 2.772063 0.77729881
4.590487 2.7819047 0.76743537
4.5783148 2.7907507 0.76190472
4.5712667 2.8097434 0.77435899
4.5785031 2.8080525 0.77744061
4.5640244 2.819191 0.77829385
4.5589771 2.8207407 0.76758957
4.5564733 2.832588 0.76333511
4.560472 2.8401544 0.77742922
4.3867841 2.7324121 0.84451663
4.3924251 2.7467229 0.84494811
4.3846736 2.750525 0.8488338
4.3870502 2.7660327 0.85518378
4.3838873 2.758379 0.85414994
4.3731709 2.7818575 0.84505421
4.3655272 2.7747614 0.84073114
4.3587279 2.7865317 0.85159773
4.3612161 2.7997205 0.84795684
4.3594413 2.8008389 0.84553331
4.3517523 2.8088121 0.8465727
4.3539429 2.8062389 0.85580325
4.3565569 2.8197353 0.84272182
4.3430476 2.8194375 0.83903897
4.3358803 2.8198154 0.84159887
4.3276701 2.8333228 0.84153914
4.3303561 2.8430414 0.84829068
4.328711 2.8498244 0.840725
4.3179235 2.842968 0.84026605
4.3234868 2.858217 0.85484898
4.3266182 2.8696659 0.85133404
4.3107805 2.867203 0.83918017
4.3041654 2.8712595 0.85446233
4.1510701 2.7831943 0.92059118
4.1478167 2.7741973 0.92384934
4.1471157 2.7809217 0.93457103
4.1463466 2.7942717 0.92897314
4.1323209 2.8099246 0.92412555
4.1307216 2.7987468 0.9263941
4.1286554 2.8170974 0.91789001
4.1211638 2.8225527 0.93481874
4.1301494 2.8161523 0.9232738
4.1069732 2.8271265 0.92978042
4.119071 2.8423941 0.92474931
4.100091 2.8382721 0.92494124
4.1043606 2.8373206 0.92608321
4.0993443 2.8594797 0.93480635
4.0887218 2.8515007 0.93341881
4.0932436 2.8658183 0.93509531
4.0800261 2.8619733 0.92936969
4.0782967 2.8745489 0.92335218
4.0734882 2.8800299 0.92519253
4.0771265 2.8862624 0.93227094
4.0672641 2.8885286 0.92888623
4.0723619 2.8957582 0.91565436
4.0576444 2.9112093 0.91575122
4.0640607 2.9056036 0.93229288
3.909323 2.8057349 1.0123463
3.9032094 2.821763 1.0038149
3.8987648 2.8285577 1.0057412
3.888587 2.8176146 0.99455112
3.8923841 2.8258626 1.0031556
3.8780138 2.8417568 1.0123117
3.8907146 2.8318036 0.99805903
3.880023 2.8509722 1.0053663
3.8760922 2.8594542 1.002461
3.8722506 2.8583915 1.0082917
3.864943 2.8565078 0.99620944
3.8604822 2.8724148 0.9947176
3.8674827 2.8677895 0.99458802
3.8564017 2.8769062 0.9980886
3.8541231 2.8737473 1.0044158
3.8404417 2.8801532 1.0012212
3.8359089 2.9032021 1.0026631
3.8371158 2.8995094 0.99786878
3.8256228 2.8958435 0.99615705
3.8312168 2.9123008 1.007989
3.822634 2.9254231 1.0125489
3.8219616 2.9180648 1.0076333
3.8197901 2.9216943 1.0127153
3.8174815 2.9382381 1.0015426
3.818666 2.9365058 1.0018448
3.8061702 2.945102 1.0031925
3.8104725 2.9531829 1.0022347
3.7962093 2.9464958 1.012235
3.6515956 2.8389642 1.0704253
3.65097 2.8542471 1.0825357
3.6421692 2.8449948 1.0824364
3.6379216 2.8591249 1.0896522
3.628751 2.8551459 1.0751767
3.6246555 2.8729279 1.0719298
3.62938 2.8759716 1.0816412
3.6143997 2.870604 1.0746452
3.6207602 2.8936307 1.0704319
3.6061559 2.8864937 1.0742394
3.6015449 2.9043984 1.0786122
3.5979178 2.9056332 1.0731903
3.6063943 2.90203 1.0734439
3.5947642 2.9181488 1.082761
3.5903432 2.9090738 1.0830381
3.5914397 2.9198873 1.0760417
3.5892823 2.9194162 1.087039
3.5768292 2.927963 1.0876244
3.5773733 2.9268751 1.0861979
3.5736971 2.935195 1.0726011
3.5738213 2.9429228 1.0718815
3.5583115 2.9510498 1.0873748
3.5573728 2.9516861 1.0742487
3.5566809 2.9647324 1.0722307
3.5452991 2.9574049 1.0761329
3.5541875 2.9752278 1.0858492
3.5360725 2.9749541 1.0701007
3.548948 2.9862955 1.077911
3.542402 2.9822555 1.0796514
3.5344226 2.9986212 1.084735
3.5328398 2.9992001 1.0725758
3.3900239 2.8887897 1.1607773
3.383368 2.8809221 1.1474568
3.3835795 2.8964725 1.1622289
3.3617663 2.8847578 1.1647255
3.3638487 2.906055 1.160103
3.3556409 2.8933675 1.1502703
3.3516781 2.9176931 1.1668484
3.3555193 2.9196167 1.1544617
3.3410943 2.917712 1.153522
3.3517463 2.9183819 1.1482478
3.3502324 2.9209075 1.1472311
3.3397145 2.9407816 1.1536415
3.3358696 2.9448781 1.1509022
3.3267903 2.931179 1.151754
3.3202014 2.9435866 1.1492143
3.3289831 2.951817 1.1493043
3.3079259 2.9601221 1.1490424
3.3034403 2.9563117 1.1660323
3.3065617 2.9621265 1.1564515
3.3087368 2.9626501 1.1628804
3.3056314 2.965723 1.1671801
3.3015027 2.982348 1.1667047
3.283778 2.9792042 1.1656826
3.2833078 2.9910636 1.1663238
3.2836828 3.0004232 1.1547407
3.2815118 3.00266 1.1667618
3.2794244 3.0079417 1.1624674
3.2770689 3.0128462 1.149748
3.2716968 3.004987 1.1582344
3.2567375 3.0234244 1.162641
3.2682009 3.0228839 1.1655234
3.2639575 3.0223489 1.160439
3.2592325 3.0282297 1.1476247
3.253479 3.0377872 1.1620899
3.2483604 3.031873 1.1613404
3.2316523 3.0479476 1.1582593
3.092638 2.9196172 1.2330964
3.1038208 2.9193995 1.231082
3.0822783 2.917989 1.2366574
3.089216 2.9258046 1.2361249
3.0805545 2.929275 1.2305126
3.0747695 2.9327002 1.2398319
3.083894 2.9356046 1.2305046
3.0801983 2.9569662 1.2262131
3.0709617 2.9574258 1.2314917
3.0609696 2.9654009 1.2283348
3.0678906 2.9529121 1.2388272
3.0524433 2.9756653 1.2247914
3.054976 2.9609411 1.2250402
3.0430779 2.9772255 1.2288051
3.0506415 2.9889257 1.231747
3.0325868 2.9789238 1.2338263
3.0238457 2.9821353 1.2345277
3.0257714 2.9857459 1.2323142
3.0233996 3.0042212 1.2262899
3.0263007 2.9968112 1.2439755
3.0260389 3.0004346 1.2249132
3.0162635 3.0127299 1.2443507
3.0124466 3.0116823 1.2248161
3.0088727 3.0228672 1.2373241
3.0090578 3.0257523 1.2372961
2.9921789 3.034725 1.2430358
2.9973736 3.0391049 1.2277623
2.9832637 3.0295649 1.231881
2.9869347 3.0418131 1.2302618
2.9845755 3.0411282 1.2370255
2.9798961 3.0443532 1.2432114
2.9761486 3.0419807 1.2374972
2.971833 3.0599749 1.2265457
2.9679768 3.0585842 1.2425953
2.9566231 3.061574 1.2373521
2.9452355 3.0718858 1.2369096
2.9395819 3.071599 1.236681
2.9386492 3.0814152 1.2427521
2.9418292 3.0791204 1.2369169
2.9433844 3.0786908 1.2262483
2.9316976 3.0778117 1.2346623
2.9261911 3.0974209 1.2365671
2.7882874 2.9628174 1.3095345
2.7862911 2.9625669 1.3197874
2.780339 2.9752157 1.308911
2.7891383 2.980736 1.3042337
2.7774897 2.9848676 1.3151625
2.7856071 2.9723368 1.3118066
2.7797902 2.987262 1.3020611
2.7681327 2.9880247 1.3077968
2.7658012 3.0013881 1.3085705
2.7518785 2.9935381 1.3048764
2.759855 2.9987605 1.3166463
2.7435946 3.006104 1.3042774
2.7375817 3.0116179 1.3206749
2.7406869 3.0100591 1.3187159
2.7391095 3.0209854 1.3170174
2.7284558 3.0241678 1.318923
2.7344408 3.0256774 1.3118945
2.730675 3.0196793 1.3017751
2.7126396 3.0355046 1.3211712
2.7153726 3.0415673 1.3088753
2.7144063 3.0397725 1.3179659
2.7052045 3.0458882 1.3105694
2.7036285 3.0501673 1.3048625
2.6984448 3.0417333 1.3137783
2.6912968 3.0559089 1.3098074
2.6824453 3.0636232 1.305212
2.6954939 3.0615199 1.3183253
2.681509 3.0598538 1.3016452
2.6773994 3.0643604 1.317001
2.6726806 3.0758135 1.3146362
2.6756608 3.0705192 1.3066992
2.6677263 3.0802472 1.3211062
2.6523902 3.0726283 1.3160266
2.6513422 3.0840602 1.3187531
2.6592045 3.0925841 1.3119015
2.643091 3.0965014 1.3090161
2.6423769 3.0977173 1.3202854
2.6347709 3.1092038 1.3061527
2.6304796 3.1008413 1.3127964
2.6415391 3.1120257 1.3071692
2.6302285 3.1104615 1.3125293
2.630976 3.1252391 1.3039052
2.6261253 3.1289618 1.303956
2.61619 3.1159229 1.3117387
2.6089761 3.1350381 1.3043509
2.6149056 3.1223366 1.3171921
2.5979445 3.1332231 1.3075671
2.5922477 3.1408103 1.3057525
2.5924132 3.1484187 1.3119051
2.5792174 3.1514039 1.3055782
2.4633772 3.0047529 1.3912281
2.4701037 3.0056617 1.3908042
2.4682012 3.006053 1.390457
2.4463446 3.0208468 1.3934311
2.452266 3.0127697 1.3918866
2.4507947 3.0149701 1.3940127
2.4421599 3.0245626 1.3834034
2.4438956 3.0328166 1.3967659
2.4238117 3.0255995 1.3941272
2.4298759 3.0295546 1.3908703
2.4296083 3.0390549 1.3800132
2.4177868 3.0394607 1.3866371
2.4255366 3.0421476 1.3902302
2.4129345 3.0471666 1.3852006
2.403302 3.0623004 1.3886837
2.4121201 3.0601609 1.3909627
2.4030597 3.0535896 1.3794355
2.4033854 3.0729613 1.3927696
2.397069 3.0564616 1.3954995
2.3881092 3.0702431 1.3988036
2.3758879 3.0679786 1.3882329
2.3728049 3.078119 1.3946989
2.3763411 3.0802405 1.3804885
2.3634658 3.0739954 1.3879398
2.3655562 3.0823584 1.3871733
2.3711255 3.0837846 1.3809218
2.3589687 3.1004002 1.3847595
2.3552804 3.1015961 1.3846354
2.3449216 3.1007345 1.384684
2.3372881 3.0951772 1.3951923
2.3329542 3.1016665 1.3801204
2.3380451 3.1093459 1.3918791
2.3295975 3.1048393 1.3824555
2.3269348 3.1117394 1.383489
2.3317189 3.1250169 1.3895936
2.3157322 3.1281548 1.3938386
2.3134894 3.1234319 1.3914195
2.3150799 3.1193213 1.3869224
2.2965417 3.1291571 1.398296
2.2980478 3.1356688 1.3808503
2.2900574 3.1421609 1.3866384
2.2869906 3.1380627 1.3968563
2.2956784 3.1498399 1.3793237
2.2749379 3.1432824 1.3854537
2.2752266 3.1458411 1.3816296
2.2816155 3.1567497 1.3977177
2.2722449 3.1497571 1.3858638
2.2604508 3.1687005 1.3866858
2.2641551 3.153456 1.3941363
2.2592287 3.164072 1.3848974
2.2568524 3.171057 1.3789555
2.2402596 3.1793389 1.3857263
2.2338805 3.1806765 1.3810915
2.2299645 3.1856461 1.3867223
2.2321739 3.1752813 1.3917412
2.2305551 3.1756866 1.3845043
2.2250199 3.191107 1.3871162
2.2276266 3.1991234 1.3855191
2.211051 3.1952388 1.3855315
2.2219214 3.1908267 1.39302
2.2035489 3.2084415 1.3843596
2.19923 3.1938713 1.3808534
2.2016778 3.1973338 1.3955634
2.0954583 3.0489206 1.4693267
2.0791061 3.0593686 1.4724169
2.087769 3.0726228 1.4728093
2.069191 3.0647717 1.4655254
2.0732207 3.063961 1.4631673
2.0756493 3.071013 1.4738402
2.0580864 3.0733781 1.4570229
2.0680082 3.0818174 1.4747484
2.0492651 3.090389 1.4748379
2.0470123 3.0858636 1.4753304
2.0394652 3.0836065 1.4567324
2.0484784 3.0892484 1.4656804
2.0405777 3.0878081 1.4649866
2.0330656 3.0920491 1.4735515
2.0382655 3.1045828 1.4584217
2.0211034 3.1038125 1.4674658
2.0146105 3.1097503 1.4760028
2.0112963 3.109885 1.4701129
2.0057034 3.115556 1.4699345
2.0001962 3.1032572 1.4623762
1.9951777 3.1076984 1.4697127
1.9915572 3.1254439 1.459849
1.9968809 3.1195838 1.4657087
2.0015068 3.1305106 1.4729791
1.994694 3.1309402 1.4699589
1.9927473 3.1185148 1.4633503
1.979841 3.1239071 1.4598674
1.9754678 3.1302998 1.4737129
1.9652009 3.1354182 1.4704294
1.9747516 3.1393521 1.4720529
2.0542967 3.2991924 1.3981307
2.0633996 3.3032801 1.396371
2.0426345 3.2970252 1.3859755
2.0477252 3.2997341 1.3837367
2.0400825 3.2999718 1.379164
2.0294154 3.3226082 1.3794079
2.032136 3.3166876 1.3822925
2.0313694 3.3107467 1.3888242
2.0244446 3.3188961 1.397735
2.0142324 3.3209567 1.3878465
2.0056398 3.329371 1.3984723
2.0003202 3.331475 1.3903288
2.013237 3.3374052 1.3930795
1.9957544 3.3330212 1.395695
1.9960293 3.3455932 1.39571
2.0859828 3.4907084 1.3183306
2.0816996 3.5046751 1.3094049
2.0802968 3.502486 1.3117195
2.0654218 3.5179865 1.3193713
2.0594535 3.5078933 1.3062783
2.0635927 3.5138297 1.3188001
2.0583537 3.5190725 1.3106332
2.0449672 3.5218625 1.3056102
2.0543275 3.5318036 1.313423
2.0462992 3.5266576 1.3110348
2.0382822 3.5218513 1.3123876
2.0300808 3.5376287 1.3048155
2.0329497 3.5368745 1.3121693
2.0181296 3.5461206 1.3121454
2.0109572 3.5342774 1.3191568
2.0106878 3.5514565 1.30924
2.0029366 3.5482838 1.3017083
2.0070143 3.5566156 1.3141156
1.9860653 3.5592029 1.3136202
1.9929252 3.558661 1.3051414
1.9773929 3.5550048 1.309026
1.9832097 3.5680544 1.3058646
1.9814506 3.5688837 1.3191323
1.9670413 3.5598075 1.3188362
1.9726043 3.5684779 1.3038942
1.9651749 3.5618012 1.3033352
1.947825 3.5723 1.3168143
1.9429395 3.5718067 1.3158432
1.9504576 3.5752985 1.3146839
1.9374765 3.5705886 1.3102143
1.9360129 3.5752883 1.319327
1.93843 3.5907507 1.3187345
1.9176819 3.5894034 1.3162237
1.930198 3.5986004 1.301896
1.9224142 3.5983176 1.3135046
1.9196845 3.5955667 1.3157098
1.8963923 3.6004307 1.3056937
1.9065754 3.6053777 1.3124714
1.8957838 3.6028156 1.3200349
1.8838292 3.6122484 1.3201892
1.8874013 3.6051977 1.3023512
1.8800825 3.6055477 1.3172902
1.8721676 3.6101372 1.3082038
1.8617382 3.6122339 1.305643
1.8569773 3.6115417 1.3201352
1.8638216 3.6131186 1.3092192
1.8528676 3.6164055 1.3205169
1.8518937 3.6348817 1.3141184
1.8376939 3.6275761 1.3025213
1.8310541 3.6333292 1.3177279
1.8445652 3.6276712 1.3032613
1.8202344 3.6397152 1.3065295
1.8308393 3.6488686 1.311779
1.8123541 3.6526206 1.316524
1.8113047 3.6366434 1.3179828
1.804744 3.6525457 1.3184313
1.8072637 3.6425326 1.3195865
1.8010777 3.6565881 1.316645
1.7884896 3.6614897 1.3038317
1.7843009 3.6648011 1.3142126
1.7753154 3.6666765 1.3163837
1.7718598 3.6692781 1.308054
1.771669 3.6675448 1.30634
1.7767243 3.67239 1.3058472
1.7665212 3.661253 1.3068537
1.7577733 3.6686258 1.3212459
1.7494705 3.683593 1.3031156
1.7423197 3.6774518 1.3165386
1.7522238 3.6838038 1.312368
1.7293115 3.691052 1.3090208
1.7367764 3.6944027 1.305068
1.7264091 3.6793895 1.3212429
1.7277088 3.6892805 1.3132178
1.7272911 3.6893253 1.3075781
1.7063774 3.7042692 1.3083489
1.7064668 3.6955705 1.3140475
1.700945 3.7036777 1.3122748
1.6972898 3.7097461 1.30193
1.6870542 3.7108345 1.3155131
1.6926447 3.7141292 1.3139277
1.6748847 3.7100112 1.3132834
1.6731687 3.7206516 1.3152235
1.6676244 3.7177207 1.3046592
1.6740516 3.7195046 1.311752
1.6548361 3.7255104 1.3114076
1.656388 3.7167444 1.3199906
1.6436353 3.7275989 1.3143144
1.6491069 3.719944 1.3123473
1.6442302 3.7272019 1.3091164
1.6329337 3.7252028 1.3068352
1.6200485 3.7305989 1.3180984
1.626516 3.7394378 1.3176715
1.6149203 3.7278943 1.3119904
1.6127572 3.7479432 1.305777
1.6176838 3.7339447 1.3032604
1.6022627 3.7466698 1.3096762
1.5954217 3.751817 1.3046522
1.6029013 3.7476134 1.3096858
1.5884107 3.7437146 1.3196979
1.5906862 3.7537036 1.3054379
1.5706774 3.755995 1.3143088
1.5819287 3.7499442 1.3097602
1.5727502 3.7574916 1.3114171
1.5578876 3.7680728 1.3108792
1.5568084 3.7687807 1.3141066
1.5532097 3.7592709 1.3078299
1.5560236 3.768126 1.3044784
1.5338106 3.7696702 1.3147089
1.5366284 3.7619362 1.3188335
1.5294551 3.7816932 1.3107469
1.528019 3.76666 1.3027591
1.5154506 3.7680998 1.3065351
1.5183308 3.7855856 1.3156804
1.5028651 3.7734365 1.3132362
1.5068585 3.785439 1.3093364
1.4940763 3.7790763 1.3137705
1.4950144 3.7807646 1.3049111
1.4925982 3.7854793 1.3154544
1.4804097 3.7982547 1.3161293
1.472343 3.7891023 1.3144345
1.4761868 3.8037624 1.315587
1.4720397 3.791106 1.316067
1.471666 3.8065841 1.311928
1.4604347 3.8118539 1.3135425
1.4467564 3.8063774 1.3050693
1.4491754 3.8133821 1.3081506
1.4360259 3.806591 1.3108449
1.4340141 3.8026528 1.3161858
1.4225427 3.8117983 1.3122414
1.4317436 3.8181515 1.3170915
1.4192469 3.8136263 1.3145558
1.4079 3.8102345 1.3173248
1.4170302 3.8117526 1.3135408
1.4020189 3.8273253 1.3130028
1.3886193 3.8145087 1.3049722
1.3867438 3.8294032 1.3019371
1.3879468 3.8364425 1.3101094
1.3918415 3.8267674 1.3123494
1.3810744 3.8309212 1.301748
1.3663604 3.8295789 1.3155206
1.3564937 3.8410454 1.302796
1.3640885 3.8464735 1.3047153
1.3544499 3.846343 1.3061954
1.3410245 3.8365152 1.3212985
1.3470587 3.8386042 1.3016429
1.3450595 3.844137 1.3149469
1.3400227 3.8561947 1.3133628
1.3231555 3.8574722 1.3201839
1.3285259 3.8533096 1.3092461
1.3232923 3.8597631 1.315061
1.3118286 3.8616827 1.3104448
1.3076379 3.8565321 1.3093668
1.305364 3.8670809 1.3062756
1.3045675 3.869545 1.3114812
1.2988718 3.8633864 1.3169082
1.2935178 3.8605742 1.3060079
1.2814654 3.8580737 1.3053125
1.2678264 3.8640571 1.3040493
1.2610061 3.860764 1.3167857
1.2632455 3.8775935 1.3141454
1.2512974 3.8683181 1.3116016
1.2547307 3.880213 1.3020921
1.2570834 3.8751976 1.3213236
1.2363425 3.874752 1.3212188
1.240805 3.8739791 1.3131627
1.230692 3.8732238 1.3205092
1.2296764 3.8857894 1.3035773
1.227963 3.8900924 1.3108582
1.2249839 3.8929534 1.3130835
1.214739 3.883435 1.3103832
1.2018514 3.887352 1.3166596
1.2064177 3.9000883 1.3130907
1.2014722 3.9005656 1.3027737
1.1957558 3.8856928 1.310286
1.1899325 3.9006755 1.315308
1.1760507 3.8909409 1.3178643
1.169513 3.9055886 1.3112839
1.1660411 3.903923 1.3073115
1.1698481 3.904681 1.304513
1.1558781 3.9005992 1.3105161
1.1592053 3.9090371 1.3187639
1.1488068 3.9074509 1.3180832
1.1348373 3.9063313 1.3162225
1.1305485 3.9049094 1.3178396
1.1337699 3.9030809 1.3127974
1.1220109 3.9127893 1.3163862
1.1128063 3.9213812 1.3129957
1.1170192 3.9119248 1.3063203
1.0972574 3.911701 1.3187914
1.0946949 3.922935 1.3055766
1.0981333 3.9229264 1.319203
1.0898175 3.9179516 1.3096544
1.0808188 3.9244418 1.3174047
1.0699574 3.9320803 1.3021595
1.080711 3.9283788 1.3035197
1.0664203 3.9383595 1.3130299
1.0557164 3.9245789 1.3095812
1.1092545 4.1187015 1.2379334
1.1082317 4.1203313 1.2417252
1.0996778 4.1048479 1.2352231
1.0979069 4.1182547 1.2271919
1.1363989 4.2873073 1.1554739
1.1184524 4.2943735 1.1659403
1.1082541 4.2960362 1.1625472
1.1486988 4.4726138 1.0767637
1.1443617 4.4817243 1.0766779
1.1495324 4.4855943 1.0813367
1.1312523 4.4808331 1.0804063
1.1834128 4.6597209 1.0023808
1.1742216 4.6568804 1.0045536
1.1585259 4.657989 0.99862319
1.1989385 4.8558154 0.92453641
1.2004383 4.8425889 0.93315661
1.192402 4.8451395 0.92188901
1.2243613 5.0275474 0.849756
1.2240927 5.0325828 0.84233516
-4.2147541 3.592643 0.69669521
-4.2180686 3.59255 0.69229168
-4.2140465 3.5919104 0.69139826
-4.2137165 3.5881469 0.700652
-4.2168746 3.5763261 0.70007312
-4.2383389 3.5716307 0.70165884
-4.2263155 3.5718257 0.69047976
-4.2322679 3.5590613 0.68673199
-4.241189 3.5493691 0.70229822
-4.2565246 3.554245 0.69114393
-4.2477703 3.5483992 0.69613838
-4.2600222 3.5242372 0.68692821
-4.256669 3.5290871 0.70297372
-4.2742014 3.5192487 0.70115817
-4.1396651 3.3944063 0.77063036
-4.1283426 3.3900836 0.76412427
-4.1354265 3.3827419 0.76373637
-4.1536813 3.3743963 0.77651411
-4.1556759 3.3820705 0.76553649
-4.162096 3.3593416 0.76537871
-4.1596622 3.370291 0.76532596
-4.172226 3.3539042 0.76706886
-4.1739912 3.3457782 0.77962619
-4.1797032 3.3450191 0.76831669
-4.187223 3.3408809 0.77496231
-4.1824613 3.3327847 0.76307082
-4.1841974 3.3223162 0.76962978
-4.1863132 3.3182962 0.77364182
-4.050581 3.2029715 0.8483327
-4.0507216 3.2001224 0.84890729
-4.0510116 3.1843863 0.84624964
-4.0713468 3.1807578 0.85303038
-4.069931 3.1800265 0.85751641
-4.0759497 3.1782382 0.84708142
-4.0732703 3.1735773 0.85835278
-4.0839372 3.1583169 0.84737885
-4.0864873 3.1659505 0.85179389
-4.0824709 3.1560907 0.85805303
-4.0944343 3.1415153 0.84886354
-4.1088977 3.1312461 0.84249902
-4.1027789 3.1251259 0.84607881
-4.0993094 3.1231015 0.85171664
-4.1090512 3.1269162 0.84231603
-4.1142993 3.109127 0.85682613
-3.9824016 3.007688 0.92957968
-3.9866426 2.9909244 0.93558484
-3.9818497 2.996002 0.93494123
-3.9926338 2.9894798 0.93016142
-3.9971511 2.9753697 0.91653568
-3.9908502 2.9711635 0.91837668
-3.9909058 2.9574358 0.91983932
-4.0073738 2.951529 0.92502564
-3.9981964 2.9602237 0.91978067
-4.0184116 2.9480062 0.92250687
-4.0241089 2.9444416 0.92029703
-4.0142441 2.9408007 0.92688972
-4.0183659 2.92611 0.92413187
-4.0231237 2.9247847 0.92042953
-4.0326538 2.9230835 0.9282006
-4.0358014 2.9118171 0.91735476
-4.0370998 2.9046211 0.91837639
-3.8867691 2.7978721 0.99629122
-3.9012535 2.7918239 1.0113083
-3.9009752 2.7896633 0.99972016
-3.8979633 2.7859006 1.0101852
-3.9171534 2.7760899 1.0026333
-3.9097431 2.7662365 1.0060204
-3.9250832 2.7556968 0.99371707
-3.9241178 2.7596908 1.0053536
-3.9153738 2.7445929 1.0113703
-3.9374681 2.7522445 0.99584323
-3.9385328 2.7441075 1.0064282
-3.9388745 2.7453687 0.99641889
-3.9441912 2.7307832 1.0097082
-3.9410882 2.7230771 1.0046993
-3.9475126 2.7200403 0.99534982
-3.9614811 2.708266 1.0016222
-3.952055 2.7049959 1.0028356
-3.9549243 2.7065279 0.9935292
-3.9661493 2.7006333 0.99461651
-3.9713502 2.6964657 1.008852
-3.8189764 2.5920782 1.0776521
-3.8289599 2.5743382 1.0760217
-3.8289454 2.5750799 1.0853186
-3.835634 2.5627155 1.0724274
-3.8273242 2.5677102 1.0820229
-3.8283563 2.5625117 1.0853727
-3.8431084 2.5505073 1.0709865
-3.8366396 2.5393937 1.0836716
-3.8394699 2.5408072 1.0760064
-3.8412051 2.5407648 1.0897235
-3.8486974 2.5237393 1.087577
-3.8645816 2.5203159 1.0730367
-3.8620882 2.5204852 1.0845896
-3.8702905 2.5175362 1.0891345
-3.8713765 2.5064604 1.0840352
-3.8628595 2.4979081 1.0791037
-3.870985 2.498152 1.0875392
-3.8734891 2.4884052 1.0702372
-3.8833008 2.4793615 1.0797299
-3.8807697 2.4721081 1.0745665
-3.8845143 2.4808805 1.0777686
-3.7343512 2.3788431 1.1601423
-3.7346299 2.3614564 1.1508868
-3.7433484 2.3593633 1.1640881
-3.7475145 2.3596725 1.1516243
-3.7567728 2.3519793 1.1560239
-3.7509553 2.3396339 1.1660875
-3.756695 2.3482499 1.1518296
-3.7597294 2.3305123 1.153958
-3.7532635 2.3387561 1.1542678
-3.7719538 2.3266985 1.1487896
-3.7674348 2.3121927 1.1651552
-3.7777338 2.3206983 1.1493654
-3.7772808 2.3037689 1.1567184
-3.7836192 2.3059487 1.149621
-3.782414 2.3021388 1.1600755
-3.7768018 2.2874076 1.1634344
-3.7811186 2.2901905 1.1606632
-3.799686 2.2731855 1.1654134
-3.7961175 2.2858856 1.1636707
-3.792232 2.2631271 1.155138
-3.793817 2.2681124 1.1573718
-3.7990291 2.2660158 1.153388
-3.8000236 2.2475817 1.1577561
-3.654531 2.1526363 1.2267891
-3.6551247 2.155689 1.2401031
-3.6652567 2.1475415 1.2439806
-3.6520228 2.1382577 1.2359403
-3.6615529 2.1335797 1.2361987
-3.6663256 2.1356356 1.2344652
-3.6728339 2.1247356 1.2352858
-3.6678677 2.115401 1.2264084
-3.6806605 2.1239982 1.2407556
-3.6774299 2.1147366 1.2419945
-3.6698241 2.1149695 1.2269936
-3.6903772 2.0975997 1.2401575
-3.6776092 2.0930817 1.2302903
-3.6809564 2.0847743 1.2362598
-3.6923366 2.0899062 1.2426758
-3.7034514 2.0732281 1.2362765
-3.6962922 2.0729966 1.2441101
-3.7083056 2.0606794 1.2277464
-3.7091889 2.0585103 1.2251207
-3.6957178 2.0625055 1.2383788
-3.7010007 2.0570331 1.2370192
-3.721277 2.0539267 1.2434434
-3.7083824 2.0465009 1.230507
-3.7253475 2.0386326 1.2344248
-3.716336 2.0422821 1.2286403
-3.7209013 2.0377073 1.2313472
-3.7318583 2.0231748 1.2389965
-3.5724418 1.9321935 1.3167055
-3.5717928 1.9307365 1.320228
-3.5737627 1.9256126 1.3129314
-3.5824673 1.9180603 1.3053521
-3.5725245 1.9130791 1.3198605
-3.5761507 1.9038327 1.3121406
-3.572706 1.900454 1.3017542
-3.5853364 1.8889124 1.3202229
-3.5837445 1.8956242 1.3193264
-3.5994389 1.8941898 1.3091111
-3.5874767 1.8724431 1.3204439
-3.5949976 1.87402 1.3153139
-3.5989892 1.8762951 1.3100581
-3.5902705 1.8725263 1.3022519
-3.6091237 1.8613542 1.3144701
-3.6134617 1.8492031 1.302451
-3.6055126 1.8431364 1.3120663
-3.6079426 1.8470721 1.3151567
-3.611897 1.8352257 1.3099791
-3.6167407 1.830304 1.3083911
-3.6117928 1.8399564 1.3100839
-3.615505 1.8246927 1.318385
-3.6243401 1.8280354 1.3139961
-3.6184237 1.8226877 1.310877
-3.6203067 1.8010707 1.301628
-3.6299644 1.7976924 1.3052735
-3.7972286 1.8861886 1.2307026
-3.8093891 1.8732307 1.2423196
-3.7984519 1.8788739 1.2271467
-3.812685 1.862222 1.2321123
-3.8084986 1.8530595 1.2317939
-3.8026118 1.8627191 1.2412789
-3.8084166 1.8460709 1.2391773
-3.8186028 1.8378592 1.2368025
-3.8119009 1.8302777 1.2378883
-3.8144403 1.8355446 1.2406772
-3.8333266 1.821641 1.2356917
-3.8295772 1.818182 1.2430679
-3.8342032 1.8082581 1.2414105
-3.8339949 1.8066916 1.2284281
-3.8288133 1.8118947 1.2316136
-3.8439429 1.80556 1.2297927
-3.8295796 1.7959888 1.2366613
-3.8373106 1.7987921 1.2406595
-3.8474088 1.7908508 1.2424209
-3.8564138 1.7829158 1.2347977
-3.8426223 1.7786329 1.2386229
-3.8538089 1.7606302 1.2443445
-3.8576117 1.7605249 1.2255012
-3.8630643 1.7631439 1.230454
-3.8614917 1.7534529 1.2259759
-3.8567262 1.7511334 1.2405328
-3.8737741 1.7456706 1.2308915
-3.8639457 1.7349628 1.2294298
-3.8701117 1.7366353 1.225407
-3.8745086 1.7317739 1.2388327
-3.8665211 1.7231674 1.2333623
-3.874701 1.7058305 1.2352797
-4.0462146 1.7810171 1.1652863
-4.0476041 1.779078 1.1605083
-4.0440326 1.7811446 1.1514398
-4.0449314 1.7704024 1.1654559
-4.0512657 1.7650307 1.1594166
-4.0672331 1.7518979 1.1480802
-4.0646544 1.7550024 1.1638305
-4.0660901 1.7361056 1.1601368
-4.0740924 1.7475842 1.1532575
-4.0675573 1.7332634 1.1544653
-4.0790968 1.7188648 1.1624093
-4.0834222 1.725545 1.154081
-4.0725183 1.7182571 1.1534897
-4.0706744 1.7125227 1.1478301
-4.0748067 1.702899 1.1624759
-4.08497 1.6997445 1.1496698
-4.086462 1.7015976 1.165652
-4.092196 1.6844356 1.1484249
-4.081615 1.6816841 1.148367
-4.0979056 1.6678729 1.1596826
-4.0929809 1.6649191 1.1622971
-4.1001034 1.6600287 1.1572928
-4.0955467 1.6484236 1.1507047
-4.1115732 1.6610353 1.1640899
-4.1132512 1.65188 1.1535621
-4.1002755 1.6349185 1.1655939
-4.1000977 1.6388142 1.1651963
-4.1039295 1.6193175 1.1533574
-4.1049809 1.6327349 1.1644911
-4.277997 1.6791607 1.0703415
-4.2878675 1.6856151 1.0761678
-4.2951155 1.6672556 1.0828375
-4.2873592 1.6757543 1.0836388
-4.3061824 1.6505198 1.0827922
-4.2916121 1.6458925 1.0785336
-4.3075614 1.6565182 1.08306
-4.3114705 1.6495908 1.0772319
-4.3157687 1.6410925 1.07766
-4.3118973 1.6337961 1.0772614
-4.316884 1.6276438 1.0820739
-4.3188128 1.6139514 1.0793432
-4.3149066 1.6153332 1.0842588
-4.3243222 1.6067851 1.0836819
-4.3129282 1.6017187 1.0838828
-4.3223724 1.5935194 1.0854716
-4.3160667 1.5916594 1.0837048
-4.3252263 1.5881706 1.0810323
-4.3202052 1.5826553 1.0758864
-4.3347478 1.5632745 1.0894722
-4.3296804 1.5611621 1.082937
-4.3397923 1.5593675 1.0887439
-4.3326263 1.5437173 1.0819701
-4.3405361 1.5408808 1.0726888
-4.3490143 1.5316597 1.0843849
-4.3372831 1.5352072 1.0739286
-4.518187 1.5879551 1.0104632
-4.5267019 1.5728059 1.0067611
-4.51788 1.5848649 1.0035998
-4.5341954 1.5645603 1.0071169
-4.5369158 1.5714935 0.9945839
-4.5261626 1.5504773 1.0063215
-4.5295939 1.5587806 1.0084771
-4.5397902 1.5413191 0.99386746
-4.5392585 1.5375162 0.99611098
-4.5470223 1.5275726 1.0079792
-4.5452332 1.533077 0.99798518
-4.5497017 1.5122628 0.9991684
-4.5378633 1.5024573 0.9987402
-4.5491772 1.4985147 1.0043401
-4.5569654 1.4940208 1.0032088
-4.5572772 1.5024406 1.0073998
-4.5458431 1.4895809 1.0062358
-4.5522442 1.4886677 0.99395519
-4.553246 1.4704199 1.0042193
-4.5519953 1.4665337 1.0108904
-4.5588679 1.4665526 1.0094196
-4.5557251 1.4642105 0.99349105
-4.5713906 1.4558054 0.99411654
-4.7435665 1.4932408 0.9199627
-4.7541189 1.4896582 0.92487955
-4.7457933 1.4878353 0.92458439
-4.7532678 1.4795097 0.91780061
-4.7618966 1.4668368 0.91647774
-4.7627969 1.4552072 0.92328393
-4.7534237 1.4668643 0.93258363
-4.75737 1.4536765 0.92828488
-4.7627783 1.4456496 0.92802948
-4.7641053 1.443967 0.92575717
-4.7647977 1.4282004 0.93224645
-4.7624354 1.4239497 0.92179292
-4.7751474 1.4100837 0.91615903
-4.7681446 1.4107933 0.92884499
-4.7679167 1.4049147 0.9355064
-4.769002 1.4001672 0.91718942
-4.7832723 1.3868151 0.91718364
-4.7882328 1.3915292 0.93064678
-4.7774835 1.3728389 0.92274272
-4.7869797 1.3748155 0.91981852
-4.778739 1.3580847 0.92779291
-4.9616299 1.4155706 0.84098548
-4.9574041 1.3921844 0.84418195
-4.9588027 1.3977575 0.8547616
-4.9675055 1.3855065 0.84613883
-4.9695373 1.3741084 0.83944762
-4.9698763 1.3703693 0.84608579
-4.9702115 1.363589 0.84412253
-4.9770741 1.3494688 0.85015589
-4.9718304 1.3477533 0.84485567
-4.9895015 1.3361701 0.84951693
-4.9791884 1.3412087 0.84848022
-4.9784741 1.3324153 0.85100293
-4.9945536 1.3241563 0.84604728
-4.9800434 1.3091174 0.85579169
-4.9941463 1.3139603 0.84109163
-4.9949307 1.3003678 0.84960896
-4.9890671 1.2883343 0.8583051
-5.005157 1.2913228 0.83984274
-4.995204 1.2814294 0.8466292
-5.1694317 1.3208796 0.77160025
-5.180161 1.3070985 0.76577854
-5.1719165 1.2958773 0.77813566
-5.1811395 1.2904127 0.76920843
-5.1753078 1.281284 0.77221972
-5.1797218 1.2798687 0.7670536
-5.1788259 1.2794756 0.77527744
-5.1894021 1.2667427 0.77845258
-5.1912723 1.259707 0.77160364
-5.1915941 1.2444016 0.76185113
-5.2051201 1.2555264 0.77339149
-5.1964655 1.2377428 0.77839541
-5.1936221 1.230014 0.77942532
-5.1984119 1.2348627 0.76224017
-5.2121186 1.2273333 0.76317865
-5.2028036 1.2171702 0.76995653
-5.1986451 1.2096735 0.76359838
-5.3861637 1.2342515 0.69456792
-5.3906426 1.2375669 0.70296299
-5.3819599 1.2222997 0.70331722
-5.383019 1.2152363 0.70206332
-5.3925271 1.198547 0.6902951
-5.3970213 1.2064101 0.69806987
-5.4004745 1.1911825 0.69796753
-5.4011025 1.1839374 0.69761229
-5.4007816 1.1676859 0.69437289
-5.393672 1.1772618 0.69091791
-5.41291 1.160889 0.69843328
-5.4039688 1.1617428 0.69680119
-5.4066224 1.1529741 0.68744129
-5.4089108 1.1448306 0.69855988
-5.4124427 1.1288525 0.70053327
-5.407732 1.1300439 0.69791621
-5.5960164 1.1462966 0.61042136
-5.6036634 1.146449 0.62043166
-5.5916548 1.1285539 0.62174386
-5.6028748 1.1193893 0.62018764
-5.5975389 1.1125972 0.60981667
-5.6046767 1.1163461 0.60785973
-5.6134353 1.0990312 0.62469649
-5.6115432 1.1010069 0.62095433
-5.5985212 1.0810189 0.60880101
-5.6035151 1.0872993 0.62540793
-5.6111155 1.0676229 0.60897672
-5.6090002 1.0618873 0.62052357
-5.6168637 1.0497372 0.62200344
-5.623404 1.0479333 0.62214893
-5.6114893 1.0330206 0.62333465
-5.7914476 1.0655828 0.53890473
-5.7918849 1.0575978 0.54219574
-5.7954745 1.0530274 0.53530121
-5.8027949 1.0429902 0.53625971
-5.8022571 1.0294595 0.53134173
-5.8051009 1.0298184 0.53459245
-5.8043652 1.0137713 0.53995472
-5.8120708 1.0113283 0.54101628
-5.818285 1.0038018 0.54812533
-5.8043427 0.98963553 0.54817498
-5.8092031 0.97845846 0.53557402
-5.8212833 0.98831379 0.54309893
-5.810061 0.97603828 0.53416628
-6.0078044 0.98765808 0.46611214
-6.0025368 0.99122894 0.46984348
-6.0021753 0.97338039 0.4620527
-5.9985514 0.95768118 0.46633565
-6.0095539 0.95567822 0.45629859
-5.9994826 0.94885135 0.46685979
-6.0022907 0.93734616 0.47138149
-6.0050373 0.9423483 0.45285484
-6.0003734 0.91662705 0.47231415
-6.0081725 0.92347348 0.46763039
-6.0048928 0.91599309 0.45293242
-6.0124564 0.89514434 0.47019583
-6.0162768 0.89600921 0.45800301
-6.1904693 0.90829724 0.38130611
-6.1978106 0.90419835 0.38820153
-6.1951771 0.89148778 0.3766681
-6.2019701 0.87727445 0.38202927
-6.2042294 0.88160813 0.38079423
-6.2050033 0.87188786 0.38224134
-6.2063055 0.8556385 0.37894011
-6.2122798 0.8439275 0.37656543
-6.2129393 0.84589982 0.38175073
-6.2163239 0.82528692 0.3762114
-6.2118888 0.81429797 0.38491359
-6.2069397 0.81721604 0.37818575
-6.3980932 0.82739973 0.31021872
-6.3977904 0.82836324 0.31390986
-6.3921137 0.80827951 0.31060866
-6.4076595 0.80862194 0.30626294
-6.4017453 0.78884989 0.31434521
-6.3991203 0.78427953 0.2993955
-6.3988576 0.780213 0.31509876
-6.3933969 0.77391368 0.2988714
-6.4134631 0.75318879 0.30033895
-6.4048142 0.73854065 0.31341001
-6.4028811 0.73686463 0.301956
-6.5950518 0.75720978 0.22321041
-6.6001987 0.74351639 0.23052597
-6.588634 0.73538786 0.22713123
-6.6014023 0.71427137 0.23291324
-6.5860753 0.71686566 0.22307524
-6.5856853 0.70079607 0.23812255
-6.5895791 0.69124788 0.23582388
-6.5896873 0.6826818 0.22175513
-6.608315 0.6838001 0.22199447
-6.5938587 0.66787487 0.22951551
-6.7744617 0.68215889 0.14855921
-6.7930055 0.67404574 0.16032527
-6.7842202 0.65851128 0.15318081
-6.7788162 0.65120971 0.15413922
-6.7876172 0.64022332 0.14691266
-6.786243 0.63060242 0.15283866
-6.7898078 0.6180504 0.15843998
-6.7956586 0.60633975 0.14470008
-6.7955647 0.59693813 0.16130461
-6.795218 0.58291662 0.15121137
4.8796444 2.6783803 0.72480935
4.8766885 2.6776557 0.72484595
4.8777909 2.7010427 0.7299785
4.8612494 2.7000391 0.73260671
4.8578811 2.708029 0.74279511
4.8547826 2.7048817 0.74262542
4.8653421 2.7116983 0.74159378
4.8425269 2.7206073 0.73974925
4.8419275 2.7271287 0.74213058
4.8526483 2.7484617 0.73646522
4.8425007 2.7460222 0.72712219
4.8389482 2.7443509 0.73025906
4.8354225 2.7675157 0.72999281
4.8370204 2.7578821 0.74193799
4.8212371 2.7686327 0.73509347
4.8156328 2.7800467 0.73832715
4.8098493 2.7857919 0.74160826
4.8230247 2.7925026 0.72703463
4.6543379 2.70943 0.80807245
4.6481619 2.7136285 0.8078413
4.6363111 2.711489 0.81842262
4.635108 2.7296152 0.80059004
4.637033 2.7280445 0.81918496
4.6386824 2.731909 0.80141425
4.6322684 2.7438371 0.80766761
4.6190009 2.7540171 0.81861383
4.6289577 2.7622793 0.80858946
4.6221871 2.767592 0.81856543
4.6208339 2.7681108 0.81173825
4.6046605 2.7862167 0.80263346
4.6082468 2.7762446 0.80491805
4.602406 2.7888515 0.81886345
4.5987234 2.7871742 0.80477774
4.5936265 2.8109462 0.80810165
4.5907502 2.8121128 0.81690383
4.5941186 2.8238297 0.80944163
4.5884242 2.8293304 0.80380249
4.5726962 2.8318958 0.81704241
4.5669355 2.8369527 0.80437267
4.4171247 2.7520645 0.87923485
4.4155507 2.7520316 0.88185865
4.3962526 2.7500291 0.89067715
4.3908916 2.7682247 0.89141154
4.3914361 2.7652133 0.88951665
4.3952956 2.7832241 0.88239264
4.3879495 2.7885106 0.88059509
4.3931322 2.7920187 0.87791324
4.3726673 2.7837243 0.89141756
4.3854337 2.7936034 0.88360482
4.3655219 2.7948287 0.88216078
4.3646154 2.8182952 0.89454013
4.3663239 2.8262877 0.87877887
4.3568425 2.8327518 0.89508045
4.3480868 2.8236012 0.8822431
4.3574281 2.8421605 0.88129455
4.3596363 2.8372312 0.87951577
4.3400388 2.8413515 0.89513397
4.3377514 2.848882 0.87635201
4.3289595 2.8530629 0.88134861
4.3323464 2.8612244 0.88147545
4.334281 2.8723795 0.87897927
4.1744447 2.7667451 0.95424038
4.1731238 2.777739 0.95403796
4.1680961 2.7839041 0.95861208
4.1502228 2.7833447 0.95567757
4.1513934 2.7889373 0.96175176
4.1507764 2.7988844 0.96588963
4.1457701 2.8105037 0.97150701
4.1419735 2.8172998 0.95525974
4.1431656 2.81146 0.9611339
4.1444764 2.8315401 0.95212883
4.1232834 2.8299193 0.95386803
4.1214943 2.8308368 0.96079314
4.1194944 2.8505936 0.96808046
4.1220613 2.8563528 0.96901119
4.1216855 2.8471656 0.96974272
4.1073756 2.8612533 0.95463467
4.1171956 2.874234 0.96536499
4.1126251 2.8673258 0.95711595
4.0917997 2.8855252 0.95725691
4.0968399 2.8889592 0.97171336
4.0928674 2.8951316 0.95879
4.0906262 2.9034543 0.96103042
4.0753016 2.8937256 0.95727962
4.0872569 2.9105191 0.95354539
3.9295108 2.8033862 1.0307356
3.9232628 2.8132193 1.0404333
3.9218988 2.8168526 1.0373858
3.9112577 2.8199034 1.0417098
3.91236 2.8261242 1.0385184
3.9135957 2.8413894 1.0330518
3.9092801 2.836694 1.0280539
3.8920336 2.8337767 1.0456809
3.8970199 2.8395631 1.0478868
3.8982477 2.8613403 1.0411996
3.8957338 2.860039 1.0292126
3.8745539 2.856391 1.0415936
3.883064 2.8752878 1.0321481
3.8685193 2.86746 1.0402992
3.8782909 2.8846583 1.0292224
3.8648636 2.8870242 1.0279675
3.8659623 2.8890135 1.0365791
3.8620553 2.8977032 1.0368415
3.855768 2.8953333 1.0374634
3.8516791 2.9181535 1.0344414
3.8408954 2.9224293 1.0447023
3.8381174 2.909502 1.045905
3.8477128 2.9290698 1.0405999
3.8278553 2.9380848 1.0420681
3.8361413 2.940871 1.0353415
3.8333433 2.934237 1.0455927
3.8292825 2.9527161 1.0324509
3.8138263 2.9513109 1.0426223
3.672318 2.8343287 1.1209017
3.6578896 2.8504095 1.1207873
3.6604319 2.8597519 1.119589
3.653228 2.8503683 1.1201094
3.6472199 2.8546398 1.1148493
3.6558995 2.863121 1.1132616
3.6460402 2.8639631 1.109123
3.6494472 2.8860891 1.1130193
3.6430984 2.8882439 1.1100693
3.6236007 2.8790395 1.1203941
3.6342673 2.8987384 1.1217418
3.6273575 2.9079618 1.1140664
3.6203263 2.9036884 1.1106346
3.6120896 2.9161787 1.112726
3.6043665 2.9066353 1.1140015
3.6113763 2.9097536 1.1186763
3.5967913 2.9270015 1.1191168
3.5980606 2.9316523 1.1166124
3.6032193 2.9339573 1.1111977
3.5854211 2.9407747 1.111519
3.5779405 2.9422758 1.1064849
3.5918007 2.9408913 1.1056261
3.5779786 2.956507 1.115451
3.5807176 2.9679241 1.112729
3.565541 2.9556634 1.1154321
3.5716333 2.9744647 1.1162279
3.5623932 2.9827404 1.1092514
3.553587 2.9763515 1.1219112
3.562269 2.9791949 1.1118672
3.5455296 2.9883199 1.1236376
3.5491047 2.9940517 1.1119117
3.4063721 2.8781943 1.1896585
3.4042075 2.8919625 1.1821862
3.3918612 2.8925779 1.181151
3.3967862 2.9021323 1.1828806
3.3844078 2.9019008 1.1984431
3.3728187 2.8965585 1.197318
3.3742464 2.9065461 1.1848472
3.3683274 2.9093585 1.1902683
3.3723578 2.9195817 1.1798689
3.3681519 2.9175365 1.1902617
3.3522139 2.9181888 1.199407
3.3581672 2.9406803 1.1975893
3.3566418 2.9348352 1.1916617
3.3540747 2.9379318 1.1905687
3.3532307 2.9526732 1.1845303
3.3479426 2.9398553 1.188441
3.3415229 2.9525015 1.1976364
3.3226261 2.9632716 1.1849471
3.3291438 2.9621212 1.1977894
3.3252556 2.9608214 1.1839005
3.3117537 2.9676459 1.1859839
3.3073907 2.9844925 1.1858841
3.3012035 2.9838896 1.1952704
3.3090825 2.9848013 1.1830902
3.295862 2.9889576 1.180994
3.2965965 2.9919209 1.1814283
3.3012354 2.9925661 1.1898628
3.2950633 2.9984224 1.1844271
3.2761955 3.0149107 1.1932068
3.2901638 3.011632 1.1960579
3.2702365 3.0189786 1.1811103
3.2723866 3.0260961 1.1983924
3.27443 3.0311666 1.19046
3.2658539 3.0282626 1.1988338
3.2650909 3.0362911 1.1867644
3.2622254 3.0492139 1.1930641
3.124706 2.9244509 1.2712697
3.1108737 2.92399 1.2749003
3.1115994 2.9288404 1.2704428
3.1010988 2.931844 1.2581358
3.0934432 2.9391122 1.2686107
3.0908341 2.9327285 1.2616441
3.085501 2.9525926 1.275195
3.0922294 2.9480913 1.2612948
3.0873258 2.9470439 1.2708819
3.0703466 2.9673548 1.2688562
3.0796611 2.9694576 1.2640284
3.0713265 2.9617877 1.2744048
3.0666168 2.9789085 1.2653021
3.0574434 2.9696002 1.2748795
3.0559571 2.9767137 1.2674069
3.0649397 2.9853015 1.2692384
3.0469501 2.9926453 1.2666274
3.042505 2.9908133 1.2752142
3.0441542 2.9881787 1.2584585
3.0353842 2.9926724 1.2577242
3.0245829 3.0105941 1.2748094
3.0289478 3.0043006 1.2599463
3.0236831 3.0174224 1.2579323
3.02931 3.0255022 1.2623435
3.0245082 3.016233 1.2696077
3.012228 3.0200894 1.2612047
3.0017736 3.0301051 1.2558968
3.0087023 3.0398309 1.2645134
3.0042117 3.0353665 1.2662582
3.00296 3.0462992 1.2682654
3.000968 3.0506029 1.2639683
2.9960551 3.0434501 1.2691579
2.9762738 3.0552173 1.2632554
2.9744725 3.0568016 1.2612244
2.9770765 3.05778 1.2657217
2.966939 3.0706806 1.2698791
2.9683928 3.0773344 1.2598617
2.9645329 3.0751307 1.2753853
2.9492836 3.0726562 1.2622658
2.9557738 3.0931551 1.255906
2.9442651 3.0958931 1.269683
2.8208299 2.9639437 1.347995
2.8103898 2.9702895 1.3380702
2.8140414 2.9590826 1.3455805
2.7956564 2.9747345 1.3499261
2.8017638 2.9645092 1.343035
2.7920227 2.9800038 1.3386664
2.792259 2.9759104 1.3479688
2.7880135 2.9808457 1.3506771
2.790643 2.9965541 1.3497711
2.7869072 2.9850433 1.3474957
2.776943 3.0020158 1.3431813
2.7694368 2.9926615 1.3412951
2.7720003 3.0110774 1.3442905
2.7620687 3.015233 1.3390321
2.7564776 3.0096252 1.3396482
2.7639897 3.0184119 1.3318648
2.747128 3.0115752 1.3360995
2.7395635 3.0246389 1.3413867
2.7347019 3.0244834 1.3385056
2.7289288 3.024749 1.3402425
2.7408752 3.0392127 1.3350866
2.7285016 3.0303376 1.3367169
2.7342367 3.0481989 1.3329096
2.7229619 3.0403073 1.3494102
2.7264233 3.0510077 1.3364611
2.7104957 3.0534096 1.3484625
2.7067792 3.0631442 1.349797
2.7072926 3.0695138 1.3403709
2.6930876 3.0752268 1.3469708
2.6959963 3.0793769 1.3500237
2.7006364 3.0796893 1.3437337
2.6801157 3.0718491 1.3447678
2.6812201 3.0739701 1.3398684
2.6785119 3.0890479 1.3432883
2.6722989 3.0918238 1.3336257
2.6731319 3.0829144 1.3425878
2.665961 3.0945358 1.3375132
2.6601195 3.0909231 1.3350428
2.6648467 3.097363 1.3345263
2.6561685 3.110975 1.3344067
2.6505382 3.1134956 1.350852
2.6386127 3.1197686 1.3357157
2.6477163 3.1114249 1.3389648
2.6319151 3.1246572 1.3335625
2.639529 3.1159656 1.3472127
2.617475 3.1324012 1.3482358
2.624378 3.1259654 1.3371691
2.6262014 3.1379926 1.338784
2.6055493 3.1390572 1.3431396
2.6043756 3.1357584 1.3374138
2.4851122 3.0085621 1.4263698
2.480453 3.0161884 1.4220691
2.480653 3.0172491 1.4257495
2.4840972 3.0068445 1.4189928
2.4621344 3.0083945 1.4198813
2.4738166 3.0122366 1.4135484
2.4665174 3.0273328 1.4171287
2.4481468 3.0286086 1.4090916
2.4513862 3.0335934 1.41848
2.4589765 3.0417709 1.4209372
2.4408362 3.0330217 1.4151589
2.4357984 3.0437906 1.4135512
2.4464555 3.0389414 1.4095541
2.4407878 3.0417233 1.4117081
2.4283588 3.0467341 1.4119738
2.4168136 3.0476236 1.412649
2.418931 3.0654154 1.424994
2.4246237 3.0690422 1.4151938
2.4022748 3.0601196 1.4269639
2.4093096 3.0630026 1.4235026
2.3987968 3.0719657 1.4078888
2.4025011 3.0801163 1.4196467
2.3845932 3.0831532 1.4231642
2.3826835 3.0847576 1.4260783
2.3829231 3.0781717 1.4106238
2.3834238 3.084285 1.4126854
2.3845949 3.0967638 1.4091712
2.3781066 3.099189 1.4259224
2.3618135 3.1035233 1.4103953
2.3572857 3.0991549 1.4144014
2.369292 3.108541 1.4240271
2.3456802 3.1059036 1.4184654
2.3538215 3.1096349 1.4126091
2.3454759 3.1157377 1.4250311
2.3400397 3.1263659 1.4075477
2.3391447 3.1217856 1.4128635
2.3403065 3.1226716 1.4073505
2.3379498 3.1213689 1.4209609
2.3323395 3.1280775 1.4156097
2.3111978 3.1345673 1.4226004
2.3140576 3.137377 1.4156936
2.3065386 3.140893 1.4228716
2.3134534 3.136873 1.4105093
2.2945075 3.1488345 1.4209841
2.3079791 3.1596918 1.4188278
2.3039627 3.1539903 1.4088374
2.2852578 3.1537914 1.4164855
2.2810354 3.1555812 1.4195898
2.2904191 3.156111 1.4261672
2.2744472 3.159853 1.4160054
2.2654614 3.170814 1.4254301
2.2695644 3.1786194 1.4151539
2.2608411 3.1777072 1.4176466
2.2597511 3.1822217 1.4088963
2.2491314 3.1845846 1.4078045
2.256351 3.1873124 1.4178187
2.2535758 3.1957209 1.4244477
2.2384446 3.1842976 1.4096861
2.2464132 3.1866522 1.41228
2.2409549 3.1974339 1.4154481
2.2253301 3.2036333 1.4264153
2.2191262 3.1983435 1.4220321
2.1174459 3.0564899 1.4894361
2.1036625 3.0500689 1.5023625
2.1011245 3.0574493 1.4945147
2.0974908 3.0564752 1.4862636
2.1038671 3.0571561 1.4832964
2.0968683 3.0671399 1.485787
2.0951037 3.0695312 1.48752
2.0759292 3.0709069 1.4969285
2.0799186 3.0811057 1.4894363
2.0748713 3.0895519 1.4935606
2.0654366 3.0859694 1.4849964
2.0675533 3.0928514 1.4870766
2.0625925 3.0814469 1.493609
2.0497797 3.0906646 1.4962444
2.0487118 3.0905182 1.496644
2.0446727 3.1076372 1.4841168
2.0431204 3.1072595 1.4910759
2.0432968 3.1119792 1.4965119
2.0328779 3.1049645 1.4892539
2.0349629 3.1171825 1.4875553
2.0211682 3.10425 1.4993933
2.0188055 3.1177223 1.4952384
2.0185192 3.1105258 1.4968102
2.0247612 3.1148129 1.4847367
2.0136347 3.1223321 1.48966
2.0029039 3.1301162 1.4888513
1.9996419 3.120656 1.48482
2.0033352 3.1356845 1.5026698
1.9924606 3.1446099 1.4906721
1.9943242 3.1399405 1.4880656
