# .PCD v0.7 - Point Cloud Data file format
VERSION 0.7
FIELDS x y z
SIZE 4 4 4
TYPE F F F
COUNT 1 1 1
WIDTH 1527
HEIGHT 1
VIEWPOINT 0 0 0 1 0 0 0
POINTS 1527
DATA ascii
9.5494862 -4.1538582 0.99989849
9.5484753 -4.1363964 0.99215716
9.570796 -4.1157269 0.99792153
9.5751057 -4.1108088 0.99212265
9.5748062 -4.0867248 0.98846847
9.5718317 -4.0737138 0.98564577
9.5878296 -4.0705557 0.98584235
9.4028568 -3.9773848 1.0301665
9.4088984 -3.9674697 1.0221237
9.4157381 -3.9516041 1.0312635
9.4224205 -3.9296606 1.0317401
9.4269295 -3.9145112 1.0363531
9.4436779 -3.9028053 1.0283029
9.4461727 -3.8925369 1.0318297
9.4428511 -3.8882949 1.0260915
9.4558554 -3.8727362 1.0200068
9.4660196 -3.8468707 1.0237156
9.4563618 -3.850879 1.0306014
9.4729128 -3.8343916 1.034274
9.4814024 -3.8165927 1.0206758
9.4790144 -3.7976203 1.0358775
9.4770832 -3.7996309 1.0330768
9.4997473 -3.7703657 1.0288227
9.4943428 -3.76406 1.0216701
9.4924469 -3.7465131 1.0255851
9.5047941 -3.7413793 1.0318766
9.5110378 -3.7314808 1.0308439
9.5209713 -3.7166216 1.0326058
9.5177727 -3.6905737 1.0376502
9.5182285 -3.68138 1.0272816
9.5250664 -3.6799006 1.0226655
9.5470886 -3.6656594 1.0228117
9.5462914 -3.634043 1.0189887
9.5412207 -3.6331015 1.0282295
9.5489788 -3.6193085 1.0217677
9.5606346 -3.598402 1.0271835
9.5585623 -3.5964668 1.0292337
9.5754385 -3.5697942 1.0328721
9.5740585 -3.5714984 1.0292799
9.5777044 -3.5579066 1.021596
9.5909624 -3.5426173 1.0220983
9.579586 -3.5304286 1.0235419
9.5883369 -3.5041418 1.0232949
9.4088545 -3.4205689 1.0687715
9.4228926 -3.4220033 1.0766232
9.4304495 -3.396831 1.0720531
9.4234047 -3.3987606 1.0760826
9.4383907 -3.3688247 1.0734422
9.4369974 -3.3652618 1.0757483
9.4519939 -3.3430271 1.0582895
9.4392881 -3.3324893 1.0627568
9.4470654 -3.3182645 1.0660422
9.4562683 -3.3202069 1.0622374
9.4652061 -3.302139 1.06118
9.4615049 -3.2748203 1.0655549
9.4656382 -3.2647128 1.0619619
9.4651814 -3.2664003 1.0632926
9.4887371 -3.2378328 1.0614057
9.4896326 -3.2353721 1.0699219
9.4928169 -3.2226102 1.0675063
9.4985237 -3.2072313 1.0624554
9.4886789 -3.1887329 1.0584495
9.5021009 -3.1856713 1.0593153
9.5116997 -3.158294 1.0650563
9.5202227 -3.1592205 1.0649168
9.5131025 -3.1405993 1.0616796
9.5223703 -3.1270003 1.063543
9.5329504 -3.1143942 1.0607556
9.5216246 -3.1054215 1.0672045
9.5387964 -3.077776 1.0731843
9.533535 -3.0689163 1.0613059
9.5432034 -3.0543754 1.0746825
9.5488472 -3.0508678 1.0578707
9.5553389 -3.0421987 1.0751805
9.5475531 -3.0094249 1.0583017
9.5596085 -3.008172 1.0667758
9.568408 -3.002033 1.0755745
9.7464371 -3.0282927 1.0256022
9.7543573 -3.0313451 1.0294126
9.7687073 -3.0015514 1.027576
9.7690182 -3.001327 1.0213002
9.9651403 -3.0332909 0.99816418
9.9669924 -3.0260508 0.98332137
9.9720116 -3.0165713 0.98383123
9.9743223 -2.9991109 0.98379213
10.167762 -3.0503283 0.95358092
10.161708 -3.0201602 0.95427078
10.164433 -3.023525 0.95397633
10.175261 -3.0032098 0.95702159
10.378221 -3.0482335 0.91815048
10.371061 -3.0214179 0.92398065
10.377605 -3.0103719 0.92178947
10.379089 -3.0017192 0.91294491
10.574358 -3.0466864 0.88158423
10.581545 -3.0188706 0.87187517
10.588672 -3.0098286 0.87355644
10.583664 -2.9910865 0.87122613
10.788273 -3.0272059 0.83324921
10.783693 -3.0230782 0.83949274
10.782138 -3.008517 0.84198314
10.988956 -3.0379279 0.79872662
10.992487 -3.0321851 0.81014049
10.993806 -3.0091608 0.79572922
10.986259 -2.9836979 0.79628199
11.194886 -3.026798 0.77180129
11.184394 -3.0152128 0.75970018
11.195562 -2.9928331 0.7715764
11.394052 -3.0296865 0.72782654
11.403036 -3.0243676 0.73126054
11.398241 -3.0048134 0.73420948
11.5858 -3.0417211 0.6871677
11.598361 -3.0091507 0.68864328
11.602313 -2.9994807 0.67781514
11.801924 -3.0306823 0.63901955
11.79204 -3.0175011 0.65139192
11.79575 -2.9990382 0.63973916
11.997632 -3.0419424 0.61675358
12.001138 -3.0116184 0.61010659
11.998967 -2.996542 0.61288589
12.210704 -3.0380025 0.58122426
12.214935 -3.0181782 0.56476933
12.210197 -2.9900281 0.56470948
12.397607 -3.0288723 0.54004192
12.403534 -3.0153875 0.53520858
12.408738 -2.9960213 0.52709794
12.617179 -3.0230927 0.50288934
12.603118 -2.9965668 0.48573264
12.81516 -3.0361705 0.4640618
12.809577 -3.0164866 0.45881596
12.806748 -2.9997504 0.46288851
13.021535 -3.0276134 0.4116632
13.008698 -2.9995518 0.40965307
13.207106 -3.0230253 0.38039926
13.207648 -3.0204606 0.38541734
13.223332 -2.9968915 0.37248641
14.499501 -0.99321932 0.19849072
14.497655 -0.96182656 0.18951496
14.497769 -0.94054562 0.19750357
14.500081 -0.93052244 0.19076201
14.509614 -0.90845346 0.19349697
14.51098 -0.8828336 0.18186666
14.506723 -0.8654781 0.19950834
14.51325 -0.84005594 0.20002858
14.522161 -0.81963092 0.19239588
14.506972 -0.79792327 0.18806148
14.514518 -0.79301584 0.19075432
14.513238 -0.77132958 0.18460093
14.522955 -0.75087494 0.19948764
14.520633 -0.72942764 0.1841547
14.53154 -0.69973725 0.19064623
14.525154 -0.68994337 0.1825112
14.527109 -0.66563958 0.19148354
14.526678 -0.63601434 0.18562829
14.526739 -0.61865628 0.19994654
14.519139 -0.59763527 0.19571933
14.527176 -0.59018964 0.19614488
14.517878 -0.56511557 0.19800045
14.522398 -0.53138894 0.20005295
14.521776 -0.52102107 0.18329351
14.525793 -0.50075358 0.19596381
14.536273 -0.48785159 0.19816594
14.53859 -0.45394543 0.18440852
14.529851 -0.44139349 0.20001164
14.535229 -0.40967551 0.19270688
14.534896 -0.40642428 0.18615592
14.530308 -0.37597424 0.18678218
14.526117 -0.35563254 0.19221298
14.543754 -0.33155265 0.19109981
14.543414 -0.30884787 0.20008279
14.526287 -0.30285123 0.18906049
14.541801 -0.26707119 0.19066644
14.539491 -0.24964285 0.18590383
14.543393 -0.2415939 0.19341758
14.542871 -0.2087796 0.19237278
14.535015 -0.1968818 0.19430192
14.540581 -0.1701277 0.18640298
14.546743 -0.14809181 0.19856684
14.53831 -0.1289186 0.19453101
14.528734 -0.11055562 0.19291966
14.548113 -0.089762338 0.19702406
14.536441 -0.073868483 0.19662701
14.546347 -0.060671978 0.19337621
14.531462 -0.023930276 0.19789179
14.544063 -0.0080403052 0.19493859
14.555804 0.0023854731 0.28985721
14.549229 0.03543961 0.3049885
14.554726 0.054412447 0.30187142
14.552359 0.064734735 0.29764298
14.565927 0.085293271 0.29149261
14.557856 0.10507099 0.30585045
14.55386 0.13304555 0.29581678
14.549439 0.15082286 0.29869416
14.561739 0.1736403 0.29802766
14.558526 0.18901154 0.29296541
14.552332 0.21589176 0.29535088
14.55477 0.23621006 0.29047653
14.552312 0.26206744 0.30426109
14.566708 0.26562774 0.28805411
14.556847 0.30285507 0.29209194
14.560807 0.31213808 0.29559392
14.559097 0.3375811 0.30675706
14.547325 0.35878703 0.29538444
14.558402 0.37250507 0.30651638
14.548784 0.40325072 0.29270703
14.554075 0.40807074 0.30546573
14.561724 0.43562624 0.29823092
14.54447 0.46104842 0.29654217
14.560972 0.48122019 0.29810283
14.541239 0.49191305 0.29658046
14.545515 0.52697659 0.30403131
14.553265 0.54076862 0.29661599
14.55215 0.56325543 0.29009798
14.539633 0.57731438 0.29699013
14.53822 0.60227889 0.29432073
14.54297 0.61308664 0.29616493
14.54045 0.63212317 0.30525896
14.550667 0.65451401 0.29947037
14.539166 0.67404372 0.29354963
14.549198 0.69450527 0.29801869
14.53768 0.71993637 0.29724923
14.533584 0.73383909 0.2899707
14.542044 0.76737642 0.30487889
14.543958 0.78917575 0.29354706
14.532736 0.81036901 0.30688182
14.538815 0.81714678 0.29072765
14.526711 0.84226763 0.29331443
14.543673 0.8584969 0.29799774
14.534818 0.88414562 0.3019177
14.540013 0.90077454 0.30600744
14.52965 0.92686123 0.29523793
14.538488 0.94985646 0.29808205
14.52002 0.96234488 0.29417595
14.536431 0.97780842 0.29178303
14.521483 1.0031393 0.29029879
9.4037628 -4.9199162 1.0376773
9.4240093 -4.9164147 1.0382179
9.4191561 -4.8876934 1.028376
9.4252405 -4.8886032 1.0348805
9.4439793 -4.8651972 1.0284953
9.4373941 -4.8586607 1.0223774
9.4583759 -4.8433475 1.032917
9.4583111 -4.8245616 1.032909
9.4726 -4.8170118 1.0243294
9.4684439 -4.809864 1.0360619
9.4708481 -4.7939973 1.0297054
9.4948893 -4.7847528 1.0337193
9.4994526 -4.7672138 1.033314
9.4941549 -4.7504234 1.0388489
9.5153437 -4.7417097 1.0346305
9.510129 -4.7263775 1.0237796
9.5187769 -4.7168412 1.0350633
9.5179472 -4.6941295 1.031945
9.5370903 -4.6838698 1.0231787
9.5476351 -4.6644893 1.0283535
9.5498934 -4.6494093 1.0361789
9.5457773 -4.6369743 1.0400229
9.5656567 -4.6266441 1.0281708
9.5651112 -4.6282601 1.0398648
9.5700827 -4.6153183 1.0270193
9.570817 -4.5942035 1.0362433
9.5806818 -4.571034 1.0217314
9.404398 -4.4905338 1.0733106
9.4222727 -4.4624314 1.0651985
9.4313622 -4.4503217 1.0631671
9.4256086 -4.4424734 1.0629071
9.4476624 -4.4252424 1.0617645
9.4535418 -4.4146152 1.0576253
9.4475508 -4.4109964 1.058534
9.4532347 -4.3888521 1.0590398
9.4660549 -4.3724003 1.0673064
9.4680815 -4.3524914 1.0653796
9.4755764 -4.3578424 1.065845
9.477973 -4.3315716 1.06128
9.492238 -4.3224449 1.0756828
9.4844532 -4.3052878 1.0647833
9.4963903 -4.2922754 1.057956
9.5071659 -4.2795625 1.0685883
9.5137844 -4.2790027 1.0696627
9.5212927 -4.2589006 1.0596964
9.5292883 -4.2521029 1.0729887
9.5255318 -4.2293849 1.0729876
9.5398302 -4.2252588 1.0744246
9.5345755 -4.2048059 1.0689135
9.5447369 -4.1961384 1.0593014
9.5492821 -4.1812873 1.0736102
9.5629101 -4.1605134 1.0676873
9.5696917 -4.1549587 1.0612241
9.5670872 -4.1287627 1.0620598
9.5855379 -4.121017 1.0697277
9.5740042 -4.1112151 1.0709155
9.5957441 -4.0910912 1.0615352
9.4166574 -4.0053391 1.0996472
9.4196882 -3.9882109 1.1082487
9.4171896 -3.9867871 1.1122071
9.4250603 -3.9666646 1.097697
9.4272213 -3.9587431 1.1106337
9.4434414 -3.9498501 1.0957898
9.4531794 -3.929353 1.093798
9.4437351 -3.9161777 1.1062008
9.4619408 -3.9002903 1.0950456
9.4613152 -3.8883986 1.1106468
9.4712906 -3.8805039 1.101392
9.4626999 -3.8551688 1.0961343
9.4826918 -3.8579049 1.0991615
9.4866238 -3.8383241 1.1091644
9.496027 -3.8221178 1.0939342
9.4983482 -3.8152089 1.0944349
9.5058079 -3.8040602 1.1022627
9.5112562 -3.7878368 1.1100883
9.5090895 -3.7588704 1.1006161
9.515749 -3.7559729 1.1098428
9.5179911 -3.7485251 1.0937638
9.5309601 -3.7350755 1.1098118
9.5386524 -3.7070224 1.1099081
9.5293541 -3.7004075 1.0963621
9.5500393 -3.6897411 1.1057918
9.5554762 -3.6820862 1.1088924
9.5613947 -3.6522872 1.1098962
9.5551233 -3.6423352 1.0938705
9.5566578 -3.6398282 1.113551
9.5687027 -3.6159208 1.1028612
9.5699549 -3.6150122 1.1063442
9.5751095 -3.5863571 1.1099945
9.576293 -3.5752132 1.1084083
9.5775547 -3.5785534 1.10014
9.5852518 -3.546375 1.109234
9.4179964 -3.4655998 1.149332
9.4180908 -3.452601 1.1492503
9.4191713 -3.4509852 1.1457946
9.4242067 -3.4329269 1.1315134
9.4289055 -3.4278982 1.1477995
9.4428959 -3.4066727 1.1316472
9.4403505 -3.3853292 1.1307961
9.4414368 -3.38782 1.1477276
9.4409189 -3.3740485 1.1479509
9.4521141 -3.3575609 1.1469775
9.4523849 -3.3489275 1.1450894
9.4560747 -3.3250477 1.1430686
9.4596653 -3.3249178 1.1495253
9.4797802 -3.3045635 1.1408955
9.4855967 -3.2843044 1.1441426
9.4876804 -3.2748301 1.1354569
9.4935932 -3.2726576 1.1349497
9.4986362 -3.254137 1.1387801
9.5005932 -3.2408543 1.1432037
9.5027542 -3.2210779 1.1309301
9.5039234 -3.2057135 1.1340983
9.5031853 -3.1913242 1.1479484
9.5204086 -3.1779914 1.148724
9.5240707 -3.1691706 1.1366428
9.519084 -3.1591437 1.1316036
9.5373249 -3.151624 1.1428148
9.5268631 -3.1227641 1.1429681
9.5358744 -3.1134152 1.1484053
9.5486975 -3.1066458 1.1338824
9.5459261 -3.0822325 1.1458867
9.5508623 -3.0811486 1.1399995
9.5589485 -3.0652826 1.13524
9.5608664 -3.0566552 1.1305451
9.5635405 -3.0288093 1.1413965
9.5741148 -3.0303755 1.1489944
9.5796318 -3.0181062 1.1308253
9.5763407 -3.0006871 1.148223
9.7608299 -3.0373223 1.1050103
9.7631741 -3.026526 1.1119224
9.770977 -3.0228329 1.1099367
9.7707644 -2.998517 1.0957177
9.9726152 -3.048058 1.0673809
9.9817982 -3.0220475 1.071003
9.9862671 -3.0176203 1.0691354
9.9815683 -3.0068574 1.0723608
10.172736 -3.0513954 1.0378479
10.177505 -3.0265656 1.0240617
10.179653 -3.0090752 1.0389783
10.195229 -3.0134866 1.0310646
10.386298 -3.0498676 0.99655098
10.386838 -3.0348613 0.98937517
10.393138 -3.0101626 0.9966619
10.387742 -3.000531 0.99604654
10.594856 -3.0451522 0.94927925
10.59125 -3.0239296 0.95601094
10.590849 -3.0040197 0.96087146
10.592574 -3.0035918 0.95636249
10.789703 -3.0386829 0.91847831
10.792592 -3.0287116 0.91863227
10.807547 -3.0004642 0.923733
10.804626 -2.9959271 0.92935407
11.004016 -3.0216961 0.88852125
11.001237 -3.0044286 0.87948257
11.017822 -2.9931443 0.88580942
11.194003 -3.0412939 0.84192485
11.207242 -3.0222208 0.83983123
11.205319 -3.0056257 0.84338021
11.408804 -3.0360823 0.8138212
11.401176 -3.0168331 0.81583291
11.41368 -3.006845 0.81102473
11.601412 -3.033963 0.77902025
11.604662 -3.0251133 0.77520561
11.623718 -3.003267 0.77330911
11.613712 -2.9890392 0.76734161
11.820436 -3.0214658 0.73278606
11.829556 -3.0156913 0.73833215
11.81656 -2.9960496 0.74483567
12.017718 -3.0151813 0.69936627
12.015393 -2.9977815 0.69389182
12.225819 -3.0396919 0.66582429
12.220716 -3.0203488 0.66136473
12.220247 -3.0019953 0.66955686
12.426899 -3.0356033 0.62673098
12.420735 -3.0163467 0.61858374
12.42858 -3.0049641 0.6307233
12.62966 -3.0346785 0.59548974
12.625172 -3.0153189 0.60006505
12.627162 -2.9896021 0.59714073
12.831664 -3.0156243 0.55818468
12.839385 -3.0007112 0.54480022
13.027144 -3.019799 0.51704937
13.039011 -3.0186381 0.50725728
13.039043 -2.9859736 0.5135954
13.224543 -3.0075626 0.4851962
13.230273 -3.0013838 0.48750082
14.521375 -0.97820371 0.28813314
14.521777 -0.9728958 0.30341476
14.53277 -0.95219415 0.29988393
14.530072 -0.91884494 0.29134116
14.539569 -0.91490549 0.28996259
14.524717 -0.88091236 0.30137295
14.540094 -0.86417294 0.29722002
14.528842 -0.84224319 0.29336062
14.530601 -0.81790954 0.30646071
14.538841 -0.80110908 0.28855014
14.535676 -0.79446733 0.28764424
14.537783 -0.76880014 0.29177916
14.535144 -0.75348854 0.29634666
14.548945 -0.72219461 0.29399246
14.534176 -0.70269591 0.29530489
14.537999 -0.67931288 0.29033595
14.553205 -0.66178799 0.30183014
14.544229 -0.63672233 0.29497612
14.551366 -0.63107771 0.2921761
14.551574 -0.59834296 0.30589521
14.553843 -0.58989573 0.30597326
14.555179 -0.56043518 0.29143405
14.54062 -0.53467971 0.29192051
14.550601 -0.51616025 0.30341351
14.558199 -0.49341953 0.29411635
14.547082 -0.48783624 0.28791198
14.550967 -0.46799999 0.29894096
14.546318 -0.43806383 0.29474273
14.554787 -0.42188713 0.29589495
14.560427 -0.40636986 0.2894865
14.559758 -0.36942264 0.29122874
14.559138 -0.35195139 0.30213377
14.563951 -0.32982126 0.29849544
14.549223 -0.31846476 0.29307666
14.565959 -0.30023617 0.29009762
14.55337 -0.27382302 0.29239991
14.554546 -0.26419434 0.29423556
14.566725 -0.23985599 0.30570355
14.554677 -0.207662 0.29304352
14.563752 -0.19041246 0.29559523
14.566391 -0.17438829 0.29478782
14.550743 -0.15951148 0.29114458
14.565973 -0.14032128 0.28932366
14.557535 -0.11633125 0.29855072
14.563651 -0.096048437 0.30569729
14.566759 -0.068770044 0.29894727
14.552141 -0.060700472 0.30151564
14.55933 -0.04081079 0.28811157
14.557959 -0.01329928 0.30659017
14.583338 0.0056823236 0.40840903
14.571797 0.024360524 0.3995375
14.579422 0.047146443 0.40523031
14.583375 0.064945087 0.40980047
14.585478 0.094118074 0.3980476
14.57678 0.10924657 0.40626419
14.5752 0.12735152 0.40144563
14.586842 0.15073517 0.40438291
14.581023 0.18123312 0.40689608
14.581773 0.19031332 0.39660683
14.580972 0.20531572 0.40228915
14.57556 0.228792 0.40630859
14.581246 0.25993469 0.41277286
14.572598 0.2751005 0.39669481
14.568493 0.29246849 0.40944886
14.572605 0.32126567 0.39699075
14.584906 0.32863858 0.40229705
14.572359 0.34783718 0.41064671
14.582722 0.38142973 0.40915436
14.575569 0.39601219 0.39640254
14.578098 0.41006306 0.39831379
14.566282 0.43899879 0.40336239
14.578457 0.45394775 0.39921522
14.577067 0.48060277 0.40989584
14.579572 0.50353396 0.39760697
14.574801 0.51098835 0.39377835
14.577544 0.53118259 0.39698628
14.565566 0.55929792 0.39905712
14.561909 0.57827175 0.39438546
14.57673 0.59061712 0.40396193
14.558772 0.62604481 0.40725571
14.562696 0.65023702 0.39915243
14.571641 0.6672132 0.40566623
14.55641 0.68343759 0.39850393
14.571831 0.70283204 0.39394268
14.554935 0.71815068 0.39650664
14.554182 0.7369352 0.39893657
14.556609 0.76449192 0.40915468
14.561078 0.78917056 0.39802051
14.560847 0.80947858 0.39890668
14.550165 0.83266425 0.39489672
14.562747 0.8406387 0.39475629
14.547198 0.85845047 0.41127062
14.558135 0.88195246 0.40368915
14.541881 0.90182519 0.3951833
14.541038 0.9257797 0.40167853
14.542729 0.94998741 0.40664217
14.546823 0.95765615 0.39884788
14.541105 0.99085677 0.39541891
14.544227 1.0049175 0.41198629
9.4221201 -4.9407377 1.1112622
9.4284306 -4.9280472 1.0980817
9.4329233 -4.9127917 1.1137675
9.4368515 -4.9127407 1.100819
9.448081 -4.8919492 1.1153654
9.4437704 -4.8770185 1.1134858
9.4499826 -4.8692489 1.1117028
9.4727812 -4.8420367 1.1176877
9.4651308 -4.8469529 1.1089345
9.4713697 -4.8294778 1.1021985
9.4942856 -4.8208981 1.1147504
9.4942942 -4.7929058 1.1068538
9.5011034 -4.7872996 1.1010644
9.5035801 -4.7646255 1.102168
9.5130892 -4.7575641 1.1108959
9.517127 -4.7416377 1.101377
9.5192661 -4.7263045 1.1064414
9.5396042 -4.7149596 1.1055216
9.545908 -4.6980338 1.1064796
9.5434408 -4.7016196 1.1116983
9.5542183 -4.6690216 1.1122717
9.5575294 -4.6631289 1.1076034
9.5729256 -4.6571217 1.1152983
9.5625134 -4.6353145 1.1124148
9.5731859 -4.6306558 1.1033305
9.5925674 -4.6085987 1.1169015
9.4049988 -4.5056791 1.1477476
9.4197693 -4.4946165 1.1414262
9.4336023 -4.4838338 1.1387317
9.4283752 -4.4820848 1.1391432
9.4283485 -4.4561048 1.1388354
9.4488764 -4.4533424 1.151094
9.4447174 -4.4416938 1.1360242
9.4482355 -4.426949 1.1494169
9.4688511 -4.4080038 1.1341149
9.4603643 -4.396131 1.1475067
9.4654303 -4.3808489 1.1451017
9.4861012 -4.3770933 1.1406263
9.4804325 -4.3457847 1.1337917
9.4920502 -4.345964 1.1355556
9.5040607 -4.3324132 1.1501403
9.4957457 -4.3245587 1.1343194
9.5196705 -4.3070693 1.1369703
9.5085068 -4.2922497 1.1411808
9.5307178 -4.2829828 1.1511424
9.5376072 -4.2683544 1.1397743
9.5378704 -4.2547922 1.1504772
9.5357103 -4.2266731 1.1517156
9.5490561 -4.230319 1.1510347
9.5555487 -4.2084241 1.1369376
9.5637865 -4.2005773 1.1431459
9.5665903 -4.1870856 1.1439549
9.573555 -4.1756911 1.1489912
9.5831509 -4.1614633 1.1355768
9.5769396 -4.1510096 1.1381501
9.5806713 -4.1196322 1.1420647
9.4121838 -4.0360985 1.1814685
9.4151039 -4.0187478 1.1804644
9.4192448 -4.0139618 1.1825022
9.4226856 -3.9885757 1.1731144
9.4320116 -3.9808252 1.1782452
9.4475269 -3.976126 1.1835306
9.4438334 -3.9502985 1.1868654
9.4451571 -3.9406924 1.1710749
9.4530487 -3.9230969 1.1723765
9.4634953 -3.9275508 1.1716861
9.4778376 -3.9054217 1.183311
9.4763422 -3.8860073 1.1791538
9.4738255 -3.8880687 1.1866417
9.4933271 -3.872287 1.1863672
9.4834223 -3.8527594 1.1806866
9.4986305 -3.8432775 1.1865411
9.4991055 -3.8230324 1.1850508
9.5028963 -3.8069878 1.1799871
9.5108786 -3.808558 1.1793311
9.5201435 -3.7851698 1.1810262
9.5286999 -3.7729089 1.1716474
9.528863 -3.7675939 1.1684728
9.5248499 -3.7502291 1.1700184
9.5483055 -3.7387767 1.1741202
9.5514688 -3.7226243 1.1845164
9.548933 -3.7166414 1.1711537
9.5522327 -3.6955423 1.1847879
9.5540237 -3.6759927 1.181211
9.5707321 -3.6737826 1.1828007
9.5667667 -3.6476107 1.1745079
9.5844765 -3.6381674 1.1851979
9.5727901 -3.6338279 1.1879176
9.5779095 -3.6187494 1.1747094
9.5845566 -3.6054437 1.1796535
9.410964 -3.5250139 1.2226653
9.4119749 -3.5017416 1.2231227
9.4196053 -3.5003433 1.2113572
9.4208508 -3.4823093 1.2058123
9.4385014 -3.472703 1.2091411
9.4377232 -3.4521809 1.2052984
9.4486332 -3.4390476 1.2175483
9.4502163 -3.422682 1.2207799
9.4544992 -3.4062588 1.2057253
9.4455566 -3.4082322 1.2106044
9.4615393 -3.3845007 1.2133626
9.4652929 -3.3646681 1.2062643
9.4694853 -3.362097 1.2074289
9.4818935 -3.3431532 1.2134856
9.4687386 -3.331414 1.2159995
9.4788942 -3.3252892 1.2058798
9.4851885 -3.3130722 1.2157309
9.4837141 -3.2840724 1.2087784
9.5054531 -3.2755704 1.2050731
9.4921188 -3.2607746 1.2062117
9.5036449 -3.2547405 1.2178925
9.517911 -3.2496793 1.2162101
9.5050602 -3.2251334 1.2038964
9.5133553 -3.2128687 1.2173172
9.527689 -3.1984298 1.209262
9.524518 -3.1784878 1.2141093
9.531208 -3.1768858 1.2179452
9.5277309 -3.1613741 1.2175457
9.5372829 -3.1487205 1.2124068
9.5431118 -3.13398 1.2088157
9.5500593 -3.1122735 1.2180043
9.5486698 -3.1008427 1.2189937
9.5655794 -3.0867863 1.2112616
9.5701561 -3.0889394 1.2225213
9.5681353 -3.0612452 1.2149402
9.5780411 -3.0611901 1.214015
9.5727749 -3.0388937 1.2213998
9.5713263 -3.0245049 1.2109982
9.5894594 -3.0049763 1.2199455
9.5824347 -3.0040131 1.2103227
9.7796965 -3.0392523 1.1738671
9.7783136 -3.0411997 1.1707419
9.7979012 -3.0105758 1.1883444
9.7897387 -2.9996941 1.1704588
9.7928162 -2.9951336 1.1869262
9.9965944 -3.0424123 1.1348792
9.9912071 -3.0214951 1.1469983
9.993186 -3.0062711 1.1401472
10.004743 -2.9971404 1.13946
10.193848 -3.035651 1.1111423
10.204769 -3.0123117 1.108207
10.194437 -3.0146065 1.1096791
10.200961 -3.0015464 1.1081244
10.393998 -3.0362184 1.0685722
10.400276 -3.0163889 1.0751402
10.403001 -3.0052578 1.0782236
10.408881 -2.9837501 1.0682869
10.616098 -3.0387807 1.0444082
10.607282 -3.0118883 1.030934
10.617757 -3.0086889 1.0414038
10.80458 -3.0323114 1.0057663
10.819058 -3.0167122 1.0088265
10.814987 -3.0187869 1.010711
10.829341 -3.0009332 0.99903685
11.009103 -3.033484 0.95745826
11.025726 -3.0148122 0.96771616
11.025411 -2.9944546 0.96495837
11.225115 -3.031944 0.93171757
11.226235 -3.0305619 0.92579269
11.233861 -3.0029135 0.92826217
11.231934 -2.9820933 0.92580432
11.419832 -3.0216269 0.88864172
11.420577 -3.0185964 0.88953984
11.443185 -2.9854121 0.89319849
11.624568 -3.0361965 0.86643189
11.62917 -3.00453 0.85818982
11.644008 -2.9973876 0.85492963
11.826744 -3.0337012 0.83522791
11.840828 -3.0038712 0.81647789
11.848964 -2.9906325 0.82971776
12.030431 -3.0317109 0.79289067
12.038599 -3.0108638 0.78667229
12.044805 -2.9934928 0.78754252
12.242969 -3.0251091 0.75042665
12.233749 -3.0023291 0.75158811
12.444179 -3.0260324 0.71296805
12.435191 -3.011971 0.7204814
12.442919 -3.0100315 0.72443861
12.637554 -3.0242918 0.68649381
12.642069 -3.0082893 0.68049508
12.659799 -2.985882 0.68509239
12.847501 -3.024786 0.65852064
12.857422 -2.9961572 0.64774311
13.039915 -3.0293462 0.62071681
13.048825 -3.0109808 0.61461532
13.058871 -2.9975958 0.61458838
13.257407 -3.0213525 0.57604349
13.251579 -2.9974041 0.57729852
14.541632 -0.98134065 0.40096468
14.547597 -0.96922439 0.41160035
14.538737 -0.94920224 0.40286639
14.550157 -0.92835248 0.41096854
14.550345 -0.91654587 0.40688542
14.554462 -0.88091695 0.40592343
14.554048 -0.86619532 0.39482152
14.551719 -0.85284656 0.41141728
14.550679 -0.83490646 0.40745825
14.549011 -0.7989046 0.40262032
14.558332 -0.79137075 0.39990991
14.566871 -0.75925034 0.40902156
14.566016 -0.73734021 0.39785922
14.556399 -0.72533226 0.40724859
14.554855 -0.69442958 0.40814474
14.569201 -0.68067503 0.40436822
14.562555 -0.66857231 0.39500999
14.56478 -0.64000726 0.39869538
14.563572 -0.61366194 0.40001413
14.558377 -0.61013681 0.39702642
14.568316 -0.57841438 0.40126252
14.575515 -0.55924946 0.39730749
14.571797 -0.54200649 0.39494959
14.576889 -0.51541954 0.40428513
14.571342 -0.49138632 0.40420744
14.566663 -0.47399017 0.39756697
14.578179 -0.46419302 0.40271053
14.580308 -0.43309683 0.39609915
14.566094 -0.42410588 0.39551184
14.573172 -0.40117928 0.39812711
14.577231 -0.36915496 0.41214114
14.5655 -0.35074338 0.4049952
14.569785 -0.33683294 0.39476627
14.571683 -0.31858602 0.4107973
14.582889 -0.30661327 0.4105334
14.573989 -0.28001854 0.40733662
14.57842 -0.26257843 0.39360696
14.567966 -0.24365123 0.41064253
14.570871 -0.21955156 0.39633718
14.573162 -0.18896072 0.4046258
14.578039 -0.17486647 0.40460527
14.576901 -0.15303273 0.40266207
14.56859 -0.1274146 0.39429441
14.570022 -0.12036999 0.40383804
14.587456 -0.10256341 0.40501815
14.584597 -0.074072592 0.41245615
14.578513 -0.061538052 0.3969968
14.578671 -0.039816249 0.40012676
14.575837 -0.01551861 0.40701792
14.597329 0.01346718 0.51070273
14.588417 0.024383053 0.50160086
14.599457 0.053916629 0.51399314
14.588524 0.074921943 0.51166356
14.589195 0.097170003 0.51603836
14.599382 0.11669178 0.51787931
14.59072 0.13322337 0.50787032
14.589468 0.14356792 0.51005507
14.592729 0.17399575 0.51362067
14.599091 0.20154238 0.5011428
14.592315 0.21190244 0.51460999
14.602654 0.23336449 0.51862592
14.603863 0.24590798 0.51180828
14.597435 0.26758966 0.50562888
14.58865 0.2900418 0.50133067
14.58421 0.32280803 0.51618749
14.601584 0.32706839 0.5072093
14.588921 0.35026088 0.50820941
14.598413 0.37692609 0.51927125
14.591442 0.39019394 0.51751399
14.591966 0.41695553 0.50575143
14.585928 0.43435401 0.515086
14.583878 0.45328751 0.51659948
14.594981 0.48614821 0.51943058
14.579877 0.49060649 0.5043503
14.580445 0.51103717 0.50167322
14.595843 0.54928106 0.50289416
14.582234 0.5553292 0.50694585
14.589597 0.57136631 0.51730162
14.587993 0.60095793 0.50056487
14.584602 0.61162621 0.51023012
14.589422 0.6368382 0.51693511
14.583548 0.66060984 0.5022155
14.579158 0.67612344 0.51999956
14.577571 0.69719958 0.50188565
14.580875 0.71954 0.50384718
14.581475 0.73800153 0.50369835
14.583266 0.76360583 0.5092445
14.569081 0.77735305 0.51047558
14.585223 0.810305 0.5009473
14.564601 0.82070428 0.5017373
14.573615 0.83678842 0.50739068
14.569305 0.86789191 0.51646823
14.570248 0.8755281 0.50071317
14.568946 0.90252811 0.50568938
14.569502 0.9338116 0.51266247
14.571991 0.94670153 0.51775491
14.574304 0.96241874 0.508111
14.562133 0.9850148 0.51187503
14.571165 1.0048456 0.50825322
9.4183865 -4.9746866 1.1923747
9.4143353 -4.966579 1.1813799
9.4303007 -4.9444404 1.1768116
9.4362593 -4.9447031 1.1854056
9.4503622 -4.9244032 1.1814122
9.4548283 -4.9072762 1.1857704
9.4545822 -4.8894548 1.1842314
9.4564714 -4.8790102 1.1869892
9.4758472 -4.8636456 1.1916859
9.4733009 -4.8613906 1.1904551
9.4827242 -4.8347087 1.1816844
9.4861431 -4.8390207 1.187885
9.4985504 -4.814292 1.1830784
9.5063696 -4.8105111 1.1848536
9.5027647 -4.7995148 1.1937633
9.5151482 -4.7709222 1.1866254
9.5318708 -4.7694263 1.1841244
9.5270367 -4.7528744 1.178874
9.5449409 -4.7437601 1.1757848
9.5475235 -4.7239881 1.1817375
9.5488567 -4.701571 1.1811495
9.5614014 -4.7024932 1.1830174
9.5601273 -4.6777496 1.1763726
9.574028 -4.6719084 1.1802579
9.569685 -4.6563754 1.1818792
9.574234 -4.6351442 1.1788236
9.4142237 -4.5379071 1.2177674
9.4089766 -4.5383501 1.2261922
9.4184599 -4.5275187 1.2104338
9.4248362 -4.5007153 1.2211405
9.4371462 -4.4991708 1.2209482
9.4488506 -4.4716568 1.2265086
9.4424038 -4.471972 1.2234782
9.4492941 -4.4449229 1.2129456
9.4600515 -4.4487352 1.2245932
9.4724112 -4.4344983 1.22411
9.4816971 -4.4093509 1.2215434
9.4761257 -4.3957934 1.2254016
9.478961 -4.3790765 1.2269506
9.4860191 -4.3822894 1.2221532
9.5037651 -4.3594794 1.2257414
9.5012999 -4.3512344 1.2236763
9.5043774 -4.3356867 1.22812
9.5244055 -4.3194814 1.2264278
9.5138826 -4.2987328 1.2277299
9.5349894 -4.2918196 1.2100664
9.535594 -4.2817974 1.2243397
9.5336132 -4.2635059 1.2189509
9.5554724 -4.2485194 1.2170508
9.5588617 -4.2325974 1.2187012
9.557435 -4.2250323 1.2099164
9.5595779 -4.2060165 1.2161227
9.5796366 -4.20999 1.2246144
9.5841208 -4.1799836 1.2160407
9.586894 -4.1665292 1.2149367
9.590951 -4.157979 1.2274584
9.416481 -4.0763717 1.2504889
9.4170008 -4.0614166 1.2447238
9.4321136 -4.0505581 1.2606324
9.4253082 -4.0222473 1.2591423
9.440134 -4.0212817 1.251888
9.4461575 -4.0040727 1.250312
9.4383688 -3.9926858 1.2514164
9.459053 -3.982677 1.2491738
9.4511452 -3.9557388 1.2470232
9.4621153 -3.9505689 1.2600522
9.4655886 -3.9448309 1.2628647
9.4782906 -3.9242516 1.247498
9.4852095 -3.9142196 1.2498478
9.488018 -3.8966353 1.2473584
9.4893188 -3.889848 1.2526773
9.5033464 -3.862643 1.2620397
9.495779 -3.8488135 1.2496157
9.5092983 -3.8398685 1.2540194
9.5205555 -3.8243811 1.2521722
9.5096445 -3.8234556 1.2622983
9.531744 -3.8045702 1.244958
9.5366373 -3.7984774 1.2549851
9.526145 -3.7709424 1.2618243
9.5379839 -3.7660568 1.2530204
9.5473146 -3.7453103 1.2577688
9.5419464 -3.7359574 1.2564795
9.5459213 -3.719574 1.2557694
9.5574541 -3.7150559 1.2507467
9.5733719 -3.7046461 1.2479463
9.5674238 -3.6904945 1.2527986
9.5715828 -3.6795723 1.2632561
9.5783834 -3.6490674 1.2465186
9.595192 -3.6543462 1.2440212
9.5988216 -3.6330593 1.2531072
9.4092646 -3.55792 1.2834127
9.4087038 -3.5434184 1.2959712
9.4268351 -3.5301592 1.2915884
9.4242382 -3.5105662 1.2783921
9.4366007 -3.500236 1.2822667
9.4461441 -3.4810159 1.2869468
9.4405212 -3.4627793 1.2891955
9.4453373 -3.4628668 1.2885886
9.4533978 -3.4512515 1.2893353
9.4589424 -3.4210942 1.2779939
9.4535542 -3.4211988 1.2786343
9.4646711 -3.4068167 1.2806449
9.4683275 -3.3992376 1.2827761
9.4675827 -3.3791714 1.291355
9.4736233 -3.3716407 1.2771119
9.4835196 -3.3594463 1.2889299
9.4980774 -3.3377354 1.2858187
9.4948664 -3.316051 1.2894472
9.4910297 -3.3111305 1.2915117
9.5079203 -3.3054712 1.2905474
9.5134516 -3.2899873 1.2962857
9.5196056 -3.2681561 1.2832066
9.5077505 -3.2674191 1.2845005
9.5180082 -3.2521594 1.2926477
9.5168266 -3.2355731 1.2951064
9.5213833 -3.2137856 1.2965335
9.5377398 -3.202117 1.2864389
9.5309658 -3.1983182 1.2847897
9.547802 -3.1829965 1.2948155
9.5466843 -3.155405 1.2772486
9.5445843 -3.1468854 1.2819073
9.5482025 -3.1367972 1.2951323
9.5587244 -3.1231296 1.2958229
9.5705204 -3.1037517 1.2784956
9.570446 -3.0900846 1.2844706
9.5728111 -3.0763714 1.2789427
9.5765848 -3.0707941 1.2917869
9.5902452 -3.056464 1.295127
9.5822372 -3.0497525 1.2804798
9.5842371 -3.0285954 1.2801086
9.5886517 -3.0139568 1.2949355
9.5977058 -3.0000982 1.2865231
9.599966 -3.0000992 1.2784443
9.7911167 -3.0312533 1.2626204
9.7967844 -3.0279753 1.2609007
9.8084078 -3.0066566 1.2595422
9.8144846 -2.9858706 1.2504028
10.001929 -3.0332472 1.2284465
10.004232 -3.0351012 1.2136143
10.011868 -3.0192056 1.2265633
10.019114 -3.0031273 1.220769
10.210029 -3.0386896 1.1816624
10.203729 -3.0194402 1.1829441
10.20933 -3.0214336 1.1782597
10.21287 -3.0019977 1.1831852
10.423844 -3.0305836 1.1419722
10.424344 -3.0216022 1.1616482
10.415684 -3.0179 1.1577971
10.418829 -2.9961364 1.1581371
10.616603 -3.0253282 1.1266288
10.617901 -3.0168438 1.1110147
10.633384 -3.0104897 1.1223475
10.643522 -2.9946787 1.1186874
10.824703 -3.0307992 1.0850027
10.831471 -3.0140073 1.0902826
10.843144 -2.9995978 1.088143
11.037369 -3.0414438 1.0466716
11.041319 -3.0233901 1.0481497
11.041396 -3.0063903 1.0568492
11.232013 -3.0369942 1.0223955
11.234734 -3.0185513 1.015391
11.241818 -3.0088396 1.0199164
11.240214 -2.9931824 1.025423
11.445435 -3.0209534 0.97950041
11.440295 -3.0152612 0.98904574
11.440413 -3.0021007 0.97788805
11.649087 -3.0387592 0.94849771
11.639402 -3.0055811 0.95555431
11.651173 -2.9965401 0.9442153
11.842545 -3.0403538 0.92480618
11.842366 -3.0163662 0.92195004
11.855161 -2.9895155 0.91312706
12.043586 -3.0367258 0.89049357
12.046433 -3.0048764 0.88883644
12.057117 -3.0023928 0.87690938
12.248652 -3.0314512 0.84839147
12.257743 -3.019012 0.8508805
12.271203 -3.0004869 0.85030144
12.463221 -3.0210519 0.80872828
12.472416 -2.9984317 0.80992365
12.667615 -3.0263379 0.78479314
12.668343 -3.019269 0.78375995
12.660222 -2.9990864 0.78723121
12.855074 -3.0255995 0.75195414
12.87646 -3.0000479 0.75612271
12.865894 -2.9984708 0.74186212
13.072603 -3.0165372 0.70915806
13.069802 -3.0005629 0.71165645
13.278556 -3.0322468 0.66934967
13.267397 -3.0147085 0.68606132
14.574336 -0.96536189 0.50741291
14.566651 -0.95640039 0.50447339
14.567108 -0.93458015 0.51862121
14.572804 -0.90572709 0.51518995
14.56238 -0.89154369 0.51208508
14.578365 -0.87401634 0.50316834
14.56247 -0.85386294 0.50635427
14.578442 -0.82741886 0.51852196
14.579539 -0.80892342 0.51766092
14.581121 -0.78602618 0.50640017
14.568908 -0.76575828 0.5006274
14.577325 -0.75452769 0.50349396
14.582775 -0.72416365 0.50785679
14.582344 -0.70939833 0.50074679
14.578453 -0.68632525 0.5074926
14.59143 -0.66850543 0.5114364
14.57546 -0.64779055 0.51520252
14.582649 -0.63228655 0.50507993
14.581977 -0.59683859 0.51311839
14.580415 -0.58093357 0.50371814
14.587564 -0.55833906 0.51424819
14.588912 -0.54839557 0.51566982
14.593098 -0.51404268 0.50711495
14.581618 -0.50113255 0.51298344
14.583 -0.47309652 0.50158161
14.5911 -0.45303953 0.50765496
14.583115 -0.44987831 0.51409715
14.598867 -0.42042699 0.51569611
14.584469 -0.39251789 0.51239443
14.598081 -0.38701215 0.50464803
14.602263 -0.35517055 0.51914525
14.596948 -0.34276584 0.50323403
14.593026 -0.32693151 0.50132257
14.60052 -0.30330482 0.51196712
14.593855 -0.27899578 0.51029259
14.595758 -0.26725861 0.50831902
14.603708 -0.24414958 0.50914961
14.598071 -0.22590262 0.51907372
14.594005 -0.20264031 0.51654816
14.586608 -0.16632424 0.51916885
14.591436 -0.14635473 0.51327085
14.590734 -0.13220176 0.51941663
14.59409 -0.12244374 0.50103503
14.595509 -0.085635588 0.50591785
14.587543 -0.07590887 0.51474673
14.597874 -0.044665415 0.51494938
14.606202 -0.025831915 0.51789701
14.595333 -0.012966204 0.51872718
14.612241 0.01823375 0.60912991
14.608709 0.0390849 0.60880822
14.607771 0.044519 0.60809034
14.620905 0.069033243 0.62115943
14.620157 0.096716337 0.62362027
14.620999 0.10565679 0.62252271
14.606695 0.12649913 0.61078519
14.621192 0.1575688 0.60992414
14.615863 0.17689213 0.60752964
14.613453 0.18529971 0.6176337
14.611844 0.2127156 0.6158675
14.613935 0.23661418 0.61456025
14.615676 0.25961611 0.61829507
14.61667 0.27582338 0.6261521
14.610704 0.29138169 0.62130034
14.607172 0.30790943 0.62499732
14.602513 0.33028936 0.60914516
14.606089 0.34735036 0.62397134
14.608774 0.37929499 0.61772984
14.609036 0.3890709 0.61950523
14.619375 0.41750818 0.60830623
14.607919 0.42833436 0.62061584
14.615127 0.46122766 0.61553788
14.606041 0.47547019 0.62627816
14.604784 0.50413102 0.61218828
14.598647 0.52967095 0.6142382
14.596178 0.53099239 0.61828065
14.597829 0.55635774 0.61899745
14.594276 0.58490592 0.61127281
14.604455 0.59424245 0.61293876
14.59638 0.61447132 0.62265742
14.597078 0.64382625 0.62281847
14.610058 0.66099995 0.6154899
14.59793 0.68972731 0.62202179
14.596515 0.69786519 0.61683339
14.600981 0.72056186 0.61680472
14.587468 0.74151427 0.61771828
14.59797 0.76487017 0.62361902
14.58916 0.7854557 0.6176908
14.592597 0.79702938 0.62072319
14.597672 0.82136649 0.6236096
14.592436 0.84726804 0.61547726
14.587334 0.86704361 0.62414634
14.594873 0.89561516 0.62117153
14.588918 0.90372288 0.62596482
14.577744 0.91727698 0.61308628
14.586514 0.93832725 0.6207931
14.57617 0.97091615 0.61149013
14.591697 0.99576038 0.62240857
14.581267 1.0051353 0.624538
9.4180241 -4.9844675 1.254025
9.4305468 -4.9751749 1.2606969
9.4354763 -4.9578514 1.2673264
9.4528961 -4.943531 1.2658722
9.4488544 -4.9204359 1.2668468
9.457695 -4.9173489 1.2707704
9.4618587 -4.9040155 1.268669
9.4738026 -4.8994479 1.2664022
9.4851007 -4.879158 1.2561789
9.4871511 -4.8602138 1.2713603
9.5037928 -4.8454061 1.2589201
9.5110273 -4.8450274 1.2626204
9.5049152 -4.8266516 1.2704822
9.5254135 -4.8177714 1.2594926
9.5244398 -4.7998285 1.2584169
9.5244217 -4.7799234 1.2672369
9.5283089 -4.7627139 1.2561901
9.5500755 -4.7604022 1.2565004
9.5495577 -4.7536149 1.2638808
9.5587969 -4.7315807 1.2569766
9.5632 -4.7196908 1.271641
9.5751438 -4.7073336 1.2734358
9.5707693 -4.6878371 1.2603488
9.5742378 -4.6745729 1.2628751
9.4093199 -4.5824432 1.3024092
9.4205656 -4.5638237 1.2962209
9.4206123 -4.5479922 1.293947
9.429594 -4.5370498 1.3006803
9.4388676 -4.5332632 1.3008871
9.435504 -4.5068564 1.2898048
9.4452171 -4.5026474 1.2972804
9.4495764 -4.4930768 1.3037717
9.4557114 -4.4744444 1.2964084
9.4687414 -4.4588881 1.2889496
9.4642801 -4.4373975 1.2937003
9.4869919 -4.4310484 1.3039402
9.4834976 -4.4110212 1.2968724
9.4977112 -4.4083624 1.287599
9.4986391 -4.3827615 1.2889547
9.4997549 -4.3868384 1.3035516
9.5097704 -4.3674974 1.2891824
9.5272427 -4.3500743 1.2912004
9.531188 -4.3327737 1.2986586
9.5277519 -4.3286829 1.2884723
9.5368376 -4.3152761 1.2865667
9.5506563 -4.3053598 1.2977917
9.5546961 -4.2851233 1.2958169
9.5516491 -4.2768393 1.3032655
9.55931 -4.2537756 1.3030703
9.5683079 -4.2557254 1.3055452
9.5718851 -4.2337699 1.2940998
9.5810738 -4.2204347 1.2868077
9.5922613 -4.209228 1.3035375
9.590889 -4.1875134 1.2910711
9.4184647 -4.1037021 1.3310574
9.4248533 -4.0913906 1.3353148
9.4224472 -4.0810394 1.3264966
9.4380493 -4.0597167 1.3326415
9.441081 -4.0566955 1.328521
9.4438992 -4.0306201 1.329114
9.4491739 -4.0268941 1.3183163
9.462985 -3.999886 1.3275003
9.4494858 -3.9875784 1.3345288
9.4726973 -3.9825127 1.3299017
9.4634247 -3.9748757 1.3366601
9.4817781 -3.9465725 1.3225958
9.4843702 -3.9463787 1.3257403
9.4781265 -3.9362688 1.3370577
9.4980087 -3.9087942 1.3382382
9.4937515 -3.9041502 1.3323282
9.5100698 -3.8798618 1.3369706
9.5155706 -3.8673747 1.3354391
9.5102377 -3.853981 1.3330258
9.5119152 -3.8429506 1.3224808
9.5289469 -3.82675 1.3263679
9.5327177 -3.8177345 1.325345
9.5424061 -3.8116467 1.3312956
9.5352201 -3.7973046 1.3341278
9.5393333 -3.7885635 1.3311987
9.5446091 -3.7695441 1.3196698
9.5639553 -3.7596531 1.3191782
9.5679255 -3.7496881 1.3379148
9.5703449 -3.7304657 1.3367789
9.5703335 -3.7149568 1.3333993
9.5797577 -3.7077889 1.3329388
9.593051 -3.6822038 1.3282048
9.5853024 -3.6722653 1.3362622
9.5834856 -3.654829 1.3253577
9.6044827 -3.6585779 1.329883
9.6025314 -3.6423311 1.320109
9.6090336 -3.631999 1.3269
9.6150246 -3.6029391 1.3303224
9.6197329 -3.596683 1.3196267
9.6232872 -3.5756438 1.3310916
9.6234436 -3.5703666 1.3363692
9.6431208 -3.5569646 1.3338693
9.6380444 -3.5364606 1.3279384
9.6410074 -3.5229037 1.3260666
9.6530466 -3.5134621 1.3270619
9.6495924 -3.5110648 1.3309127
9.6563454 -3.4872406 1.3316973
9.6698704 -3.4824812 1.3281364
9.6667995 -3.4580503 1.3374192
9.6730137 -3.4550836 1.3343216
9.6706743 -3.4369607 1.3230745
9.6735935 -3.4241424 1.3317961
9.6939936 -3.4013622 1.3275812
9.6884441 -3.4005632 1.3234758
9.701004 -3.3726497 1.3353579
9.694541 -3.3730967 1.3361762
9.7119093 -3.3516777 1.3273505
9.710043 -3.3416021 1.3298094
9.724597 -3.3194475 1.3232177
9.7284155 -3.3159096 1.3261044
9.7291164 -3.2995234 1.3336188
9.7385521 -3.2850115 1.3204498
9.7366905 -3.2748737 1.3365524
9.7305946 -3.2550411 1.3199388
9.7403746 -3.2473855 1.3377168
9.7420177 -3.2309113 1.3215196
9.7444601 -3.2217679 1.3332063
9.7580576 -3.1991708 1.321427
9.7540951 -3.1866808 1.3182544
9.7635221 -3.1750154 1.325065
9.775816 -3.1672721 1.3347007
9.7756062 -3.1546979 1.3252808
9.7822084 -3.1285713 1.3324246
9.784893 -3.1131074 1.3258208
9.790946 -3.1124115 1.333286
9.7947578 -3.0946014 1.3236324
9.8023529 -3.0788589 1.3295226
9.8016167 -3.0740099 1.3244044
9.8090811 -3.0575953 1.3381642
9.8133535 -3.0362067 1.3299712
9.8044186 -3.0269578 1.3358972
9.825099 -3.0223341 1.3207669
9.8163414 -2.9955046 1.3381263
10.023482 -3.0479732 1.3049654
10.015306 -3.0208771 1.2911929
10.014576 -3.0143082 1.3015754
10.024172 -3.0044637 1.2940394
10.228732 -3.0362082 1.2653438
10.21914 -3.0279543 1.2717311
10.223289 -3.0196903 1.2658278
10.239223 -3.0046051 1.2554883
10.43047 -3.0485573 1.2237401
10.437239 -3.0297143 1.237466
10.441346 -3.0166905 1.2226268
10.444614 -2.9960899 1.2409115
10.643801 -3.034883 1.1994457
10.643714 -3.0135872 1.2061818
10.63607 -3.0010128 1.2037346
10.652051 -3.0022779 1.1952816
10.844412 -3.036998 1.1684856
10.84091 -3.0263507 1.1748445
10.847047 -2.99805 1.1584677
11.043992 -3.0398049 1.1340448
11.044479 -3.0288334 1.1404333
11.050106 -2.9987991 1.1328626
11.053995 -2.9834745 1.126369
11.259265 -3.0239928 1.0939934
11.260796 -3.0045927 1.1116915
11.259856 -2.9934101 1.0932764
11.461183 -3.0347748 1.0663209
11.457362 -3.0128896 1.0672292
11.459879 -3.0090775 1.0613071
11.656948 -3.0326629 1.0387305
11.671031 -3.0098181 1.0440583
11.671479 -3.0055664 1.0440062
11.855494 -3.0307403 1.011517
11.861901 -3.0159631 1.0069406
11.868251 -3.0038824 1.0060663
12.063639 -3.0252621 0.96832937
12.069293 -3.0116553 0.97657645
12.08031 -3.0061002 0.97072679
12.263774 -3.0297523 0.94036007
12.269795 -3.0236919 0.93267328
12.285559 -2.9877827 0.93156523
12.478385 -3.0223479 0.9060955
12.479441 -3.001267 0.90063244
12.480325 -2.998013 0.91339594
12.688561 -3.0185282 0.86934203
12.68401 -2.9930303 0.86800349
12.886119 -3.0314825 0.85109484
12.884433 -3.017487 0.8352412
12.896871 -2.9957757 0.84640253
13.083529 -3.0168371 0.81416208
13.090267 -3.0015049 0.81304544
13.288266 -3.0333159 0.77460146
13.280778 -3.0039942 0.77217364
13.287801 -2.9979861 0.7755878
14.582277 -0.96307689 0.61291164
14.581987 -0.95362985 0.6213094
14.589243 -0.93374449 0.61051136
14.590621 -0.9047187 0.62122673
14.5932 -0.88887358 0.61899298
14.591618 -0.86458611 0.61979932
14.590053 -0.84697849 0.61326206
14.58405 -0.82388335 0.61751324
14.593932 -0.80153471 0.60696316
14.586311 -0.7949475 0.62250811
14.584948 -0.76455349 0.62022102
14.59219 -0.75580382 0.60703397
14.587801 -0.72112387 0.61338329
14.592587 -0.70636213 0.60840774
14.608059 -0.69029027 0.61892474
14.601269 -0.65704077 0.61337495
14.595257 -0.64656848 0.62507671
14.602679 -0.62328178 0.61951596
14.594324 -0.61126781 0.61594456
14.59539 -0.5880022 0.61859941
14.611973 -0.56719851 0.61128587
14.60624 -0.54022223 0.61235797
14.607292 -0.51867568 0.60774457
14.614665 -0.49335697 0.61752605
14.597034 -0.47355074 0.62301105
14.609891 -0.46149075 0.62137598
14.61717 -0.43637076 0.60984218
14.616122 -0.42472801 0.62122285
14.609486 -0.40231138 0.62424397
14.619249 -0.37967104 0.61015606
14.611639 -0.36126205 0.61649603
14.616686 -0.32937154 0.60943532
14.602777 -0.31718662 0.62354308
14.604227 -0.29835796 0.62259054
14.615429 -0.27786115 0.62106413
14.612088 -0.26517922 0.61121672
14.607083 -0.24586208 0.62610739
14.610517 -0.20820794 0.61225796
14.605302 -0.1977776 0.62044144
14.62308 -0.17814253 0.61088085
14.606742 -0.1466479 0.619344
14.616715 -0.13060732 0.61931175
14.619599 -0.10894869 0.61107779
14.616562 -0.086285479 0.6212852
14.612544 -0.072836243 0.61160153
14.606972 -0.063115977 0.61421138
14.611524 -0.03875985 0.61574948
14.610937 -0.011301666 0.6145522
14.633574 0.013345649 0.73019844
14.62726 0.032814167 0.71828645
14.631358 0.055698503 0.71747845
14.623891 0.06833858 0.73232007
14.636363 0.083673634 0.72842902
14.640572 0.11581141 0.72680974
14.63496 0.12379931 0.71824795
14.639636 0.14611091 0.71901464
14.626893 0.17289874 0.72374541
14.63566 0.19905339 0.71554232
14.623201 0.2107254 0.72888798
14.639558 0.23609824 0.72128612
14.623973 0.24561128 0.71615267
14.627552 0.26772761 0.72324342
14.625944 0.30241498 0.72525346
14.620417 0.3214393 0.71898574
14.633242 0.335008 0.72029042
14.637476 0.35343739 0.72349161
14.622448 0.37933728 0.73306572
14.632123 0.39424574 0.72837996
14.633567 0.4169654 0.71495193
14.628327 0.4363395 0.72648299
14.615458 0.46045598 0.72711372
14.617425 0.48850682 0.7294479
14.626456 0.49533358 0.72605705
14.617468 0.5170452 0.72127867
14.622184 0.5320223 0.72965783
14.628176 0.55170321 0.71605575
14.61734 0.57685441 0.72794372
14.616051 0.59220666 0.71433085
14.610046 0.62955689 0.72302932
14.610586 0.64225072 0.73069417
14.622628 0.66268623 0.72206879
14.615273 0.68572992 0.72108829
14.610223 0.6984725 0.72652948
14.621754 0.72292405 0.73327827
14.608478 0.75281674 0.7146011
14.603552 0.76945519 0.71520281
14.604997 0.77604055 0.72055477
14.6183 0.80214697 0.72085911
14.617962 0.82308853 0.71811509
14.606295 0.84543723 0.72766733
14.602263 0.86072415 0.71725881
14.609578 0.88957983 0.72949898
14.595883 0.91433853 0.71408814
14.607602 0.93160921 0.72273648
14.606041 0.95661366 0.72088659
14.605775 0.97773081 0.71528566
14.606081 0.98135865 0.71588206
14.591711 1.0193851 0.72219831
9.4433041 -4.9926038 1.3326509
9.4393711 -4.9751892 1.334327
9.4609652 -4.9535136 1.3341837
9.4679241 -4.9520717 1.3376769
9.4656057 -4.9337649 1.3508043
9.4636326 -4.9165912 1.3454281
9.4767857 -4.9008942 1.3449669
9.4789963 -4.9004254 1.3390294
9.4939022 -4.8906093 1.3395362
9.507515 -4.8718138 1.3412511
9.501091 -4.8627357 1.3465196
9.5090218 -4.8445506 1.3360353
9.518611 -4.8317127 1.3340487
9.5280371 -4.8188386 1.3403174
9.5409384 -4.7951875 1.3316959
9.5469484 -4.780395 1.3470416
9.5475636 -4.7793164 1.3448685
9.547699 -4.762877 1.3499384
9.5618782 -4.7583623 1.331589
9.5765457 -4.7270465 1.3387904
9.5729094 -4.7289486 1.3418156
9.574523 -4.7096944 1.3497621
9.5856342 -4.6876087 1.3372732
9.5947399 -4.6828351 1.3443758
9.5900946 -4.6718798 1.3418376
9.5968103 -4.6616154 1.3407906
9.6188526 -4.6374183 1.3475114
9.6187029 -4.6197495 1.3373514
9.6236048 -4.6145473 1.3383771
9.6301384 -4.6013041 1.3373795
9.6438541 -4.5983057 1.341132
9.6405773 -4.5802827 1.3507814
9.6452274 -4.5577202 1.3491501
9.6573696 -4.5526047 1.338917
9.6565962 -4.5386672 1.3462547
9.6732655 -4.5245295 1.3504629
9.668869 -4.5148458 1.3454652
9.6911745 -4.4917893 1.3447241
9.683301 -4.4902902 1.3357643
9.696434 -4.468698 1.3466177
9.7085514 -4.4598107 1.3470306
9.704402 -4.4406037 1.3320185
9.7098827 -4.423131 1.3461118
9.7137136 -4.4198804 1.3318549
9.727293 -4.4037499 1.3380606
9.7281904 -4.3772779 1.3449205
9.7332773 -4.3815112 1.3479714
9.7533474 -4.3497291 1.3405778
9.7526569 -4.3520913 1.3411732
9.7629881 -4.3275728 1.3498423
9.7641544 -4.3171706 1.3338709
9.7657137 -4.2971325 1.3435702
9.7722416 -4.2978091 1.3371978
9.7728443 -4.2808318 1.3405222
9.779171 -4.2564335 1.3464147
9.7916851 -4.2572765 1.3452086
9.7910395 -4.2391534 1.3461899
9.8134251 -4.2270608 1.3453654
9.8083982 -4.2017407 1.3485823
9.8239479 -4.1921525 1.3427129
9.8281479 -4.1874428 1.3336323
9.8363571 -4.1671987 1.3509682
9.8342466 -4.1464329 1.3339974
9.8457441 -4.1310515 1.3403655
9.8405466 -4.1353116 1.3374848
9.8612232 -4.1130075 1.3401057
9.8606739 -4.0972795 1.3471863
9.8610868 -4.0850763 1.3326876
9.8606567 -4.0637922 1.349829
9.8834238 -4.0528312 1.3428704
9.8803015 -4.0435243 1.3469248
9.8880806 -4.0318432 1.3375186
9.8931761 -4.0080886 1.3351654
9.9012814 -3.9986329 1.3344728
9.8957348 -3.9801517 1.3357909
9.9072886 -3.9667525 1.3456761
9.9214449 -3.9596412 1.3375441
9.9226618 -3.9378371 1.3478621
9.9293604 -3.9421642 1.3457032
9.9331818 -3.9294059 1.3407363
9.9300241 -3.9054315 1.351299
9.9509029 -3.8993218 1.3397579
9.9423552 -3.8737407 1.3381786
9.9514351 -3.865659 1.3322545
9.9598026 -3.8487086 1.3510032
9.9694691 -3.8457706 1.3493348
9.9690018 -3.814224 1.3409536
9.9803829 -3.8069878 1.3405448
9.9820623 -3.7985611 1.3419694
9.9815636 -3.7718027 1.3423051
9.9960785 -3.7736707 1.3327603
10.001137 -3.7601113 1.3354629
9.9946346 -3.7405305 1.3498766
10.006534 -3.7172816 1.3384943
10.012489 -3.7110569 1.350177
10.017174 -3.7005386 1.3509051
10.02017 -3.6758416 1.3492796
10.034765 -3.6650977 1.3409826
10.028934 -3.6579893 1.3471971
10.044506 -3.6366746 1.3462476
10.040395 -3.6261213 1.3494998
10.046719 -3.6157663 1.3323743
10.055726 -3.5971508 1.3408849
10.059128 -3.5918541 1.3386927
10.071128 -3.5658004 1.3487657
10.07479 -3.560241 1.3353904
10.079162 -3.5368445 1.3327385
10.081888 -3.5239918 1.3468494
10.076298 -3.5220921 1.3340809
10.076901 -3.5097206 1.3486316
10.096537 -3.4865415 1.3397335
10.099405 -3.4821 1.3471808
10.105127 -3.4536932 1.3392272
10.099341 -3.4469075 1.3425467
10.111342 -3.4331253 1.3378894
10.113398 -3.4206638 1.3447539
10.122058 -3.4087951 1.3409704
10.128046 -3.3791447 1.3359882
10.128126 -3.3800094 1.3388474
10.135417 -3.365175 1.3400129
10.137239 -3.3555911 1.3502854
10.150144 -3.3280051 1.3509207
10.150476 -3.3195429 1.3458771
10.162834 -3.3016937 1.3335267
10.158493 -3.2966499 1.3408594
10.169475 -3.2743385 1.3465477
10.1673 -3.2681346 1.3499922
10.161323 -3.2406905 1.348968
10.170343 -3.237895 1.3329533
10.182203 -3.212517 1.3376405
10.175209 -3.2100053 1.3377728
10.198468 -3.1992586 1.3513457
10.202342 -3.1728292 1.3392286
10.201152 -3.1586709 1.3508023
10.207592 -3.1534641 1.3332548
10.201345 -3.1418664 1.3438474
10.220766 -3.1170132 1.3464658
10.223613 -3.1026881 1.3423443
10.225414 -3.083873 1.3468276
10.231182 -3.0777092 1.3424923
10.221617 -3.063031 1.3464656
10.232163 -3.0495658 1.3469762
10.236263 -3.0366786 1.3397005
