# .PCD v0.7 - Point Cloud Data file format
VERSION 0.7
FIELDS x y z
SIZE 4 4 4
TYPE F F F
COUNT 1 1 1
WIDTH 1558
HEIGHT 1
VIEWPOINT 0 0 0 1 0 0 0
POINTS 1558
DATA ascii
2.3464582 -3.0207541 1.8478562
2.334321 -3.0172651 1.8468482
2.3520455 -3.0146639 1.8594704
2.3441479 -3.0259719 1.8479948
2.3535187 -3.0195274 1.8504403
2.3496587 -3.0087886 1.8436203
2.3542695 -3.0172622 1.860351
2.3602369 -3.0124424 1.8543859
2.3724992 -3.0090344 1.8594807
2.3723786 -2.9981236 1.8442863
2.3751266 -2.9952822 1.8436166
2.3861969 -2.9888146 1.843184
2.3962548 -2.9888544 1.8420949
2.5180159 -3.1308868 1.7884831
2.5094202 -3.1377373 1.7959973
2.5232649 -3.1326659 1.7909746
2.5302846 -3.127197 1.794197
2.5340304 -3.1199698 1.7989519
2.531806 -3.1246843 1.7838215
2.5346718 -3.1137192 1.7963029
2.5423381 -3.1042011 1.7883209
2.5493298 -3.1078031 1.7834957
2.5558839 -3.1055331 1.7953141
2.5613437 -3.1047692 1.7916451
2.5511379 -3.0969865 1.7976308
2.5684414 -3.0997403 1.7851871
2.5607171 -3.0998497 1.7947053
2.57621 -3.0805848 1.7879375
2.5764532 -3.0879102 1.7929361
2.5815606 -3.0767312 1.7853744
2.5791447 -3.0822423 1.7837994
2.5887418 -3.0651131 1.795085
2.5935085 -3.0657763 1.7850969
2.5900886 -3.065321 1.7923231
2.6029947 -3.0594079 1.7837762
2.6018813 -3.0605233 1.788914
2.6083193 -3.0536895 1.7903742
2.6242704 -3.0556841 1.7875257
2.6134486 -3.0417526 1.7937716
2.6276205 -3.0470252 1.7876107
2.6342254 -3.0390201 1.7923466
2.6392503 -3.0457199 1.7906138
2.6355555 -3.0319495 1.7846138
2.6418676 -3.0258908 1.7954593
2.635401 -3.0312126 1.7886016
2.6403821 -3.021929 1.7970067
2.6504958 -3.010484 1.7886177
2.6620646 -3.0073593 1.7946
2.6707797 -3.0193226 1.7908739
2.6657357 -3.0013754 1.7982295
2.6745255 -3.0010796 1.7899381
2.668046 -3.0000098 1.7912892
2.6798286 -2.9868808 1.8027469
2.685606 -2.9916804 1.7965938
2.8096888 -3.1299911 1.7434925
2.8196428 -3.1245646 1.7339442
2.8179965 -3.1332495 1.7321534
2.8279557 -3.1145856 1.7297941
2.8238916 -3.1114216 1.7317722
2.836096 -3.1175115 1.7279922
2.8356504 -3.099016 1.7407972
2.8469081 -3.1111991 1.730955
2.8395112 -3.0957942 1.7305193
2.8435664 -3.0988007 1.7415553
2.8614631 -3.0893734 1.7333548
2.8642037 -3.0943699 1.7266624
2.8573904 -3.0853851 1.7273605
2.8687809 -3.0708082 1.7427919
2.8778064 -3.0846565 1.7374506
2.8888044 -3.0706565 1.7420768
2.8760169 -3.0614526 1.7412494
2.8960288 -3.065336 1.7442839
2.8861928 -3.0609558 1.7387623
2.8959155 -3.056854 1.7262671
2.8966687 -3.0591841 1.739226
2.9092155 -3.0430963 1.7432092
2.9150643 -3.0381389 1.7321919
2.9216058 -3.0461028 1.7317604
2.923573 -3.0293472 1.733483
2.920193 -3.0258942 1.7252022
2.9214337 -3.0195239 1.7421161
2.9218414 -3.0174308 1.7311312
2.9252777 -3.0294576 1.7405053
2.9431868 -3.0160396 1.7299538
2.948595 -3.0061412 1.7330388
2.9469564 -3.0079627 1.7281724
2.9492953 -3.0081966 1.7442182
2.9606111 -3.0061445 1.728249
2.9514894 -2.9863756 1.7449781
2.9640849 -2.9942307 1.7410972
3.1028731 -3.1213078 1.681567
3.1042802 -3.1157985 1.6780056
3.1146963 -3.1110797 1.6783367
3.1144805 -3.112673 1.6679989
3.1237071 -3.1130741 1.683467
3.1160126 -3.0993233 1.6730151
3.1234457 -3.0874381 1.6782248
3.1269186 -3.0884354 1.6813762
3.1344161 -3.082747 1.6801805
3.1386366 -3.0886502 1.6870077
3.1389699 -3.0744257 1.6788539
3.1577179 -3.0831597 1.6718878
3.1528986 -3.0658371 1.6853129
3.1684039 -3.0730839 1.6728107
3.1735656 -3.0554514 1.6755677
3.1741891 -3.0498548 1.6677295
3.1643546 -3.0611603 1.6674246
3.1797237 -3.0533223 1.6817641
3.1782379 -3.04231 1.6774281
3.1755502 -3.0313942 1.6828187
3.1796837 -3.044456 1.6780576
3.195657 -3.0230746 1.6801802
3.204658 -3.0308115 1.6752372
3.207078 -3.0273354 1.6786532
3.1969895 -3.0229843 1.6753016
4.0445604 -3.8109779 1.3254348
4.0504789 -3.8032258 1.3275555
4.0560842 -3.7843711 1.3330963
4.0560212 -3.7912626 1.325225
4.0716143 -3.7850959 1.3238395
4.0725904 -3.7790437 1.3249562
4.0687971 -3.76126 1.3230124
4.0871186 -3.7587111 1.3288836
4.0804892 -3.7579715 1.3337772
4.0972676 -3.7515438 1.3385621
4.0906868 -3.7366705 1.3195759
4.1019363 -3.7411902 1.3227036
4.1152987 -3.7254076 1.3390406
4.1141939 -3.7349834 1.3228333
4.1252098 -3.7142537 1.3271326
4.1148319 -3.7178276 1.3318163
4.1255627 -3.7104664 1.3286085
4.1343422 -3.7100475 1.3222675
4.1489844 -3.7015138 1.3309762
4.1485119 -3.7014494 1.3204157
4.1528168 -3.6932061 1.3390241
4.1581273 -3.6789451 1.3274009
4.1665573 -3.6765459 1.3258413
4.1713161 -3.6604676 1.3289796
4.1798601 -3.6585815 1.3271142
4.1726947 -3.6522732 1.3359339
4.1902051 -3.6604261 1.3263668
4.1844993 -3.6449838 1.331463
4.1924443 -3.6400752 1.3393302
4.1890903 -3.6408069 1.321492
4.1951675 -3.6223936 1.32612
4.1998448 -3.623822 1.3392247
1.2168665 -4.8281493 1.5455902
1.2312374 -4.8337207 1.5482594
1.232866 -4.8354344 1.5370671
1.2462045 -4.8331323 1.5397142
1.2469633 -4.8198466 1.5400519
1.2553182 -4.8181067 1.5421391
1.2611903 -4.8253446 1.54474
1.2208952 -4.6254849 1.5988564
1.2140192 -4.6257567 1.5926293
1.223411 -4.6307607 1.6035292
1.2370175 -4.6181407 1.595201
1.2393906 -4.617897 1.5996131
1.2444305 -4.6227694 1.6006136
1.2582759 -4.6210461 1.6022085
1.2047536 -4.4400992 1.6519232
1.2213203 -4.4428101 1.645101
1.2199719 -4.4263844 1.6493052
1.2212219 -4.4287872 1.6459394
1.2400357 -4.4245377 1.6606147
1.2326199 -4.4173656 1.6485901
1.2561016 -4.4230537 1.6474804
1.2512528 -4.4328332 1.6449003
1.2508135 -4.4240351 1.6557245
1.2190368 -4.2432895 1.7030904
1.2209305 -4.2371459 1.7079068
1.2159861 -4.2406325 1.7083323
1.2242172 -4.2316618 1.7034944
1.2366501 -4.227633 1.7145562
1.2457148 -4.2309804 1.7081614
1.2494524 -4.2279301 1.7072238
1.261163 -4.2275834 1.7188745
1.2517614 -4.2182674 1.7190135
1.2051268 -4.0316815 1.7627603
1.2237077 -4.0346799 1.7643913
1.233102 -4.0417027 1.7704809
1.2273102 -4.0395851 1.7713908
1.2419415 -4.0351496 1.75957
1.2317325 -4.0241923 1.7700685
1.2525829 -4.0300779 1.7755021
1.2470361 -4.0181322 1.7622595
1.2605493 -4.0203795 1.7676296
1.2657107 -4.0179291 1.7605728
1.213796 -3.8302531 1.831012
1.2260324 -3.8328242 1.8202195
1.2198973 -3.8316386 1.8207139
1.2198495 -3.8218796 1.8216273
1.2407092 -3.8231225 1.8252699
1.2297457 -3.8202045 1.818156
1.2492785 -3.8220642 1.8234341
1.2542423 -3.8150961 1.8189282
1.2459613 -3.8202381 1.8304373
1.2630478 -3.8258393 1.8226511
1.2730751 -3.8117609 1.8176789
1.2169707 -3.628598 1.8850048
1.2098351 -3.6392205 1.8752772
1.2231914 -3.6352465 1.873612
1.2174588 -3.6357663 1.8690004
1.2353666 -3.6326008 1.8855956
1.226158 -3.635251 1.8786125
1.2422253 -3.618284 1.8768712
1.2537841 -3.6149418 1.8882543
1.2568496 -3.6198547 1.872295
1.2521266 -3.6200793 1.8886656
1.2624289 -3.621727 1.8842345
1.2635041 -3.6155901 1.8875017
1.2748494 -3.6211741 1.8730563
1.2212119 -3.4364769 1.9329476
1.2260227 -3.4201224 1.9377533
1.2274264 -3.4180472 1.9382007
1.2218446 -3.424973 1.9339002
1.2345191 -3.425406 1.9312198
1.2385743 -3.4278369 1.9418974
1.2466679 -3.4200521 1.9306141
1.2511295 -3.4270236 1.9359398
1.2511579 -3.4179761 1.9256521
1.2544509 -3.422637 1.9280229
1.263296 -3.4226718 1.9322373
1.2754797 -3.4026918 1.9311233
1.2724667 -3.4061019 1.9303948
1.2698985 -3.3998852 1.9410441
1.2161847 -3.2259662 1.9861077
1.2263799 -3.2326889 1.9904803
1.2272501 -3.2161028 2.0009212
1.2168347 -3.2198374 1.9826674
1.2317425 -3.2283232 1.9917313
1.2363604 -3.2182937 1.9943975
1.2433466 -3.2241936 1.9952859
1.2545447 -3.2226827 1.9944044
1.2446264 -3.2089548 1.9883562
1.2539773 -3.2025628 1.9867615
1.2539752 -3.2078071 1.997499
1.2624838 -3.2073679 1.9998307
1.2753626 -3.2105677 1.9970591
1.2786798 -3.2086902 1.9888574
1.2837408 -3.1964092 1.9904679
1.2778631 -3.2040126 2.0003998
1.2946492 -3.1891298 1.982717
1.2923212 -3.1875465 1.9848244
1.2891092 -3.2003763 1.9989325
1.2998465 -3.1883478 1.9976991
1.3089867 -3.2008119 1.9894819
1.3088617 -3.189255 1.999958
1.311066 -3.1893048 1.9854819
1.3104961 -3.1905203 1.991125
1.321722 -3.1911552 1.9872842
1.3345557 -3.1821456 1.9940689
1.3373189 -3.1808257 1.9939591
1.3423966 -3.1863067 1.9936491
1.3295792 -3.1794703 1.9987196
1.3508672 -3.1663644 1.9940225
1.3509194 -3.1685841 1.995059
1.3427516 -3.1753919 1.9858439
1.3650575 -3.1644557 1.9947643
1.3528844 -3.1585476 2.0006483
1.366352 -3.1658688 1.9840699
1.375976 -3.1648092 1.9946676
1.372382 -3.165437 1.9847456
1.3886756 -3.1654346 1.9874967
1.3846565 -3.1626947 1.9952322
1.3857055 -3.1631095 1.994215
1.3820544 -3.147912 1.9891136
1.3994373 -3.1453197 1.9953338
1.4076024 -3.1448565 1.990613
1.4046851 -3.1409981 1.9899174
1.407649 -3.148102 2.000011
1.414032 -3.1500087 1.9892688
1.4110099 -3.1399333 1.9959971
1.418063 -3.1379862 2.0008199
1.4278646 -3.1444769 1.9864686
1.4253987 -3.134335 1.9897821
1.4419129 -3.1322577 1.9863665
1.4333229 -3.1372082 1.9836107
1.4509503 -3.138402 1.9993794
1.4438541 -3.1269183 1.9970615
1.4560596 -3.1368737 1.9856887
1.4583558 -3.124846 1.9904519
1.4699069 -3.1202378 1.9833269
1.4681835 -3.1129708 1.9961796
1.4712802 -3.1202943 2.000566
1.4800225 -3.1144726 1.9931122
1.4720756 -3.1165228 1.9857479
1.4807103 -3.1115465 1.991439
1.4865862 -3.1133237 1.9939361
1.4882281 -3.1065748 1.9859104
1.4875492 -3.1119957 1.9859171
1.4954944 -3.0994928 1.9959328
1.5082 -3.099808 1.9885321
1.5137779 -3.1062133 1.9863675
1.5122052 -3.0938859 1.9948425
1.5150161 -3.0971768 1.9870963
1.5303704 -3.092773 1.9952507
1.5183574 -3.0840898 1.9863261
1.5320324 -3.0938828 1.9935632
1.5282017 -3.0863838 1.9854816
1.5363423 -3.0839102 1.9899058
1.5444865 -3.0778351 1.9847536
1.5426434 -3.083395 1.9972004
1.5533967 -3.0877154 2.0011501
1.5619823 -3.0779431 1.9953299
1.55904 -3.0696919 1.9841148
1.5683483 -3.070416 1.9951936
1.5658081 -3.0674789 1.9928399
1.5743402 -3.0751901 1.9985712
1.5701063 -3.0710523 1.9896736
1.5777879 -3.0630913 2.0011156
1.5898906 -3.0713003 1.9964926
1.5968379 -3.0656636 1.9841636
1.596229 -3.0535822 1.9853623
1.5995668 -3.0572202 1.9941751
1.5970812 -3.0481031 1.9890747
1.6033773 -3.0539768 2.0010803
1.6207492 -3.0466871 1.9938468
1.6157643 -3.0551586 1.9967198
1.6165074 -3.0521541 2.0015426
1.6283499 -3.0457549 1.9921321
1.6316311 -3.0315373 1.9923126
1.6302863 -3.0346532 1.9959234
1.6366093 -3.0426562 1.9894038
1.6441278 -3.0315959 1.997028
1.6404558 -3.0272932 1.9915451
1.6516804 -3.0209627 1.9979585
1.6549073 -3.0215261 1.9894257
1.6508975 -3.0313365 1.9901793
1.6697576 -3.0246632 1.9916897
1.6734371 -3.0104036 1.9973452
1.6677029 -3.0171156 1.9949585
1.682146 -3.0094223 1.9871901
1.6801966 -3.0196526 1.9891471
1.6917245 -3.006608 1.9998866
1.6908731 -3.0014756 1.9926454
1.6845357 -3.0093555 1.989445
1.7046084 -2.9982426 1.9833858
1.6961449 -2.9953704 1.9852148
1.7084318 -2.9978654 1.9914099
1.7022258 -3.000905 1.9895514
1.7216719 -2.9939001 1.9986619
1.7187281 -2.99667 1.9931406
1.8232094 -3.1521556 1.9385079
1.8146799 -3.1536398 1.9311334
1.8368863 -3.140183 1.9265488
1.8318479 -3.1372678 1.9317355
1.8436056 -3.1384814 1.9256808
1.8493007 -3.1323564 1.9401382
1.8368212 -3.138139 1.9297345
1.8505331 -3.1343188 1.9339188
1.8623831 -3.1352406 1.9427303
1.8633398 -3.1232908 1.9263883
1.8587717 -3.1262379 1.9387231
1.8761176 -3.1221249 1.9270453
1.8660855 -3.1202126 1.9262898
1.8714651 -3.1277418 1.9259084
1.8820279 -3.1279132 1.9417666
1.8865322 -3.106786 1.9411968
1.8854902 -3.1225307 1.9322852
1.8940408 -3.1089528 1.9446282
1.9067723 -3.1079106 1.933478
1.9083114 -3.1102936 1.9316999
1.9135048 -3.1016228 1.9443909
1.9110295 -3.0999813 1.9386048
1.9168725 -3.0927427 1.9321352
1.9219564 -3.1044922 1.9355342
1.9266553 -3.0900428 1.9361537
1.9272085 -3.0954494 1.9352859
1.9271882 -3.0862546 1.936053
1.9382524 -3.0928619 1.9277714
1.941656 -3.0910873 1.9378996
1.9539056 -3.072119 1.9430062
1.9443733 -3.0722992 1.9341385
1.9475281 -3.0792933 1.9442618
1.9648933 -3.0647786 1.9389666
1.955785 -3.0695107 1.9392592
1.9700719 -3.0738711 1.931332
1.9649743 -3.0620019 1.9353232
1.9790052 -3.0544724 1.9258283
1.9737995 -3.0601947 1.9270388
1.9803083 -3.0468256 1.9273309
1.9969413 -3.0455153 1.943892
1.9986771 -3.058042 1.9375676
1.9915415 -3.0517144 1.9415382
1.9945252 -3.052319 1.9373063
2.0122099 -3.0463252 1.9256188
2.0101831 -3.0303338 1.9268416
2.0202253 -3.0437257 1.9371985
2.0142548 -3.0273685 1.9323436
2.0187855 -3.0204952 1.9390193
2.0245228 -3.0313873 1.9363109
2.0305483 -3.0299165 1.9321537
2.0331309 -3.0109766 1.9327047
2.0293851 -3.0234346 1.9368122
2.0496061 -3.017168 1.9375379
2.0455911 -3.0174716 1.9414747
2.0498846 -3.0040529 1.9386139
2.055397 -3.0048389 1.9395663
2.0512624 -2.9958389 1.934075
2.0622687 -3.0065475 1.9326503
2.0599468 -2.9957538 1.937521
2.0749125 -3.0031664 1.9410439
2.085717 -2.992224 1.9406822
2.1860883 -3.1471012 1.8884815
2.2017634 -3.1479745 1.8762615
2.1981602 -3.137078 1.8808959
2.1984892 -3.1460993 1.8761008
2.2159534 -3.133816 1.8876656
2.2143655 -3.1298704 1.8853707
2.2072821 -3.119118 1.8695016
2.2187698 -3.1348829 1.8815544
2.2351236 -3.1198738 1.883317
2.2349961 -3.1182473 1.8731389
2.2345026 -3.109453 1.8830447
2.2383544 -3.1093831 1.86903
2.2499821 -3.117312 1.882858
2.2462394 -3.109303 1.8846049
2.2576976 -3.1082165 1.8755696
2.2607162 -3.0931008 1.8874078
2.2614355 -3.0894468 1.8869203
2.2662811 -3.0986788 1.8875836
2.2631752 -3.0959268 1.8801661
2.2818277 -3.0976677 1.8712783
2.2702978 -3.0842633 1.8880825
2.2886689 -3.0913637 1.8818479
2.293021 -3.0711889 1.8845696
2.2911968 -3.0791047 1.8721797
2.2911148 -3.0799062 1.8777493
2.3019934 -3.0620284 1.8753017
2.3047054 -3.0677662 1.8733693
2.3069255 -3.052989 1.8790596
2.3098047 -3.0656438 1.8843508
2.3252616 -3.0639679 1.884744
2.3118262 -3.0581396 1.8753785
2.3151906 -3.058253 1.8757434
2.3323159 -3.0383229 1.8731077
2.3321583 -3.0445213 1.879375
2.3396065 -3.0351009 1.8816535
2.3326197 -3.0390975 1.8786167
2.3431807 -3.024673 1.8866426
2.3518045 -3.0323145 1.8862404
2.3461142 -3.0213587 1.8699722
2.3657107 -3.0192235 1.8721626
2.3656955 -3.0147963 1.8769581
2.3763106 -3.0112731 1.8784109
2.3672857 -3.0148888 1.8765587
2.3756206 -3.0029211 1.885267
2.370218 -3.00776 1.8801485
2.3870895 -3.0038364 1.8877803
2.3809195 -2.9935975 1.8865778
2.3827708 -2.9989758 1.874469
2.4042153 -2.9942811 1.8700451
2.4093869 -2.9942219 1.8844795
2.5165093 -3.1282666 1.8235081
2.5288665 -3.125891 1.8193218
2.5426717 -3.1367581 1.8282254
2.5346198 -3.1235037 1.8257962
2.5352712 -3.1198606 1.8152219
2.5507991 -3.1235504 1.8252591
2.5539541 -3.1176097 1.8222172
2.5559015 -3.114013 1.8304732
2.5657351 -3.1131618 1.8200941
2.5711398 -3.111325 1.8264385
2.5709741 -3.1063118 1.8252579
2.5663824 -3.0933268 1.8229384
2.5775993 -3.0909173 1.8262311
2.5777147 -3.0809355 1.8192512
2.595396 -3.0946729 1.8323812
2.5824978 -3.0772481 1.8182824
2.599632 -3.0810294 1.826579
2.5937192 -3.0672193 1.8149211
2.5960572 -3.0679266 1.8205569
2.6080112 -3.067575 1.824466
2.6063046 -3.0717304 1.8298187
2.6234121 -3.0648136 1.8245808
2.6181953 -3.0510111 1.8181707
2.616266 -3.0614192 1.8181547
2.6273515 -3.0584671 1.8208075
2.631562 -3.0527291 1.8172852
2.6416688 -3.034168 1.8263757
2.6400669 -3.045826 1.8256646
2.6468019 -3.0394466 1.8206284
2.6591678 -3.0254092 1.8323197
2.6554375 -3.0373695 1.8162258
2.6570547 -3.0165079 1.8234127
2.653429 -3.0251439 1.8207603
2.6633878 -3.019985 1.8240519
2.6733255 -3.0080109 1.8266417
2.665911 -3.0160918 1.8313097
2.6749687 -2.9983265 1.830873
2.6931119 -3.0064182 1.8151066
2.6905389 -2.9920251 1.822042
2.6829243 -2.989511 1.819331
2.6869957 -2.9949672 1.8209703
2.8231108 -3.1258042 1.7632253
2.838464 -3.1215539 1.7696934
2.8311594 -3.1315689 1.7576129
2.8471406 -3.1158652 1.7737935
2.8457062 -3.1117899 1.7581739
2.8489344 -3.1028652 1.7565948
2.8517201 -3.1000009 1.763193
2.8587341 -3.1039076 1.7604477
2.872678 -3.099622 1.7564739
2.8639052 -3.0954528 1.7632955
2.8767662 -3.0874934 1.7582892
2.8684268 -3.0885577 1.773594
2.8865499 -3.0812974 1.7749385
2.8925874 -3.0824215 1.7680352
2.8947995 -3.0693398 1.7612497
2.9013865 -3.0773845 1.7594253
2.9063888 -3.0669923 1.7564955
2.8979836 -3.0539293 1.7656832
2.9068272 -3.0512605 1.7751745
2.9116917 -3.0616965 1.7648474
2.923372 -3.0435984 1.7584854
2.9100406 -3.0381606 1.7670593
2.932008 -3.0389152 1.7588874
2.9353144 -3.0379422 1.7655792
2.9317117 -3.0390618 1.7613347
2.9413178 -3.0378928 1.7650213
2.9490938 -3.036015 1.7750701
2.9539342 -3.0268297 1.7741456
2.9479566 -3.0130825 1.771848
2.9514647 -3.0187471 1.7750661
2.9646399 -3.0170019 1.7723284
2.9714475 -3.0128534 1.7709684
2.9668231 -3.0109963 1.7647879
2.974021 -2.9900868 1.7755083
2.967905 -2.9970276 1.7610313
3.1125026 -3.1349382 1.7070889
3.1260073 -3.1127872 1.7074852
3.1295547 -3.1100261 1.7129709
3.1321716 -3.1174676 1.7081022
3.1324849 -3.1056201 1.7134615
3.1360102 -3.1048107 1.7164526
3.1367915 -3.1014016 1.699473
3.1362069 -3.0868185 1.7002254
3.1494358 -3.0892336 1.7177562
3.1533787 -3.081955 1.7042092
3.1628387 -3.0892274 1.7049426
3.1549006 -3.0873642 1.7034897
3.1673522 -3.0663164 1.7004545
3.1652837 -3.0670085 1.7056285
3.1783402 -3.0717385 1.7182947
3.1767499 -3.0572879 1.7074087
3.1781447 -3.0463946 1.7155643
3.1825535 -3.0604184 1.7139293
3.1877084 -3.0455401 1.7054994
3.190388 -3.0510392 1.6999624
3.1995146 -3.0313926 1.7027611
3.209368 -3.0239923 1.7030253
3.2177625 -3.0284421 1.6999335
4.1980162 -3.9427657 1.315887
4.1898255 -3.9434512 1.3185474
4.194293 -3.9300084 1.3112365
4.2078662 -3.9394469 1.3103911
1.2138618 -4.8354235 1.5768148
1.2261703 -4.8387132 1.5743413
1.2245347 -4.8375349 1.5776708
1.2237368 -4.8374882 1.5777919
1.247341 -4.8406582 1.5835229
1.2527792 -4.8350234 1.5729053
1.2442915 -4.8382902 1.5688913
1.2196903 -4.652236 1.623992
1.2268807 -4.647562 1.6280369
1.2304072 -4.6459455 1.6221054
1.2258314 -4.6321287 1.6384832
1.2429537 -4.6327667 1.6298885
1.2376002 -4.6418023 1.6407802
1.2555739 -4.6383953 1.6300173
1.2536662 -4.6381402 1.6343732
1.2073684 -4.4536033 1.6777902
1.2203101 -4.4499745 1.6810638
1.2292355 -4.4496551 1.6825052
1.2381122 -4.4486322 1.6869389
1.2310317 -4.4305687 1.6912985
1.238017 -4.4435639 1.6877756
1.2413778 -4.4259176 1.6819056
1.2561417 -4.4401031 1.6852825
1.2096061 -4.2377629 1.7454867
1.2242355 -4.2489047 1.7490629
1.2232184 -4.2426968 1.7498326
1.2304691 -4.2497568 1.7325469
1.2409911 -4.2340989 1.7338886
1.2329521 -4.2357697 1.7345517
1.2493442 -4.2307234 1.7515684
1.2500937 -4.2248926 1.7338716
1.2673178 -4.2418985 1.7320939
1.2586695 -4.2303362 1.7343953
1.2186289 -4.0350332 1.7874115
1.2181526 -4.0353909 1.792459
1.2212502 -4.0426955 1.8020262
1.2251152 -4.0486779 1.8028365
1.2316921 -4.0300636 1.7975997
1.2396084 -4.0454121 1.7889789
1.2481853 -4.0302887 1.8036827
1.2537766 -4.0403347 1.8024877
1.2616684 -4.0390725 1.8025486
1.2677803 -4.032372 1.7924254
1.2188566 -3.8533587 1.8467166
1.224878 -3.8440514 1.8438175
1.2159446 -3.837296 1.8519192
1.2365761 -3.8323228 1.8523368
1.2380154 -3.8464174 1.8496585
1.2342156 -3.838238 1.8499143
1.2417926 -3.8271215 1.8435675
1.244071 -3.8360515 1.8454413
1.265152 -3.8227248 1.8468359
1.2662915 -3.8289187 1.8531812
1.2773054 -3.8323321 1.8532847
1.2073153 -3.6324999 1.9161575
1.2143145 -3.6496506 1.9089465
1.229413 -3.631537 1.905009
1.2249268 -3.6373489 1.9052695
1.2377599 -3.632323 1.9119947
1.2308465 -3.6250806 1.9081137
1.2375839 -3.6409173 1.913573
1.2461927 -3.6210282 1.9106218
1.2561935 -3.6253526 1.8997318
1.2525374 -3.6240137 1.9036759
1.2689823 -3.6178668 1.9030966
1.2731508 -3.6298115 1.9036835
1.2069093 -3.4301832 1.9558408
1.2196708 -3.4417779 1.9653419
1.2126905 -3.4456236 1.9581643
1.232433 -3.4414644 1.9565177
1.2282922 -3.4356468 1.9573158
1.2296083 -3.4262969 1.9562771
1.2479708 -3.4320209 1.9691812
1.2354409 -3.4264727 1.9616845
1.2468528 -3.429549 1.9585874
1.2576828 -3.4335239 1.9617916
1.2490973 -3.4256086 1.9613004
1.25752 -3.4297402 1.9675343
1.2754412 -3.4256585 1.968236
1.2661823 -3.4266381 1.9714037
1.2752745 -3.4165604 1.958689
1.2851622 -3.4099658 1.9536172
1.2940087 -3.4098053 1.9611083
1.2957569 -3.4069693 1.9524274
1.2900058 -3.4175136 1.9589432
1.3011552 -3.4020174 1.9597507
1.3155062 -3.3998938 1.9667333
1.3093635 -3.3941324 1.9678373
1.3094522 -3.395232 1.9712695
1.33024 -3.3903706 1.9719616
1.334193 -3.4011943 1.9609647
1.3254287 -3.3869052 1.9547887
1.3315901 -3.3885422 1.9669927
1.3452399 -3.3932009 1.9602458
1.3502063 -3.3883784 1.961161
1.3416859 -3.3971715 1.955772
1.3539703 -3.3963759 1.9706998
1.3532346 -3.386483 1.9695752
1.3736005 -3.3812587 1.9655305
1.3773959 -3.3800018 1.9645206
1.3818806 -3.379544 1.9708532
1.3753659 -3.3726003 1.9696345
1.3826723 -3.3842425 1.9649322
1.3821802 -3.3669796 1.9537175
1.3949386 -3.3694923 1.9654653
1.3886093 -3.3652649 1.9665532
1.3968885 -3.3734899 1.9665633
1.4000926 -3.3671846 1.9545864
1.4021695 -3.3652451 1.9659469
1.4201989 -3.3642392 1.9566711
1.4172157 -3.3634748 1.9659534
1.4205623 -3.3539491 1.9602726
1.4226875 -3.3618376 1.9610366
1.4401077 -3.3549366 1.9571439
1.4463103 -3.359993 1.9688123
1.444258 -3.3560913 1.9627753
1.4432908 -3.3486209 1.966574
1.4623309 -3.342654 1.9547318
1.4493912 -3.3393149 1.9628764
1.4678092 -3.3426485 1.9700679
1.4769487 -3.3336649 1.9560578
1.4753675 -3.346031 1.9696013
1.4681027 -3.3409657 1.9532773
1.481599 -3.3431716 1.961869
1.4911999 -3.3238633 1.9634123
1.4924662 -3.3312926 1.9668585
1.4876927 -3.3243718 1.95577
1.5067149 -3.323091 1.968637
1.5138921 -3.319427 1.9628247
1.5092109 -3.3220193 1.9716541
1.5117183 -3.3201435 1.9674358
1.5202125 -3.3245177 1.9688137
1.5222476 -3.3208225 1.9532124
1.5279555 -3.3082941 1.9533544
1.5422522 -3.3108246 1.9707475
1.5380892 -3.3167462 1.9586474
1.5373694 -3.3120959 1.9713975
1.5455582 -3.3130744 1.9633516
1.546611 -3.3115246 1.9568863
1.5618483 -3.2993014 1.965739
1.5659121 -3.2892137 1.9543709
1.5657548 -3.2952712 1.9565258
1.5669721 -3.2839308 1.9602665
1.5725851 -3.2915165 1.9544199
1.5783371 -3.2894363 1.9639202
1.5814792 -3.2961471 1.9653703
1.592518 -3.2882028 1.9693356
1.5963038 -3.2766917 1.9701805
1.5920408 -3.2887468 1.9704272
1.6013094 -3.2701807 1.9607424
1.5994275 -3.2721636 1.9589843
1.6061743 -3.2789142 1.9690009
1.6150731 -3.2690544 1.968184
1.6277094 -3.2781854 1.9576011
1.6144959 -3.2661655 1.9669116
1.6307796 -3.2556012 1.9673178
1.6285102 -3.2585931 1.9534688
1.630203 -3.2623909 1.9689246
1.6527375 -3.2550402 1.9701129
1.6555154 -3.2630064 1.9676483
1.6486055 -3.2574372 1.9609752
1.6599343 -3.2497003 1.9653198
1.6612765 -3.2576411 1.9572861
1.6617985 -3.2375188 1.9578768
1.6717343 -3.2351797 1.9682364
1.6709774 -3.2411239 1.966903
1.6706235 -3.233901 1.9603139
1.6764172 -3.2295461 1.9676572
1.6976637 -3.2272139 1.9600744
1.7000951 -3.2266579 1.9622426
1.7000586 -3.2375629 1.9676907
1.6933457 -3.2216868 1.95858
1.7109741 -3.2290134 1.9592268
1.7205654 -3.2203591 1.9576876
1.7107441 -3.2263072 1.9561728
1.7112794 -3.2175472 1.9663929
1.7304777 -3.2136726 1.9615084
1.7230836 -3.2085328 1.9586453
1.7430295 -3.2066717 1.9557744
1.7353892 -3.2069011 1.9711132
1.7499137 -3.2116857 1.9531944
1.7498829 -3.2076986 1.9687926
1.7607381 -3.2105951 1.954699
1.7522367 -3.2084091 1.9668882
1.7621928 -3.2005496 1.9707515
1.7706306 -3.1966569 1.9609907
1.7692851 -3.198065 1.9527138
1.7830516 -3.1913624 1.9671801
1.7739516 -3.1892064 1.9611045
1.7819773 -3.179179 1.9523901
1.7853383 -3.1791127 1.9564756
1.790777 -3.1835592 1.9621263
1.7918104 -3.1816289 1.9624524
1.7987468 -3.1726754 1.9625303
1.7978688 -3.1782379 1.968027
1.8008507 -3.1598308 1.9549693
1.8140682 -3.1672344 1.9580505
1.8190054 -3.165333 1.9653748
1.8184053 -3.1569898 1.9523898
1.8317261 -3.1650755 1.9669602
1.8363289 -3.1542518 1.959119
1.8450136 -3.1624372 1.9643469
1.8393456 -3.1540334 1.9690145
1.8540001 -3.1431339 1.960139
1.8487288 -3.1375499 1.9631982
1.8489506 -3.1334178 1.9621552
1.8561112 -3.1404989 1.9711934
1.8663493 -3.1470695 1.9596115
1.8639083 -3.1386635 1.9538451
1.8684785 -3.1413567 1.9574591
1.8676156 -3.1238632 1.9693568
1.8789077 -3.1220977 1.9705229
1.8754241 -3.1304097 1.9575405
1.8966045 -3.1284726 1.9528989
1.8889058 -3.116209 1.9712765
1.9042625 -3.1081219 1.9712154
1.8985727 -3.1172693 1.9614964
1.9019173 -3.1205695 1.9626235
1.9136764 -3.1106987 1.9695673
1.9196655 -3.100642 1.9712226
1.9092646 -3.0958283 1.9677699
1.9307576 -3.1040995 1.9634749
1.9334133 -3.1002274 1.9682542
1.9230826 -3.0995443 1.9523506
1.9281067 -3.0909259 1.9660847
1.9315046 -3.0913131 1.9652739
1.9548377 -3.0817485 1.9526775
1.9484478 -3.0931942 1.9541364
1.9631814 -3.0772319 1.9628156
1.964855 -3.0796282 1.9588954
1.9681801 -3.0767689 1.9571263
1.9680487 -3.0767567 1.9644173
1.9636183 -3.0784252 1.9529058
1.9839636 -3.0747569 1.9593966
1.9884014 -3.0703933 1.9718189
1.9865695 -3.066957 1.9611614
1.9839228 -3.0645089 1.9573694
1.988676 -3.0527682 1.959427
1.9948841 -3.0506077 1.9547359
2.0097678 -3.0510838 1.9649316
2.0007272 -3.0525408 1.9552635
2.0099137 -3.0384316 1.9628786
2.0063872 -3.0530515 1.9660902
2.0113454 -3.0316207 1.970229
2.0227904 -3.0300434 1.9559844
2.0266538 -3.0345848 1.962423
2.0398557 -3.0260563 1.9685507
2.0292621 -3.0370541 1.963654
2.0407217 -3.026119 1.9581468
2.0474863 -3.0245724 1.9693867
2.0444427 -3.0163338 1.9563866
2.0517271 -3.0231729 1.9547067
2.0466223 -3.0177984 1.9556122
2.0647254 -3.0117221 1.9551474
2.0669632 -3.0184529 1.9534533
2.0749526 -3.0055685 1.9644051
2.0693762 -3.0037265 1.9610668
2.0699239 -2.9967189 1.9639063
2.0855706 -3.0024881 1.95485
2.0957062 -2.9857252 1.9645041
2.0970776 -2.9962347 1.9595543
2.1951377 -3.1415648 1.9097704
2.2020414 -3.1381867 1.8976536
2.2098463 -3.1409216 1.9087533
2.2171819 -3.1456313 1.9102561
2.2228191 -3.12656 1.9017715
2.219404 -3.1372693 1.9122511
2.2326462 -3.1316314 1.9068547
2.2287235 -3.1345432 1.9127997
2.2357402 -3.1315117 1.9126122
2.2524066 -3.1112971 1.8990141
2.2441189 -3.1068995 1.9150593
2.2611899 -3.1199987 1.9114165
2.2661397 -3.1096895 1.9019663
2.2621846 -3.1164365 1.9047281
2.2597282 -3.1019337 1.9034765
2.2687826 -3.0952294 1.9084249
2.2683125 -3.0996621 1.9159142
2.2824414 -3.092392 1.8973887
2.2825108 -3.0824757 1.8987857
2.2823884 -3.0802588 1.8972821
2.2886634 -3.0906913 1.9170548
2.2909791 -3.0884101 1.9006008
2.3096476 -3.0855322 1.9113226
2.2988615 -3.0709579 1.9121578
2.3108327 -3.0631843 1.90435
2.3215477 -3.0706961 1.9000947
2.3172066 -3.0630133 1.908249
2.3203502 -3.0655327 1.9005094
2.324964 -3.0523093 1.8995163
2.3309703 -3.0635302 1.8975641
2.3354685 -3.0527942 1.9019974
2.3397348 -3.0440555 1.9055239
2.3475425 -3.0409572 1.9087341
2.3460677 -3.0529494 1.9033185
2.3454232 -3.0372705 1.9024706
2.3569665 -3.0351717 1.9108988
2.3642499 -3.0417054 1.9037915
2.359683 -3.0293815 1.9109409
2.367372 -3.0367258 1.9080837
2.3740633 -3.0223413 1.9107692
2.3787978 -3.0277317 1.9009489
2.3879609 -3.0131242 1.9166191
2.3806458 -3.0149727 1.9121337
2.3965364 -3.0025556 1.9123961
2.3870068 -3.0150378 1.9050715
2.3966246 -3.0002267 1.9165738
2.3946657 -3.002378 1.8982648
2.4055953 -2.9933374 1.9089959
2.4036694 -3.0008442 1.9090929
2.4188814 -2.9858916 1.9002788
2.5372133 -3.1402764 1.8476261
2.5454903 -3.139708 1.8614204
2.5494328 -3.1306725 1.8500528
2.5488846 -3.1299596 1.8477831
2.5485942 -3.1229849 1.8497063
2.5609741 -3.1105964 1.8431096
2.5648513 -3.1243658 1.8510246
2.5704145 -3.1114004 1.8446378
2.5667038 -3.1045508 1.8473954
2.5830851 -3.1066744 1.8617512
2.5906475 -3.0950856 1.8482064
2.5806987 -3.0996048 1.8516954
2.5845394 -3.0845616 1.8606795
2.5970075 -3.0944414 1.8468298
2.6072009 -3.0889821 1.856402
2.5993125 -3.0755081 1.854804
2.6048222 -3.0825171 1.8558716
2.6182418 -3.0683181 1.8463334
2.6252697 -3.0821803 1.8600676
2.6150498 -3.0640063 1.8480951
2.6191809 -3.0626104 1.8441219
2.6297619 -3.0554984 1.8520343
2.643827 -3.048876 1.8513886
2.6468711 -3.0541108 1.8572553
2.63606 -3.0534723 1.844968
2.6548164 -3.0450375 1.842535
2.6519694 -3.0354033 1.8494675
2.6501849 -3.0366545 1.8469673
2.6588571 -3.0351779 1.8469673
2.6612585 -3.0282159 1.8614976
2.6716819 -3.0214126 1.8537742
2.6781271 -3.0283132 1.8495073
2.6724794 -3.0254283 1.8482012
2.6861808 -3.0237739 1.8579926
2.6857438 -3.0171998 1.844749
2.6930141 -3.0161338 1.8562604
2.6978464 -3.0021739 1.8537207
2.689606 -2.9942524 1.8462383
2.6988599 -3.0019078 1.8565352
2.7081089 -2.9914057 1.8500907
2.7118826 -2.9947186 1.8467402
2.8367424 -3.1385276 1.7976272
2.8487146 -3.1293247 1.8028249
2.859375 -3.1306427 1.8059498
2.8598213 -3.1166155 1.7919159
2.8670185 -3.11953 1.7952092
2.8657215 -3.1018195 1.7887177
2.8618791 -3.0965512 1.8063971
2.870549 -3.1062257 1.7926646
2.8695099 -3.0908425 1.8056722
2.8820212 -3.0958717 1.7915987
2.891176 -3.0890367 1.79265
2.8863592 -3.0946043 1.7989447
2.8867345 -3.0738807 1.7999552
2.910229 -3.0770743 1.7910211
2.899684 -3.0774291 1.795194
2.9124267 -3.0634334 1.7930934
2.9186721 -3.0576272 1.7922707
2.9225914 -3.0674925 1.7977772
2.9127724 -3.0627325 1.7946643
2.9359555 -3.0497921 1.8025136
2.9250593 -3.052021 1.7931834
2.9352086 -3.0433862 1.794265
2.9316471 -3.0386896 1.7920437
2.9490902 -3.0348063 1.8025959
2.9375937 -3.0257702 1.7887545
2.9502642 -3.0282879 1.8048642
2.9608285 -3.0288513 1.8027295
2.9505641 -3.0297809 1.8066728
2.9658008 -3.0248086 1.7913133
2.9779186 -3.0209277 1.8048257
2.97788 -3.0122113 1.7920343
2.9685054 -2.9976082 1.8037972
2.9802067 -2.9908235 1.7961702
2.9896808 -2.9908469 1.788334
2.9897013 -2.9866123 1.8054354
3.1315064 -3.1301925 1.7407677
3.1339738 -3.1110077 1.7465733
3.1343002 -3.1063149 1.7473332
3.1385641 -3.1106083 1.7489429
3.1474621 -3.1070001 1.7503055
3.1498666 -3.1076417 1.7362506
3.1594734 -3.1018627 1.7326591
3.1608369 -3.0885816 1.7317066
3.1545675 -3.0900202 1.7465792
3.1604557 -3.0756259 1.7415287
3.163439 -3.0792403 1.7449803
3.1768956 -3.0847535 1.7432582
3.1761513 -3.0743003 1.7418641
3.1761608 -3.0639372 1.7318059
3.1977737 -3.0690241 1.7409788
3.2007432 -3.0560486 1.7451273
3.1896515 -3.0578017 1.7506658
3.1949623 -3.042521 1.7450902
3.1993141 -3.037833 1.7336749
1.2222154 -4.8523149 1.619138
1.2156092 -4.8569574 1.6118438
1.2323035 -4.8422523 1.6040434
1.2419702 -4.852911 1.6047935
1.2475635 -4.8438272 1.6169167
1.2384672 -4.8518586 1.6073166
1.2616488 -4.849791 1.614593
1.2036197 -4.6570797 1.6703794
1.2142521 -4.6561985 1.6593502
1.2350826 -4.6548176 1.6761241
1.2281148 -4.6551309 1.6656524
1.2310058 -4.648828 1.6688517
1.2466 -4.6526065 1.665061
1.2543916 -4.6334915 1.6689063
1.2629308 -4.6355538 1.6601208
1.2133682 -4.4474983 1.7153205
1.2241659 -4.4490805 1.717114
1.2222377 -4.4473138 1.7233434
1.2423532 -4.4414153 1.7287689
1.231437 -4.4411855 1.7138814
1.2372924 -4.4544201 1.7169777
1.2526736 -4.4512572 1.7246646
1.2512518 -4.4389925 1.7268516
1.2137401 -4.2600145 1.7801636
1.2121091 -4.2444677 1.7759333
1.2216904 -4.2547464 1.772027
1.2327284 -4.2404494 1.7648515
1.2455575 -4.2543011 1.7777467
1.2446138 -4.2542553 1.7748353
1.2490932 -4.2513413 1.7704406
1.2586826 -4.2487855 1.7710894
1.2513659 -4.2370586 1.77317
1.2171112 -4.0482235 1.8195168
1.2194057 -4.0556245 1.8239424
1.2212694 -4.0506015 1.8222311
1.2189003 -4.0419397 1.8285496
1.2326226 -4.0481801 1.8274646
1.239167 -4.0475297 1.8308194
1.2386042 -4.0537586 1.8325032
1.2551277 -4.041441 1.8353758
1.247254 -4.0454645 1.8190713
1.2600266 -4.0427332 1.8327518
1.2176812 -3.8616023 1.8825191
1.2248791 -3.8478804 1.8894634
1.2165004 -3.8579581 1.8797412
1.226408 -3.8560662 1.8769829
1.2426318 -3.8461108 1.8862784
1.2377681 -3.8352675 1.8745111
1.2362568 -3.850641 1.8747939
1.2564269 -3.8351426 1.8856648
1.2594672 -3.8331671 1.8907748
1.2662007 -3.8440659 1.8768711
1.2666121 -3.845758 1.8783875
1.2030333 -3.6425793 1.9256854
1.2061557 -3.6563041 1.9274768
1.2195532 -3.6455021 1.9294642
1.2301903 -3.6438546 1.9397037
1.2301205 -3.652447 1.9390756
1.238281 -3.6479242 1.9413556
1.2467219 -3.6486022 1.9374081
1.2460313 -3.631609 1.9337026
1.2504482 -3.6332486 1.9373575
1.260959 -3.6398408 1.9375718
1.2529838 -3.6353586 1.9361508
1.2585638 -3.6328573 1.9393256
1.2659326 -3.6220598 1.9316158
1.211959 -3.4437857 1.9976003
1.2112958 -3.4527047 1.9795512
1.2300023 -3.4385576 1.9843169
1.2309864 -3.4410617 1.9866894
1.2280205 -3.4493463 1.9843332
1.2413468 -3.4383011 1.9986079
1.2383256 -3.4418297 1.9845539
1.2555163 -3.438416 1.9932388
1.2512836 -3.4345024 1.9826741
1.2502233 -3.4282973 1.9811492
1.2614508 -3.4378135 1.9941952
1.2649199 -3.4328117 1.9966389
1.2703373 -3.4339197 1.9915395
1.2805182 -3.4188576 1.982239
1.2730691 -3.4315727 1.9829507
1.2832612 -3.4157708 1.9929973
1.2877254 -3.4277968 1.9977983
1.2981334 -3.4074364 1.9842894
1.2972236 -3.4161108 1.9929637
1.3057467 -3.410645 1.9861059
1.3127422 -3.4187489 1.9879879
1.3127815 -3.4081783 1.9931213
1.3152616 -3.4169827 1.9953895
1.3326398 -3.4003959 1.9909559
1.3207151 -3.3960454 1.9920365
1.3294995 -3.4062877 1.9871417
1.3283279 -3.3968482 1.9884369
1.3519547 -3.4017806 1.9883018
1.34207 -3.3924 1.9976948
1.360857 -3.3992715 1.9907496
1.3527834 -3.3839195 1.9938898
1.3665894 -3.3932984 1.9857831
1.3655262 -3.3849642 1.987048
1.3667284 -3.3840165 1.9830692
1.3834945 -3.3797557 1.9816033
1.3813384 -3.3914702 1.9880509
1.3942848 -3.3891134 1.9820875
1.3885239 -3.3878841 1.9893343
1.4026251 -3.3812914 1.9840977
1.4061166 -3.380661 1.990119
1.4026603 -3.3728507 1.9896148
1.4023414 -3.3759785 1.997848
1.413913 -3.3649108 1.9925249
1.426747 -3.3773797 1.9862522
1.4155991 -3.3578186 1.9823364
1.4229827 -3.3651471 1.9847958
1.4368111 -3.3642597 1.987695
1.4446734 -3.3538616 1.9898998
1.4397798 -3.3540876 1.9967669
1.4496467 -3.3555446 1.9823277
1.445532 -3.3451781 1.9937555
1.4609104 -3.3598478 1.9801053
1.4645191 -3.3476603 1.9955661
1.4628019 -3.3473508 1.9965949
1.4748092 -3.3428984 1.9952149
1.4828979 -3.3357687 1.9845301
1.473443 -3.339514 1.9927496
1.4868846 -3.3400977 1.9893777
1.482528 -3.3302732 1.9837837
1.4850357 -3.3352771 1.99473
1.4931012 -3.3290882 1.9940335
1.5125917 -3.3322103 1.9966515
1.4984291 -3.3364105 1.9894345
1.5197245 -3.3270121 1.9804981
1.5220456 -3.3302875 1.9939787
1.5229838 -3.3301525 1.9925472
1.5332341 -3.3241477 1.9853216
1.5317011 -3.3093741 1.9954573
1.5267932 -3.323627 1.9933558
1.5362884 -3.320039 1.9841822
1.536727 -3.3130493 1.979123
1.5564659 -3.3112302 1.9888605
1.5588199 -3.3082321 1.9923099
1.5539539 -3.3085938 1.9830637
1.5601485 -3.3112864 1.9884415
1.5598207 -3.2976906 1.9918469
1.5780581 -3.2984908 1.9791434
1.5690672 -3.3054674 1.9790931
1.5902088 -3.3019924 1.9826633
1.5892458 -3.2936599 1.9876883
1.5991062 -3.2895236 1.9975634
1.6039042 -3.2902799 1.9871112
1.5984367 -3.2933106 1.9975048
1.5964155 -3.2858331 1.9853777
1.605145 -3.2767835 1.9883921
1.6192491 -3.2726815 1.9828304
1.6167555 -3.2749584 1.9942902
1.6215552 -3.2708397 1.9965883
1.6263015 -3.2701898 1.98017
1.6346149 -3.2751102 1.9898863
1.6279501 -3.2747748 1.9815347
1.6511571 -3.2742424 1.9902163
1.643909 -3.2637758 1.9936498
1.6470512 -3.2599254 1.9823374
1.6580629 -3.2519374 1.9978445
1.652086 -3.2544341 1.9952173
1.6605442 -3.2640102 1.9880705
1.6604589 -3.2533691 1.9827931
1.6826686 -3.2425611 1.9959099
1.6684566 -3.2480161 1.9818441
1.6839576 -3.244709 1.9858454
1.6911039 -3.2427649 1.9881043
1.6869285 -3.2326357 1.9985486
1.7061833 -3.243928 1.9905559
1.6941224 -3.2287686 1.9882571
1.6975653 -3.2241437 1.9811611
1.7183777 -3.2356145 1.9821825
1.7120399 -3.2317214 1.991532
1.7204214 -3.2301662 1.9893699
1.7219164 -3.2273672 1.979427
1.7293423 -3.2136083 1.9904591
1.7407663 -3.2172408 1.9810969
1.7344457 -3.2095835 1.9795191
1.738566 -3.2072024 1.9842979
1.7546903 -3.2214103 1.9818784
1.7485123 -3.2167001 1.9817201
1.7552351 -3.2156987 1.9877207
1.7629757 -3.2055533 1.9952382
1.7600625 -3.2115409 1.981928
1.7749836 -3.2005451 1.9890276
1.7799585 -3.2066317 1.9874908
1.7759621 -3.1857989 1.9799196
1.7826 -3.1957881 1.9975979
1.7876568 -3.1861551 1.9952428
1.7974888 -3.1848924 1.9962593
1.8048978 -3.1942992 1.9795593
1.792145 -3.1814711 1.9814274
1.8053894 -3.1853867 1.9910017
1.8061477 -3.1766968 1.9921424
1.8135923 -3.1775634 1.9818271
1.8081331 -3.1779292 1.9829673
1.8211335 -3.1667624 1.9824756
1.8265592 -3.173425 1.989524
1.8296596 -3.1594949 1.9837284
1.8304014 -3.1601932 1.9967123
1.8321563 -3.1579397 1.9978001
1.8372076 -3.1528924 1.9892205
1.8441234 -3.1590507 1.9942232
1.8606098 -3.1488972 1.9854079
1.8582333 -3.1557424 1.9932116
1.865538 -3.1524861 1.9981289
1.8739792 -3.1406658 1.9916863
1.8619251 -3.1478522 1.9960483
1.8769157 -3.1363671 1.9918011
1.8861072 -3.1285655 1.9843104
1.888279 -3.1434309 1.9965218
1.8915349 -3.1376636 1.9912229
1.8862075 -3.1293952 1.9972017
1.9058791 -3.1290514 1.9907639
1.8967317 -3.1154919 1.994905
1.9153844 -3.1190314 1.9797198
1.9189508 -3.1185303 1.9937665
1.9160708 -3.11448 1.9980322
1.917549 -3.1198323 1.9911822
1.9147763 -3.1203823 1.9895269
1.9245093 -3.1031468 1.9903929
1.9264498 -3.1070375 1.9944072
1.9430877 -3.1006341 1.9840645
1.9457006 -3.0989339 1.9914341
1.941872 -3.0907526 1.9897259
1.9421808 -3.0882859 1.9818345
1.9473004 -3.086617 1.9917945
1.9664631 -3.0921881 1.9831488
1.9698877 -3.0806375 1.9864891
1.9664584 -3.0762122 1.9866109
1.9613701 -3.0864029 1.9812944
1.9771439 -3.0789986 1.9894069
1.976928 -3.0792978 1.9812366
1.9863658 -3.081322 1.9920739
1.9831693 -3.0715086 1.9883943
1.9982609 -3.065717 1.9844768
2.0054569 -3.0591321 1.9795179
2.0026093 -3.0577071 1.9862713
2.011112 -3.0571766 1.9818528
2.0029509 -3.0643904 1.9791307
2.0149081 -3.0610042 1.9834833
2.0215447 -3.0461514 1.9924996
2.0162899 -3.0558181 1.9984699
2.0228608 -3.0403469 1.9796634
2.0402651 -3.0323682 1.9879115
2.0339859 -3.0335903 1.9791864
2.0437853 -3.0319042 1.9942756
2.0486219 -3.0373507 1.9880128
2.0402079 -3.0385747 1.9794978
2.0473711 -3.0322363 1.9809803
2.0518086 -3.0182137 1.9830546
2.0605948 -3.0218234 1.9971809
2.058393 -3.0149527 1.9988339
2.0621576 -3.0257723 1.9931455
2.0671117 -3.0034447 1.9926171
2.0803099 -3.0116494 1.9880424
2.0847788 -3.0143039 1.9823232
2.0843329 -2.9963672 1.9883213
2.0976202 -3.011086 1.9902531
2.1023886 -3.0028787 1.995675
2.0886354 -2.9944673 1.9922652
2.0969522 -3.0014992 1.9823859
2.0993915 -2.9949582 1.9965111
2.2140613 -3.1466193 1.9432045
2.232677 -3.1396439 1.9430882
2.2307601 -3.1436834 1.9318835
2.2442639 -3.1274631 1.9351346
2.2320442 -3.1358936 1.9334271
2.2458184 -3.1352377 1.9340996
2.2415202 -3.1340106 1.9400721
2.2426391 -3.1307294 1.931543
2.2603443 -3.1233203 1.9330631
2.2681656 -3.1176567 1.9381995
2.2701077 -3.1120856 1.9264894
2.2724793 -3.1122956 1.9386637
2.27473 -3.098815 1.9437015
2.2857718 -3.0962186 1.9418563
2.2800603 -3.1102254 1.9284711
2.2926366 -3.0948377 1.9326262
2.285881 -3.0881233 1.9348869
2.3050935 -3.0846605 1.9373008
2.2957728 -3.0878589 1.94399
2.3079674 -3.0875981 1.9332029
2.305294 -3.0897527 1.9448406
2.3109059 -3.0738888 1.9331162
2.3086879 -3.0801229 1.9317141
2.3315029 -3.0796597 1.9297441
2.3324683 -3.069248 1.9305968
2.340044 -3.0705955 1.943661
2.3317702 -3.0630295 1.9402568
2.3457527 -3.0605779 1.937127
2.3421445 -3.0517693 1.9276041
2.3452208 -3.0550835 1.9351414
2.3575056 -3.0453849 1.9373175
2.3614235 -3.0543828 1.9321446
2.3536124 -3.0499032 1.9375188
2.3643947 -3.0469084 1.9401314
2.3732023 -3.0272436 1.929925
2.382858 -3.0242939 1.9351343
2.3855734 -3.0339043 1.9446667
2.3848801 -3.033814 1.9334022
2.3810523 -3.0216091 1.9276916
2.3876967 -3.0106006 1.9354057
2.4018741 -3.0115755 1.9295521
2.3982227 -3.0128961 1.9314277
2.409394 -3.0062866 1.9345043
2.4059346 -3.0131497 1.937291
2.4050834 -2.9954548 1.9364522
2.414021 -2.9923494 1.9352664
2.4281631 -2.9907696 1.941168
2.431833 -2.9941189 1.9438516
2.5451312 -3.1355135 1.8816854
2.5520258 -3.1443355 1.8809479
2.5666296 -3.1232023 1.8759097
2.5553749 -3.1299374 1.8862188
2.5659907 -3.129714 1.8797994
2.5796781 -3.1171579 1.8831733
2.5761471 -3.1096566 1.8808924
2.5717723 -3.1174161 1.8783613
2.5862069 -3.1152275 1.8740489
2.5865381 -3.1135581 1.8830197
2.5895479 -3.1036727 1.8772088
2.6041267 -3.0912817 1.879028
2.5979631 -3.0886712 1.8784264
2.606756 -3.1016948 1.8875297
2.6058533 -3.0884767 1.8732899
2.6185257 -3.0859406 1.888034
2.6145673 -3.0912998 1.8867011
2.6283228 -3.0853927 1.874024
2.6195421 -3.0694056 1.8799449
2.6264439 -3.0774364 1.8839384
2.6423113 -3.066802 1.8742145
2.6323628 -3.065928 1.8732728
2.6442282 -3.0555518 1.8913265
2.6554871 -3.0607116 1.8727357
2.655844 -3.0510986 1.8837359
2.6619561 -3.0531318 1.8736391
2.6628072 -3.0434377 1.8745441
2.6623199 -3.044297 1.8777109
2.6691506 -3.0382407 1.8732138
2.6818969 -3.0295815 1.8770285
2.6786315 -3.0293484 1.8878144
2.685637 -3.0233521 1.8758051
2.6916957 -3.029774 1.8904969
2.6958027 -3.0292151 1.8763475
2.701314 -3.0125725 1.8881242
2.6978199 -3.0140858 1.8741745
2.7042239 -2.999011 1.8862197
2.7115276 -3.0086808 1.8737007
2.721993 -2.9957728 1.8835269
2.7079558 -2.9943657 1.8782954
2.7177281 -3.0004659 1.8895743
2.8475618 -3.1266208 1.8293802
2.8562996 -3.1279452 1.8327698
2.8597236 -3.1293886 1.8329775
2.8689926 -3.1295419 1.8260814
2.8700325 -3.1174047 1.8339196
2.8771172 -3.1030743 1.8330743
2.8762417 -3.1056457 1.8187948
2.8828413 -3.1019514 1.8336536
2.8792617 -3.0964892 1.8261434
2.890445 -3.1054442 1.828751
2.8929017 -3.0980306 1.8242393
2.9088988 -3.0862575 1.834429
2.9082799 -3.0754333 1.8191952
2.9078631 -3.0797074 1.8198217
2.9205446 -3.0673027 1.8285927
2.9210587 -3.0721695 1.8276954
2.9207218 -3.0622625 1.8202223
2.9260995 -3.0701005 1.8324325
2.9263306 -3.0658574 1.8260882
2.9390454 -3.0547647 1.8267659
2.9343624 -3.0455434 1.8308284
2.9451621 -3.0446475 1.822629
2.9461455 -3.048687 1.8212126
2.9518895 -3.0374546 1.8314754
2.9582543 -3.0378463 1.8300896
2.9533842 -3.0220237 1.8197777
2.9676111 -3.0308323 1.8353078
2.9743593 -3.0185516 1.8189288
2.9733117 -3.0103226 1.8227159
2.9859142 -3.0136559 1.8335127
2.9791887 -3.0059438 1.8294415
2.9965196 -3.0116978 1.8221714
2.9856455 -3.0007284 1.8267608
2.9933491 -2.9882691 1.8184755
2.9913099 -2.9936938 1.8256857
3.1439819 -3.1245689 1.7708592
3.1504233 -3.1289265 1.7768399
3.1523888 -3.1107671 1.7709706
3.1579692 -3.1178803 1.7691936
3.1673307 -3.1166108 1.7799408
3.1674826 -3.1062808 1.7742519
3.1635573 -3.1028275 1.7786547
3.1723557 -3.0944507 1.7698668
3.1657372 -3.0825665 1.7693721
3.1708274 -3.0769122 1.7792809
3.1831214 -3.0788736 1.7704743
3.1943233 -3.0787628 1.7729363
3.1914997 -3.0810494 1.7691779
3.2028005 -3.0621128 1.7739203
3.1923182 -3.0581656 1.7755401
3.2125771 -3.0584109 1.7830919
3.2071404 -3.0469203 1.7696928
1.2216961 -4.8628139 1.6430675
1.2315203 -4.8639598 1.6481341
1.2384493 -4.8591108 1.6407123
1.2328986 -4.8499827 1.6469203
1.2428169 -4.8480177 1.6552416
1.2540041 -4.8456602 1.6502805
1.2554554 -4.8471761 1.644272
1.2208419 -4.6719766 1.7002305
1.2141451 -4.6678171 1.7091882
1.2193069 -4.6525631 1.7096509
1.2450302 -4.6558151 1.6984621
1.2352209 -4.656034 1.7044382
1.2504758 -4.6561136 1.6935639
1.2583065 -4.6485305 1.7101092
1.2022796 -4.4713864 1.759233
1.2243744 -4.4563346 1.7566553
1.2215059 -4.4666114 1.7508253
1.2326264 -4.4500408 1.7515404
1.2273719 -4.466681 1.7547269
1.2510729 -4.4646711 1.7514697
1.2552341 -4.4634476 1.7632542
1.2482041 -4.4585404 1.7531037
1.2671478 -4.4448829 1.761149
1.2228129 -4.2641139 1.8073746
1.2271634 -4.2616649 1.810243
1.2283041 -4.2633586 1.8064812
1.2268651 -4.2541561 1.8107519
1.2395934 -4.260066 1.8098942
1.2530345 -4.2574611 1.8106881
1.2496597 -4.2573829 1.811775
1.2630253 -4.2593694 1.8123599
1.2681729 -4.2546091 1.8161179
1.2084353 -4.0720158 1.8641213
1.2112145 -4.0527606 1.8530278
1.2278858 -4.0551119 1.8626964
1.2274232 -4.0622768 1.8489758
1.2431964 -4.0568337 1.862754
1.243238 -4.0446115 1.8489103
1.2424192 -4.0448961 1.8559517
1.262392 -4.0545006 1.8613425
1.2634494 -4.0566816 1.86301
1.2650893 -4.0396562 1.8676927
1.2131733 -3.8692448 1.920436
1.2139812 -3.8661401 1.9184183
1.2236934 -3.8520386 1.9123561
1.2230716 -3.8640726 1.9174278
1.2287269 -3.8460035 1.9062339
1.2481581 -3.8535607 1.9055449
1.2537432 -3.8476019 1.9028467
1.2463672 -3.8473332 1.9088113
1.2643796 -3.8516679 1.910854
1.2640572 -3.8400209 1.9081739
1.2684149 -3.848634 1.9098203
1.213047 -3.6584091 1.9652184
1.2155383 -3.6473761 1.9606951
1.2319652 -3.6623561 1.9624386
1.2334613 -3.6570702 1.9605445
1.2237611 -3.6577399 1.9693788
1.2333695 -3.6582091 1.96245
1.2402773 -3.6514361 1.9540606
1.2531474 -3.6520302 1.9595995
1.2480577 -3.638324 1.9550411
1.2602855 -3.6456349 1.9601175
1.2541573 -3.6335506 1.9702332
1.2710936 -3.6440885 1.9696991
1.2835042 -3.6433113 1.972495
1.277656 -3.6261468 1.9588796
1.289911 -3.6437893 1.9628903
1.290998 -3.6369276 1.9647204
1.2851537 -3.6282601 1.9716051
1.2909174 -3.6318221 1.9561697
1.3022174 -3.6255708 1.9727079
1.3089566 -3.6321864 1.9601952
1.3207695 -3.6300225 1.9580199
1.3226957 -3.6160121 1.9635524
1.3240854 -3.6146784 1.968101
1.3282682 -3.6242781 1.9680456
1.3388331 -3.606705 1.9685723
1.3334061 -3.6131248 1.954178
1.3498067 -3.6104665 1.9666615
1.3530892 -3.6071196 1.9537863
1.3609339 -3.6175449 1.9653585
1.365314 -3.6063011 1.968504
1.3571788 -3.6083117 1.9719954
1.3668658 -3.5934608 1.9676719
1.3820825 -3.602283 1.96285
1.3818451 -3.5919819 1.9665892
1.3815498 -3.596173 1.9660553
1.3817785 -3.5908461 1.9572479
1.3876101 -3.5941703 1.9692384
1.4059225 -3.5992615 1.9627082
1.411357 -3.5815549 1.963878
1.4083611 -3.5845122 1.9544101
1.4085078 -3.5806465 1.9610426
1.4121431 -3.5921326 1.9606303
1.4314524 -3.5734384 1.969493
1.4259369 -3.5800152 1.9667469
1.444158 -3.571918 1.9578927
1.4418422 -3.5686207 1.9724417
1.4507164 -3.5645173 1.9617352
1.4515781 -3.5671244 1.9639997
1.445907 -3.5693171 1.9620259
1.4614028 -3.5595233 1.9551425
1.4674277 -3.5745974 1.970166
1.4800826 -3.5710483 1.9717373
1.4723221 -3.5531991 1.9700296
1.4734216 -3.565872 1.9597653
1.4917719 -3.5653274 1.955611
1.4812653 -3.5520997 1.9727598
1.5053047 -3.554996 1.9720111
1.4986349 -3.542026 1.9666474
1.5142267 -3.5397198 1.9570758
1.5078416 -3.5469074 1.9552763
1.5145702 -3.553057 1.9563735
1.5163194 -3.5515358 1.9589839
1.5196369 -3.5427563 1.9574006
1.5212438 -3.5378561 1.9610945
1.5325835 -3.5395808 1.9632761
1.5397657 -3.5367849 1.9566218
1.544094 -3.5349193 1.9650003
1.5476706 -3.5246904 1.9642712
1.5458803 -3.523834 1.9637638
1.5545156 -3.5343237 1.9539772
1.5613482 -3.5230429 1.9559425
1.5692749 -3.5149682 1.9573237
1.5798091 -3.5285282 1.9653717
1.5887569 -3.5254307 1.956201
1.5813956 -3.51594 1.9631793
1.596213 -3.5042102 1.9708205
1.6043727 -3.5130928 1.9581872
1.6009079 -3.5033362 1.9536358
1.5967109 -3.5003042 1.9677871
1.6120034 -3.5135686 1.969288
1.6175063 -3.5049288 1.9599022
1.6249713 -3.4932876 1.9564165
1.6338142 -3.4960346 1.9571894
1.6307023 -3.4947531 1.9588716
1.6384163 -3.4857492 1.9678494
1.6331055 -3.4868412 1.9663548
1.6354327 -3.4846835 1.953769
1.6451235 -3.4908977 1.9687239
1.6502596 -3.486213 1.964488
1.6495439 -3.4911363 1.9647584
1.6703259 -3.4754548 1.9714323
1.6617186 -3.4772027 1.9675043
1.6696225 -3.4749992 1.9585793
1.6782962 -3.4807959 1.968679
1.6886487 -3.463764 1.9655188
1.6879758 -3.4769247 1.9589963
1.6858051 -3.4726369 1.9723541
1.6910452 -3.4635344 1.9572135
1.711237 -3.4541678 1.964467
1.7071896 -3.4503865 1.9644992
1.7034092 -3.4506893 1.9579085
1.7262995 -3.4444623 1.9672585
1.7252585 -3.4551909 1.9564939
1.735289 -3.4421022 1.9576075
1.7354158 -3.4435141 1.9534214
1.7323793 -3.450449 1.9537361
1.7428168 -3.444401 1.9559931
1.7466087 -3.4379566 1.9650006
1.7552568 -3.4361601 1.9610158
1.7511549 -3.443248 1.9584466
1.7670817 -3.4389498 1.9732023
1.7564145 -3.4365914 1.971806
1.7750938 -3.4201009 1.9572953
1.7830051 -3.4184031 1.9534806
1.7720265 -3.4213989 1.9658545
1.7768584 -3.4122481 1.9688876
1.7820015 -3.4174731 1.9555557
1.7893981 -3.4237163 1.9662489
1.8057989 -3.4061182 1.9563121
1.7982113 -3.4174252 1.9568545
1.8080511 -3.3976054 1.9592553
1.8126431 -3.4132495 1.9615682
1.8158352 -3.3950071 1.9579185
1.8245131 -3.3936434 1.9535067
1.8293728 -3.3880444 1.9636326
1.8266028 -3.4023962 1.9604361
1.8268623 -3.3963842 1.9695348
1.8337865 -3.3877516 1.9699036
1.8514003 -3.3874907 1.9653774
1.8590736 -3.3795862 1.9670441
1.8472857 -3.3866076 1.966024
1.8578951 -3.3737988 1.9668468
1.8708138 -3.3825562 1.9633919
1.8600793 -3.3673909 1.9587743
1.8649292 -3.372117 1.9572226
1.8799013 -3.3643613 1.9587791
