# .PCD v0.7 - Point Cloud Data file format
VERSION 0.7
FIELDS x y z
SIZE 4 4 4
TYPE F F F
COUNT 1 1 1
WIDTH 1495
HEIGHT 1
VIEWPOINT 0 0 0 1 0 0 0
POINTS 1495
DATA ascii
-3.2763877 -3.3398728 1.2778922
-3.2570443 -3.3520029 1.289487
-3.2597287 -3.3630228 1.287812
-3.2477956 -3.3585513 1.2900541
-3.2435727 -3.3563664 1.2937629
-3.2553916 -3.3677821 1.2806038
-3.2363946 -3.3673453 1.2744024
-3.2347069 -3.3764384 1.2756965
-3.2275991 -3.3797846 1.2907408
-3.2306082 -3.3834484 1.2936697
-3.2233789 -3.3853562 1.2907825
-3.2148025 -3.3926044 1.2803402
-3.2146254 -3.4072266 1.2834463
-3.2161167 -3.4146123 1.2755858
-3.1953597 -3.402478 1.2744654
-3.1908877 -3.4068718 1.286478
-3.1995685 -3.4169838 1.2834694
-3.1944444 -3.43013 1.2759033
-3.18802 -3.4208965 1.2895198
-3.1865449 -3.4394064 1.2839949
-3.1821349 -3.4354277 1.2810779
-3.1606059 -3.4476197 1.2754216
-3.169513 -3.4443877 1.2796454
-3.1553075 -3.4474065 1.2809792
-3.1489568 -3.4544344 1.2789363
-3.1437199 -3.4617622 1.2769821
-3.1464646 -3.462549 1.2893914
-3.1322114 -3.4629962 1.2931236
-3.1255186 -3.4818101 1.2905517
-3.1252029 -3.4839456 1.2939254
-3.1304059 -3.4864745 1.2857268
-3.11852 -3.4922836 1.2897782
-3.1122842 -3.4918153 1.2814974
-3.1018183 -3.5019636 1.2746261
-3.1100128 -3.4905889 1.2851493
-3.100244 -3.4988115 1.2927599
-3.0924234 -3.5146191 1.2839921
-3.0921876 -3.5210199 1.2791785
-3.0882134 -3.5255802 1.2799463
-3.0868051 -3.5146835 1.2829666
-3.0820172 -3.5338547 1.2878394
-3.0654216 -3.5260108 1.2912775
-3.0647688 -3.536808 1.2795515
-3.0523906 -3.5420225 1.2820382
-3.0468779 -3.5403204 1.2802536
-3.0508358 -3.553745 1.2745936
-3.0471773 -3.5442502 1.2774664
-3.0322807 -3.5594265 1.278272
-3.1640646 -3.6983037 1.2098066
-3.1530023 -3.6981006 1.2055949
-3.1389136 -3.7180343 1.2065248
-3.139946 -3.7063038 1.2196047
-3.1375341 -3.7188573 1.2061865
-3.126842 -3.7239759 1.2118461
-3.1336572 -3.7285309 1.2234929
-3.1222508 -3.7419987 1.2059935
-3.1164985 -3.7367692 1.2222604
-3.107867 -3.7416098 1.2076151
-3.098424 -3.7413344 1.2211119
-3.108403 -3.7551751 1.2192324
-3.1025877 -3.7601116 1.2218325
-3.0958364 -3.751271 1.2205694
-3.0759993 -3.7652152 1.2111514
-3.0895741 -3.77367 1.2210063
-3.0774834 -3.7741492 1.2106906
-3.0737398 -3.7684369 1.211284
-3.0674896 -3.7821932 1.2214768
-3.0649669 -3.7925456 1.2111911
-3.0570831 -3.7986879 1.2055359
-3.0556967 -3.8000491 1.2103878
-3.0361838 -3.8008401 1.2146438
-3.1512911 -3.9467325 1.1430362
-3.1502244 -3.9516075 1.1508474
-3.1385698 -3.9553208 1.1545222
-3.137054 -3.9522128 1.1420288
-3.1258478 -3.9706364 1.1395514
-3.134042 -3.9680912 1.1476138
-3.1120372 -3.9683106 1.1496128
-3.1203122 -3.9859393 1.1497508
-3.1142361 -3.9874809 1.152802
-3.1033022 -3.9948146 1.1393286
-3.1081061 -3.9853406 1.1508231
-3.0954742 -4.0003219 1.1418579
-3.0950253 -4.0091763 1.1535869
-3.0908954 -4.002049 1.1528239
-3.079253 -4.0092559 1.1380295
-3.0700819 -4.0102034 1.1501645
-3.0728426 -4.0146985 1.1464568
-3.0535982 -4.0130272 1.1494894
-3.0542095 -4.0308447 1.1553414
-3.051764 -4.0232987 1.1382129
-3.0427859 -4.0261335 1.154904
-3.1551852 -4.1918945 1.0719144
-3.1434565 -4.1929774 1.0734375
-3.1399925 -4.1955256 1.0864097
-3.1372855 -4.2120323 1.0764893
-3.1293666 -4.2049742 1.0699279
-3.1293066 -4.2062893 1.0831699
-3.1129482 -4.2139788 1.082374
-3.1135511 -4.2279043 1.0680435
-3.1082959 -4.2250152 1.0855339
-3.1001632 -4.2187843 1.0844564
-3.0953331 -4.2377172 1.0718522
-3.0844495 -4.2307792 1.0825735
-3.0720367 -4.2462411 1.0751474
-3.0666459 -4.2448664 1.0756071
-3.0711694 -4.2414494 1.0675091
-3.062248 -4.2638545 1.0824717
-3.0600789 -4.2557898 1.0741127
-3.0586996 -4.2542229 1.0761875
-3.051645 -4.2733011 1.085503
-3.1559544 -4.4230695 1.0163552
-3.1322613 -4.4211564 1.0016463
-3.1411662 -4.4342785 0.99820191
-3.1193438 -4.4409122 1.0036135
-3.1249413 -4.4480858 1.0147097
-3.1100729 -4.4457197 1.0135248
-3.1032965 -4.4603744 1.014228
-3.1015515 -4.4588089 1.0072807
-3.0881596 -4.4618182 1.0061773
-3.0926864 -4.4637337 1.0102638
-3.0878921 -4.4670649 1.0017577
-3.0832021 -4.4728885 0.99956816
-3.073215 -4.4738092 1.0086514
-3.0666664 -4.4791059 1.015487
-3.0547001 -4.4762044 0.99952644
-3.0516317 -4.4846454 1.0103012
-3.049742 -4.4925261 1.0107812
-3.0471435 -4.5048842 1.0171783
-3.1364691 -4.6656828 0.93587124
-3.1416919 -4.6617856 0.94602001
-3.122822 -4.6593347 0.93716311
-3.112452 -4.6784406 0.94679898
-3.1042657 -4.6738114 0.93982178
-3.1069899 -4.6888924 0.9318471
-3.1028724 -4.6782713 0.93106425
-3.0947094 -4.6908526 0.94612229
-3.0957656 -4.6878204 0.9375723
-3.0763359 -4.6884718 0.94092798
-3.070503 -4.6997542 0.94334388
-3.0769339 -4.7027712 0.93404949
-3.0532098 -4.7134361 0.93158972
-3.058337 -4.7202544 0.93439895
-3.053822 -4.7254162 0.94620258
-3.0362785 -4.7198381 0.94728172
-3.1281848 -4.8945947 0.87429178
-3.1191664 -4.8899679 0.86209613
-3.1150837 -4.8929515 0.87726152
-3.119545 -4.9030647 0.876095
-3.1006444 -4.8939114 0.86795658
-3.0993218 -4.8977604 0.86110276
-3.0872877 -4.9044633 0.86787647
-3.0977073 -4.9228773 0.87211466
-3.0853114 -4.9233665 0.87546474
-3.0811059 -4.9329081 0.86865735
-3.0758154 -4.919476 0.86925858
-3.0544717 -4.9238539 0.87887406
-3.0453174 -4.9309835 0.86988431
-3.040992 -4.9494147 0.87514955
-6.8908257 -2.9850972 0.30754963
-6.8979082 -3.0130594 0.30567396
-6.8847528 -3.018244 0.30666947
-6.8760152 -3.0200994 0.30523363
-6.8840308 -3.0365131 0.30497178
-6.863399 -3.0391123 0.30457112
-6.8684807 -3.044558 0.29633072
-6.8675632 -3.0665555 0.30723247
-6.6950307 -3.0011423 0.365484
-6.689414 -2.9988697 0.36581051
-6.6852179 -3.015909 0.36428469
-6.6668997 -3.0242248 0.36443216
-6.6704445 -3.0235934 0.36902434
-6.6729808 -3.0384459 0.3613849
-6.6569395 -3.0455487 0.36694941
-6.6611476 -3.0562677 0.37952644
-6.6457429 -3.0763302 0.3762635
-6.4878182 -3.0005858 0.4482666
-6.4698372 -3.0072522 0.43060106
-6.4612556 -3.0124958 0.44455621
-6.4723344 -3.01775 0.43081433
-6.4649267 -3.0289068 0.43809295
-6.4573593 -3.0478413 0.43533346
-6.4451866 -3.0535583 0.44704592
-6.4406409 -3.0674937 0.44097432
-6.4505181 -3.0699089 0.43349627
-6.2780662 -2.9999015 0.50292605
-6.258718 -3.0080817 0.51057315
-6.2550178 -3.0224814 0.50061041
-6.248971 -3.0325124 0.51445454
-6.2489567 -3.0378485 0.51208884
-6.242672 -3.0400152 0.50760496
-6.2490969 -3.0588653 0.51321918
-6.2382689 -3.0498064 0.50214314
-6.2357159 -3.060478 0.50615263
-6.0705185 -3.0018857 0.56442511
-6.0616078 -3.0080767 0.57274687
-6.0509186 -3.0191197 0.58165431
-6.0525708 -3.0106754 0.56492209
-6.0441742 -3.0204089 0.56691283
-6.0419216 -3.0343652 0.57231569
-6.0420227 -3.0462861 0.56429404
-6.0265956 -3.048893 0.56615853
-6.0255427 -3.0649455 0.56581223
-6.0155544 -3.062731 0.58351862
-5.8540215 -2.9825439 0.63276929
-5.8495111 -3.0031829 0.63664216
-5.8366675 -3.0173383 0.63794297
-5.8349051 -3.0173633 0.63615334
-5.8298631 -3.0332203 0.63308942
-5.8228192 -3.0310655 0.64452237
-5.8303614 -3.0332644 0.63248175
-5.8259134 -3.0443008 0.64627546
-5.8195896 -3.0585604 0.63245201
-5.813601 -3.0671194 0.6492725
-5.8098946 -3.0659683 0.64892632
-5.6384034 -2.9961584 0.70378828
-5.6293378 -3.0058155 0.70500886
-5.6389604 -3.0179243 0.71437633
-5.6303616 -3.0092173 0.71605259
-5.6248155 -3.0177035 0.70804375
-5.6278257 -3.0379803 0.70599014
-5.6228652 -3.0380692 0.70104825
-5.6041002 -3.0561056 0.70998877
-5.5991478 -3.0524359 0.7185064
-5.5973639 -3.0693533 0.71630526
-5.5959153 -3.0652714 0.70369846
-5.5872574 -3.0763168 0.70932078
-5.4326854 -2.9900773 0.77837807
-5.4135451 -3.0103354 0.77635318
-5.4127178 -3.0092742 0.77371061
-5.4198885 -3.01546 0.77865386
-5.4091024 -3.0209341 0.77136493
-5.4032478 -3.0319021 0.77389038
-5.408442 -3.0421879 0.76793039
-5.3851085 -3.0549707 0.77289146
-5.383965 -3.050597 0.76976728
-5.3954177 -3.0618682 0.7834245
-5.381238 -3.0675635 0.78003055
-5.385654 -3.0783157 0.78396308
-5.208951 -2.9985905 0.84419948
-5.1981449 -3.0038848 0.8381595
-5.2023849 -3.0026224 0.85421282
-5.1939039 -3.0197449 0.84685928
-5.2028871 -3.0263119 0.83677536
-5.1978202 -3.0338056 0.8414579
-5.1877823 -3.0444274 0.8380577
-5.1808581 -3.0507841 0.85092378
-5.1802669 -3.0472531 0.845626
-5.1630592 -3.0524406 0.8371014
-5.1619091 -3.0683718 0.84196353
-5.1681757 -3.0776892 0.84881705
-5.1604724 -3.0754495 0.84421283
-4.9953036 -2.9921379 0.91742367
-4.9990158 -2.998611 0.90367204
-4.9928021 -3.0042503 0.90968865
-4.9818959 -3.0040951 0.91233975
-4.9743805 -3.0212693 0.91588455
-4.9739895 -3.0221159 0.91020465
-4.9588861 -3.0300288 0.90657544
-4.9722977 -3.0410755 0.91424745
-4.9608378 -3.0426826 0.91982847
-4.9625144 -3.0608909 0.91486973
-4.9487858 -3.0596464 0.90363336
-4.9495001 -3.066303 0.91290718
-4.9439559 -3.0709445 0.90351874
-4.9323859 -3.0888882 0.92125678
-4.9381552 -3.0835347 0.908786
-4.7610302 -3.0018554 0.99009162
-4.7690554 -3.0092499 0.9827745
-4.7607002 -3.0143037 0.97135842
-4.7646637 -3.0121541 0.98527676
-4.7630372 -3.0159478 0.98792267
-4.7463598 -3.0302892 0.97874278
-4.7409096 -3.0296307 0.98983014
-4.7461767 -3.047724 0.98319381
-4.7408223 -3.0385525 0.98552543
-4.737721 -3.0594652 0.98011649
-4.7270813 -3.0669172 0.98312443
-4.7227902 -3.0665882 0.98540902
-4.7258072 -3.0821078 0.98930538
-4.7202306 -3.0858035 0.98201078
-4.7007265 -3.0920947 0.97757602
-4.5413604 -2.9824629 1.0531112
-4.5485168 -2.994879 1.0482831
-4.5445766 -2.9968119 1.0519977
-4.5272646 -3.0176501 1.0515134
-4.5276113 -3.0196555 1.0567406
-4.5333586 -3.0152986 1.0411339
-4.516089 -3.0309377 1.0524679
-4.5165257 -3.0338895 1.0548887
-4.5130577 -3.0355704 1.0402135
-4.5168753 -3.042062 1.0458412
-4.5051184 -3.0507185 1.0442116
-4.5054817 -3.0507195 1.0565283
-4.490664 -3.0709777 1.0532687
-4.4921231 -3.0781295 1.0555215
-4.4940572 -3.0698433 1.042114
-4.4907556 -3.0915279 1.0394022
-4.4830523 -3.1001754 1.0473844
-4.3292985 -2.9863224 1.1064054
-4.3079724 -3.0002141 1.122403
-4.3213134 -3.0021827 1.1182243
-4.3090177 -3.0166628 1.1116984
-4.2983437 -3.0157828 1.1114749
-4.2953444 -3.0243707 1.1172903
-4.2955961 -3.0187118 1.1222452
-4.2935867 -3.0392907 1.1217717
-4.2849765 -3.0408797 1.1058928
-4.2790694 -3.0390859 1.1076397
-4.285172 -3.0425751 1.1223278
-4.2799091 -3.0489266 1.1091695
-4.2786398 -3.0728154 1.1200818
-4.2615409 -3.068614 1.1225475
-4.2709599 -3.0779519 1.111921
-4.2605939 -3.0885124 1.1187283
-4.2444038 -3.0835552 1.1172101
-4.2432508 -3.1008275 1.1211232
-4.2425632 -3.0937366 1.1094512
-4.0859361 -2.9937494 1.1732345
-4.0795193 -2.9951618 1.191857
-4.0784063 -2.9955833 1.1901143
-4.0704436 -3.0190163 1.1904627
-4.0715604 -3.0096397 1.1809866
-4.0702038 -3.0139794 1.1881407
-4.0594659 -3.0322587 1.1906964
-4.0619125 -3.0386622 1.1841652
-4.0458694 -3.0482352 1.186312
-4.0459056 -3.041451 1.1814936
-4.0376053 -3.0541885 1.1913555
-4.0331779 -3.0647008 1.1855249
-4.0301199 -3.0583 1.1849871
-4.0287967 -3.0681441 1.1867244
-4.0271173 -3.0633209 1.1835407
-4.0349059 -3.0813644 1.1817138
-4.015533 -3.0929017 1.1872982
-4.0135961 -3.091125 1.1921637
-4.0181823 -3.0975525 1.1731349
-4.0006146 -3.1082714 1.1865631
-3.8592122 -2.9995131 1.2605842
-3.8567464 -3.0058312 1.2420901
-3.8401034 -2.9933705 1.2556517
-3.8439908 -3.0038738 1.2450182
-3.8461335 -3.0169926 1.2448508
-3.8314524 -3.0222027 1.2522764
-3.8385906 -3.0323503 1.2537959
-3.820137 -3.0248797 1.2427168
-3.8168104 -3.0263219 1.2508289
-3.812505 -3.0345302 1.2538348
-3.814764 -3.054323 1.2557654
-3.810658 -3.0558383 1.256771
-3.8050387 -3.0649068 1.2556245
-3.8058503 -3.0620661 1.2493564
-3.7972879 -3.0655792 1.255345
-3.7888858 -3.0786295 1.2414931
-3.7930505 -3.0830441 1.2428573
-3.7756884 -3.0732386 1.2570499
-3.7693977 -3.0843475 1.2551523
-3.7749879 -3.0953991 1.2503923
-3.7775648 -3.0929658 1.2511796
-3.7582035 -3.1106896 1.2557855
-3.7578294 -3.107065 1.2566509
-3.6137328 -2.9883769 1.3133428
-3.6009264 -3.0053632 1.3241742
-3.6021245 -2.9982402 1.3272653
-3.5971673 -2.9995828 1.3112458
-3.5908389 -3.0078709 1.31033
-3.5903108 -3.0141842 1.3235974
-3.5916734 -3.0304103 1.3110992
-3.5777888 -3.0335431 1.3263142
-3.5831101 -3.0416522 1.3090793
-3.5638187 -3.0337319 1.3207369
-3.5636544 -3.0509288 1.3161912
-3.5744553 -3.039511 1.3197128
-3.5544176 -3.0534899 1.3154049
-3.5512819 -3.0667171 1.3147963
-3.5441587 -3.0578287 1.3109354
-3.5379443 -3.0726321 1.3257914
-3.5384555 -3.0730245 1.3094454
-3.5314581 -3.0837662 1.3149848
-3.5292387 -3.08407 1.3174274
-3.5242474 -3.0893297 1.3127965
-3.5275915 -3.0986803 1.3159691
-3.5154746 -3.1030929 1.315554
-3.519829 -3.1117365 1.3261485
-3.5084844 -3.1015201 1.3084983
-3.5177417 -3.1084628 1.324713
-3.5108528 -3.1134806 1.3110949
-3.5091014 -3.123306 1.3220489
-3.5036888 -3.1304374 1.3272197
-3.4927301 -3.1396596 1.3170393
-3.479322 -3.1282074 1.3265454
-3.4905379 -3.1444235 1.3116416
-3.4785745 -3.1528533 1.3172594
-3.4670193 -3.1499753 1.3191619
-3.4648628 -3.1600974 1.3162031
-3.46035 -3.1638284 1.3112178
-3.4596155 -3.1650286 1.3261245
-3.4524922 -3.1688426 1.31611
-3.4544084 -3.1716161 1.323862
-3.4511468 -3.1878095 1.3272835
-3.4380593 -3.1949806 1.3270428
-3.4354587 -3.1977601 1.3154656
-3.4277551 -3.1929753 1.3203318
-3.434427 -3.2010415 1.3129432
-3.4191899 -3.211364 1.3202934
-3.4269047 -3.2015929 1.3087678
-3.4195981 -3.2155139 1.3208904
-3.4173782 -3.2267449 1.3140415
-3.4051659 -3.2243316 1.3092554
-3.4051952 -3.2231035 1.3131058
-3.4017963 -3.2332411 1.3146092
-3.3986316 -3.2452381 1.3181505
-3.3870375 -3.2339985 1.3112881
-3.3905704 -3.2539041 1.3211645
-3.3814852 -3.2630527 1.3255174
-3.3650432 -3.2644031 1.3244337
-3.3801203 -3.2629404 1.3142154
-3.3630681 -3.2637577 1.3175462
-3.3528583 -3.2768698 1.328064
-3.3474281 -3.2745247 1.3245771
-3.3581407 -3.2733011 1.3157139
-3.3473437 -3.2934391 1.3196082
-3.3329985 -3.2865167 1.3194908
-3.3455093 -3.287667 1.3242097
-3.3281372 -3.3042786 1.3245158
-3.3264058 -3.3090017 1.3282009
-3.3257515 -3.3133616 1.318072
-3.3153088 -3.3052356 1.3118421
-3.3215292 -3.3114731 1.3172104
-3.317225 -3.3168597 1.3096275
-3.2964013 -3.3375452 1.3279659
-3.3044345 -3.332026 1.3108571
-3.2885666 -3.3367608 1.3253553
-3.29281 -3.3386123 1.3233815
-3.2923279 -3.3477039 1.3094677
-3.2915332 -3.3596828 1.3154961
-3.2870469 -3.3556323 1.3218234
-3.2726834 -3.3657713 1.3209288
-3.2645433 -3.3667686 1.3184428
-3.2710285 -3.3681064 1.3152095
-3.26509 -3.3732717 1.3159237
-3.260807 -3.3711276 1.3267833
-3.2536263 -3.3777797 1.3175279
-3.2519412 -3.3933458 1.3110342
-3.2322235 -3.3931065 1.3200557
-3.2264132 -3.3967559 1.3216987
-3.2345681 -3.400609 1.3119856
-3.2163897 -3.4147944 1.3167208
-3.2190993 -3.4055424 1.3250393
-3.2242887 -3.4074843 1.3165939
-3.2127051 -3.4282031 1.3275506
-3.2004011 -3.4293604 1.3252122
-3.1972311 -3.4280653 1.3207757
-3.2033103 -3.4298191 1.3253208
-3.1958768 -3.4365959 1.314646
-3.1794157 -3.4423094 1.3248562
-3.1813052 -3.4409313 1.3157409
-3.1729019 -3.4461343 1.3169612
-3.1797569 -3.4588127 1.3119479
-3.1582873 -3.461453 1.3095005
-3.1652567 -3.457288 1.3108352
-3.1612635 -3.4656036 1.3155068
-3.1596024 -3.4755404 1.3259614
-3.1423717 -3.4763536 1.3191427
-3.1405895 -3.4745369 1.3100216
-3.1294763 -3.4810688 1.3196543
-3.1281466 -3.4943063 1.3151259
-3.135926 -3.5039628 1.3098487
-3.1224792 -3.5053024 1.3163402
-3.1140394 -3.5100069 1.324632
-3.1080408 -3.5065219 1.3215226
-3.1007016 -3.5038905 1.3145244
-3.1086848 -3.5244513 1.3220097
-3.1062071 -3.5126402 1.3130952
-3.0905423 -3.5239129 1.3104039
-3.0839925 -3.5289438 1.3255805
-3.0878036 -3.5375226 1.3119125
-3.0761373 -3.5387647 1.3129746
-3.0697422 -3.55145 1.3170762
-3.0768497 -3.5405912 1.3208457
-3.0556593 -3.5486364 1.3124658
-3.0575724 -3.5542505 1.3110762
-3.0464776 -3.5527618 1.3134778
-3.0478916 -3.5737162 1.3120353
-3.038214 -3.5639319 1.3236583
-3.153219 -3.715842 1.2469183
-3.1508441 -3.7133603 1.2535874
-3.1421309 -3.7241564 1.2433317
-3.1523497 -3.7335079 1.2447013
-3.1384604 -3.7349229 1.2412331
-3.1407957 -3.7401097 1.2540165
-3.1315048 -3.7521777 1.2454756
-3.1235971 -3.7381253 1.2427061
-3.113282 -3.7504668 1.2432581
-3.124403 -3.758117 1.2578633
-3.1038952 -3.7637672 1.248132
-3.1124575 -3.7722406 1.2453076
-3.0943449 -3.7772052 1.2561048
-3.0864818 -3.7775991 1.2419612
-3.0972431 -3.7693202 1.250806
-3.0914667 -3.7885997 1.2588599
-3.0729005 -3.7838171 1.2592342
-3.0628693 -3.7963619 1.2580423
-3.0756018 -3.8038328 1.2488829
-3.0677762 -3.8076718 1.2564399
-3.0653393 -3.7962565 1.2427061
-3.0526278 -3.7986627 1.2448508
-3.0427349 -3.8082218 1.2463756
-3.0420384 -3.8151896 1.2518437
-3.1526072 -3.9655149 1.1822569
-3.1369922 -3.9681919 1.1853768
-3.133317 -3.9775922 1.1775944
-3.1292615 -3.9822567 1.1815748
-3.1263914 -3.9849548 1.1823848
-3.1326749 -3.9851348 1.1836485
-3.1113954 -3.9881911 1.180613
-3.1038435 -4.0038557 1.1794492
-3.1141405 -3.994952 1.1929969
-3.1029069 -4.0106831 1.1838399
-3.106199 -4.0051928 1.1759322
-3.0914085 -4.0096364 1.189759
-3.093492 -4.0159597 1.1785893
-3.0833519 -4.0237889 1.1871513
-3.0692251 -4.0343151 1.1774035
-3.0742824 -4.0366983 1.191856
-3.0580702 -4.0433817 1.1876248
-3.0648873 -4.0480981 1.1920943
-3.0528624 -4.0487037 1.1898245
-3.0472836 -4.0436735 1.1761725
-3.0308561 -4.0475388 1.1923522
-3.1550884 -4.212913 1.1207583
-3.1325192 -4.2154546 1.1148304
-3.1411138 -4.2134771 1.1253912
-3.12114 -4.223001 1.1097357
-3.130908 -4.2232161 1.1159992
-3.1262174 -4.2328582 1.119874
-3.1057518 -4.2349629 1.1233184
-3.1008108 -4.2306943 1.1104358
-3.0981333 -4.2465048 1.1068541
-3.089102 -4.2515507 1.1236694
-3.083885 -4.2537408 1.1100547
-3.082592 -4.2592473 1.1183026
-3.0672209 -4.2592397 1.1129235
-3.0612831 -4.2651572 1.1224082
-3.0709946 -4.2667465 1.1160573
-3.0544367 -4.2695556 1.1244355
-3.053998 -4.2778153 1.1150715
-3.0501091 -4.2870569 1.1143308
-3.0390966 -4.2795496 1.1221259
-3.1403816 -4.4425726 1.0415493
-3.1359091 -4.4528432 1.0507761
-3.1250453 -4.4477677 1.0388179
-3.1259274 -4.4532738 1.0511798
-3.1121826 -4.4587998 1.0419294
-3.108947 -4.4600019 1.0553858
-3.112056 -4.4706168 1.0503212
-3.106781 -4.4667692 1.0412763
-3.0908637 -4.4850154 1.0472615
-3.095681 -4.4782367 1.0450169
-3.0726974 -4.490016 1.057631
-3.0826206 -4.4835377 1.0443721
-3.0633111 -4.4924159 1.0405779
-3.055954 -4.5084038 1.0556583
-3.0562286 -4.4968796 1.0495843
-3.045748 -4.508359 1.0466708
-3.0418048 -4.5091929 1.0574969
-3.147965 -4.6671672 0.98885256
-3.1379013 -4.6794639 0.97396272
-3.1218464 -4.6828408 0.97017938
-3.1280298 -4.6895032 0.97893602
-3.1215932 -4.6923642 0.97848171
-3.1084094 -4.7021966 0.97345054
-3.0990136 -4.7109594 0.97672468
-3.0945313 -4.7062898 0.97580713
-3.096117 -4.7174387 0.98768544
-3.08061 -4.7109489 0.98299646
-3.0742712 -4.7118864 0.98075527
-3.068907 -4.7292948 0.97061294
-3.0584266 -4.7171893 0.98147976
-3.0517235 -4.7378149 0.99006122
-3.056258 -4.7385569 0.98014963
-3.0412407 -4.7326746 0.98476422
-3.1327786 -4.9024339 0.91730237
-3.1392853 -4.9159522 0.90651405
-3.1267033 -4.9176335 0.90890825
-3.1222367 -4.9103918 0.92211378
-3.102453 -4.9233999 0.91869509
-3.1049047 -4.9176393 0.92217165
-3.0974925 -4.928 0.92204791
-3.0992072 -4.9382648 0.90558386
-3.0923345 -4.9396777 0.91265357
-3.0753677 -4.9326921 0.90987211
-3.0737798 -4.9423399 0.92006063
-3.0519845 -4.9453468 0.92112052
-3.0609715 -4.9626303 0.90487903
-3.0475583 -4.9623117 0.92025018
-3.0409336 -4.9690804 0.90697396
-6.9107709 -2.9903698 0.3522566
-6.9100151 -3.0087135 0.35603294
-6.9121346 -3.015789 0.35797393
-6.9087458 -3.0149226 0.34993842
-6.8971963 -3.0344369 0.36127335
-6.8986382 -3.0437825 0.36091569
-6.8944721 -3.0463829 0.35364208
-6.8780208 -3.0509353 0.36732838
-6.7132931 -2.9911127 0.41759026
-6.7094269 -2.9979959 0.4184719
-6.7033825 -3.0128593 0.42981872
-6.6954503 -3.0111589 0.43248829
-6.6837292 -3.0357833 0.41774255
-6.6900539 -3.0412378 0.43351793
-6.684401 -3.0393748 0.41942751
-6.6873999 -3.0631998 0.42563429
-6.6707435 -3.0671179 0.41887742
-6.4900455 -2.9997261 0.48348522
-6.4870615 -3.0030677 0.49428213
-6.5000887 -3.0067353 0.48757422
-6.4922218 -3.0285633 0.49537528
-6.4729953 -3.0266776 0.49424335
-6.4710865 -3.0373018 0.49784759
-6.483911 -3.0584948 0.48535219
-6.4609475 -3.0582922 0.48406848
-6.4720616 -3.0653589 0.4883028
-6.2866621 -2.9987755 0.56424218
-6.2784147 -3.0081322 0.55148703
-6.2918334 -3.0187035 0.56447589
-6.2744431 -3.0265136 0.56287718
-6.2837486 -3.0306809 0.54852438
-6.2652407 -3.0398586 0.56512541
-6.2678523 -3.0513771 0.56016439
-6.2668476 -3.0599821 0.56306654
-6.2583261 -3.0698981 0.55522156
-6.0818162 -2.9918053 0.61564028
-6.0704365 -3.0060813 0.6241172
-6.0693913 -3.016309 0.63203186
-6.06109 -3.0241671 0.61816388
-6.0597873 -3.0188582 0.62526858
-6.0600719 -3.0270905 0.61698276
-6.0546975 -3.0410631 0.62829018
-6.0527101 -3.0619075 0.61684406
-6.0556717 -3.0660198 0.62555194
-6.0357194 -3.0658951 0.63309669
-5.8755221 -2.9970517 0.69035721
-5.8693786 -3.0065517 0.69556016
-5.8547468 -2.9992115 0.69903415
-5.8521891 -3.0077858 0.68314314
-5.8634877 -3.0192859 0.68104798
-5.8476706 -3.0353105 0.69920158
-5.8401275 -3.0502124 0.69185787
-5.8412657 -3.0473905 0.69213897
-5.8338385 -3.0518057 0.69677114
-5.8376923 -3.0605562 0.68998528
-5.8339896 -3.0814867 0.69472855
-5.6525598 -2.9921279 0.76446867
-5.6527805 -3.0004437 0.76346779
-5.6495166 -3.0104158 0.76209146
-5.6421328 -3.0159121 0.75740808
-5.6368327 -3.0298276 0.76488727
-5.633368 -3.0404482 0.7656458
-5.6372361 -3.0364668 0.75740147
-5.6208119 -3.049329 0.75291115
-5.6197448 -3.0503273 0.74783373
-5.625453 -3.0719168 0.74998313
-5.6264062 -3.0631232 0.76130587
-5.6038947 -3.0787437 0.75222522
-5.4371352 -3.0041862 0.82736546
-5.4371066 -2.9973469 0.81862402
-5.441751 -3.009434 0.8238619
-5.4389052 -3.0222936 0.82636809
-5.4352903 -3.0232697 0.82073885
-5.4199095 -3.0320809 0.83012438
-5.409008 -3.0440953 0.8263827
-5.4231734 -3.0460987 0.82891673
-5.4151788 -3.0533476 0.82810348
-5.3958511 -3.0623882 0.81952298
-5.4055934 -3.0742216 0.82222921
-5.3864713 -3.0902238 0.81938511
-5.2323918 -3.0012047 0.89834487
-5.2168832 -3.0072041 0.88575739
-5.2188582 -3.013818 0.87978661
-5.2064524 -3.0092912 0.89259148
-5.2046509 -3.0181136 0.88096291
-5.2065806 -3.025363 0.89490604
-5.2059665 -3.0288897 0.88916928
-5.2061553 -3.0373709 0.88195491
-5.1949148 -3.0598874 0.89046425
-5.1809573 -3.0675852 0.89052236
-5.1898341 -3.0692058 0.89327085
-5.1860275 -3.0795109 0.89733064
-5.174798 -3.075995 0.88208109
-5.0075717 -2.9874578 0.96494347
-5.0096231 -2.9979458 0.95999002
-5.0032935 -3.0145979 0.95507419
-5.0030112 -3.0148802 0.95391273
-4.9884553 -3.0196059 0.95154518
-4.9811044 -3.0173554 0.9539302
-4.9852347 -3.0254226 0.95588058
-4.9892969 -3.0466514 0.9634676
-4.9706006 -3.0483682 0.94800043
-4.9678349 -3.0631609 0.96329457
-4.9603095 -3.0569997 0.95753604
-4.9561977 -3.0770802 0.94829655
-4.9570298 -3.0750308 0.94940603
-4.9627686 -3.0769083 0.95722854
-4.9496584 -3.0884497 0.9473148
-4.7790122 -2.9966695 1.0129215
-4.7860055 -2.9932344 1.0311522
-4.771039 -3.01811 1.0151259
-4.7684765 -3.008548 1.0243484
-4.7613716 -3.0204883 1.0257381
-4.7589636 -3.0291805 1.0202426
-4.7623043 -3.0380487 1.0216143
-4.7548757 -3.0520463 1.0119773
-4.7463279 -3.0560889 1.0273986
-4.7499485 -3.051338 1.0182083
-4.7434731 -3.0601614 1.0275223
-4.7376685 -3.0601737 1.0269661
-4.733624 -3.0694249 1.0282229
-4.7255964 -3.0803275 1.0257245
-4.7283368 -3.0883491 1.0179627
-4.571918 -2.9946697 1.0944659
-4.5588908 -2.991879 1.0824795
-4.5644827 -3.0059111 1.0831548
-4.5597029 -3.0156567 1.0864404
-4.5394926 -3.013293 1.0811242
-4.5484643 -3.0287342 1.0936258
-4.5481129 -3.0226593 1.0927502
-4.5283084 -3.0368381 1.0892527
-4.5272388 -3.0472963 1.0814756
-4.5286584 -3.044812 1.092294
-4.5178308 -3.0479951 1.0798771
-4.516778 -3.062341 1.0966359
-4.5077024 -3.0664785 1.0857414
-4.5179429 -3.070044 1.0914745
-4.504889 -3.0776165 1.0859385
-4.4971423 -3.0783863 1.0913228
-4.4968853 -3.1030393 1.0891373
-4.3422356 -2.9848907 1.1454089
-4.3264837 -2.996949 1.1512794
-4.338501 -3.0146885 1.1459721
-4.3196912 -3.0058708 1.1638132
-4.3132896 -3.0202794 1.153634
-4.3101211 -3.0299003 1.145637
-4.3178387 -3.0340583 1.1603884
-4.2998142 -3.0294681 1.1538748
-4.3073182 -3.0414453 1.1528929
-4.2894287 -3.0374885 1.1535536
-4.2937169 -3.0584733 1.1514115
-4.2880111 -3.0678976 1.163278
-4.2764263 -3.0735378 1.163466
-4.2901402 -3.0645761 1.1585265
-4.286005 -3.0734291 1.1452279
-4.2720408 -3.083338 1.1483516
-4.2660646 -3.0851974 1.1533544
-4.2653294 -3.0932739 1.1489792
-4.2510991 -3.0931036 1.1586523
-4.1054826 -2.9879811 1.2245879
-4.0917125 -3.0025218 1.229266
-4.1000762 -3.0156319 1.2105275
-4.0965657 -3.0214407 1.2121505
-4.0928593 -3.0252557 1.2287307
-4.0740843 -3.0292356 1.2224475
-4.0685997 -3.0235596 1.212239
-4.0799837 -3.0362248 1.226149
-4.0663571 -3.03248 1.2179539
-4.0570974 -3.0388384 1.2158945
-4.058157 -3.0562823 1.2135956
-4.0595589 -3.0641506 1.2224967
-4.0562749 -3.0645854 1.2240227
-4.0517216 -3.0657203 1.2254689
-4.0455375 -3.0673676 1.2288232
-4.0427651 -3.0744662 1.2139148
-4.0262685 -3.0803151 1.2103934
-4.0399718 -3.1017907 1.2199123
-4.0197577 -3.0938897 1.2188754
-4.0277305 -3.1009877 1.2171736
-3.8685625 -2.9978793 1.2900017
-3.8610394 -2.9957712 1.2943568
-3.8646076 -2.9946616 1.2839526
-3.8466423 -3.0132887 1.2780831
-3.8472235 -3.0100303 1.2962298
-3.8444426 -3.0283055 1.2929356
-3.8365629 -3.0343978 1.2894439
-3.832197 -3.0385153 1.2901222
-3.8383045 -3.0467486 1.2843407
-3.8254416 -3.0472922 1.2770947
-3.8342729 -3.042206 1.2830522
-3.8165548 -3.0537884 1.296531
-3.8144741 -3.0531385 1.2965264
-3.8227904 -3.0587304 1.2832959
-3.8169687 -3.0691175 1.2787192
-3.8129926 -3.0809462 1.2812569
-3.7923036 -3.0891244 1.2830858
-3.7950985 -3.0771735 1.2861749
-3.7972081 -3.0955749 1.2864025
-3.7850916 -3.105365 1.2914522
-3.7802136 -3.1082461 1.2869481
-3.7693708 -3.0976758 1.2962153
-3.7650418 -3.1092994 1.2914804
-3.76071 -3.1135211 1.2864957
-3.7696016 -3.1162102 1.2964597
-3.7630622 -3.11922 1.279925
-3.7539778 -3.125845 1.2805361
-3.743057 -3.1395764 1.2784158
-3.7490401 -3.1397362 1.2832061
-3.7347882 -3.152106 1.283512
-3.7354791 -3.1439316 1.2862368
-3.7406671 -3.1492555 1.2848254
-3.7365804 -3.154599 1.277078
-3.7172213 -3.1599665 1.2903906
-3.7228394 -3.1785886 1.2862895
-3.7184865 -3.1750419 1.2844479
-3.7106609 -3.186789 1.2812449
-3.7022173 -3.1920006 1.2895674
-3.6958864 -3.1875877 1.2829809
-3.7047582 -3.1933229 1.2892696
-3.6933165 -3.2041564 1.2889713
-3.6991432 -3.204592 1.2885816
-3.6863737 -3.225363 1.288075
-3.6813445 -3.2112038 1.2874209
-3.6829956 -3.2270992 1.2933584
-3.6687405 -3.2230854 1.2880504
-3.6763198 -3.235697 1.2961968
-3.6670952 -3.2443228 1.284327
-3.6495409 -3.2510834 1.2820591
-3.6585658 -3.251188 1.2792387
-3.641295 -3.2643311 1.2907616
-3.6443152 -3.2677877 1.2870189
-3.647718 -3.2629693 1.2876693
-3.6316202 -3.2776232 1.2876366
-3.6361697 -3.2784367 1.2768599
-3.6347742 -3.289511 1.2952421
-3.6186798 -3.2926874 1.2861514
-3.6144319 -3.2911694 1.2935673
-3.6220467 -3.2966344 1.2793487
-3.6119225 -3.2956686 1.2901453
-3.6046114 -3.3019836 1.2929121
-3.6057706 -3.3158777 1.2773293
-3.5906653 -3.31774 1.2916658
-3.5949025 -3.3280778 1.2964426
-3.5791657 -3.3275449 1.2854939
-3.5741982 -3.3302038 1.2885523
-3.5708418 -3.3413625 1.2935092
-3.5765691 -3.3528745 1.2850527
-3.5748734 -3.3566096 1.2961935
-3.5673892 -3.3548357 1.2933556
-3.5491016 -3.3503733 1.289252
-3.5480402 -3.3716993 1.2962973
-3.5425546 -3.3625567 1.2865164
-3.5427256 -3.3822949 1.2914276
-3.5381129 -3.3709466 1.2818949
-3.524442 -3.3792887 1.2947202
-3.5277057 -3.3889384 1.2813971
-3.5260057 -3.3889871 1.2815659
-3.5127554 -3.3920186 1.2829969
-3.5083573 -3.4122512 1.2911923
-3.5067902 -3.3988886 1.2888343
-3.5093198 -3.409164 1.2901279
-3.5047972 -3.4186599 1.2855349
-3.4900489 -3.4130402 1.2861682
-3.4903824 -3.4275277 1.2831076
-3.4802418 -3.4330711 1.2766565
-3.4772692 -3.4466126 1.2854998
-3.4676127 -3.4431946 1.2792326
-3.4777806 -3.4512739 1.2948653
-3.466511 -3.4597099 1.29519
-3.4670389 -3.45134 1.2937952
-3.4499183 -3.470268 1.2870367
-3.4514971 -3.4694486 1.295687
-3.4376624 -3.4786627 1.294855
-3.4431875 -3.4729991 1.2844268
-3.4317663 -3.4819903 1.2933396
-3.4267898 -3.4928114 1.2935891
-3.4329629 -3.4987853 1.2821277
-3.4253969 -3.4997427 1.2874514
-3.4221914 -3.4942536 1.2891971
-3.4186544 -3.5141218 1.2841635
-3.4165056 -3.5017054 1.2850462
-3.4011087 -3.5157113 1.2915858
-3.3970549 -3.5207319 1.2937419
-3.3938262 -3.516134 1.2863858
-3.3810194 -3.5249784 1.2948552
-3.3792927 -3.533716 1.2773141
-3.3773103 -3.5335035 1.2786026
-3.3667824 -3.5506082 1.2837301
-3.3709245 -3.5493975 1.2791369
-3.3733141 -3.5495465 1.2794583
-3.3607309 -3.5524499 1.2769722
-3.3472583 -3.5648665 1.2852497
-3.3472395 -3.558146 1.2932689
-3.3450582 -3.5731201 1.2906414
-3.3302264 -3.5802171 1.2839184
-3.3269186 -3.570524 1.2931995
-3.3211453 -3.5837915 1.2874279
-3.3140771 -3.5914812 1.2892796
-3.3218749 -3.5882688 1.2770629
-3.3142595 -3.5924091 1.2894112
-3.3063161 -3.6089358 1.2835631
-3.3008525 -3.6169655 1.2899988
-3.3071048 -3.6099594 1.2878482
-3.2853315 -3.6257608 1.2954098
-3.2861793 -3.6317263 1.2805537
-3.2737434 -3.6193857 1.2800628
-3.2720203 -3.6262808 1.2909696
-3.2760623 -3.6311231 1.2788452
-3.2582462 -3.6487844 1.2945843
-3.2726405 -3.6438587 1.2908272
-3.2546799 -3.656024 1.2951808
-3.2625611 -3.6477668 1.2961346
-3.2440002 -3.6508093 1.2887177
-3.2475836 -3.6571326 1.2901155
-3.2435992 -3.669364 1.290157
-3.2344644 -3.6742263 1.2871406
-3.2258143 -3.6824386 1.281824
-3.2262509 -3.6797726 1.2962528
-3.2188058 -3.6843765 1.277601
-3.2156153 -3.688467 1.2884483
-3.2161756 -3.6996958 1.2916967
-3.1923759 -3.7039108 1.2877614
-3.1876161 -3.6946764 1.2853357
-3.1902671 -3.7141435 1.2811315
-3.191514 -3.7147501 1.2892338
-3.1727133 -3.7113523 1.2770042
-3.1769226 -3.7244413 1.2810858
-3.1664424 -3.72311 1.2923496
-3.1615272 -3.7394829 1.2835186
-3.1552577 -3.7378209 1.2950989
-3.1581345 -3.7418811 1.279945
-3.1577568 -3.7473099 1.2850636
-3.1413083 -3.7531533 1.2838967
-3.1472795 -3.7468286 1.2877357
-3.1374485 -3.7469375 1.2954338
-3.1195092 -3.7534387 1.290988
-3.1137934 -3.7693489 1.2779045
-3.1239898 -3.7599843 1.290596
-3.1029162 -3.7709162 1.2913513
-3.1106677 -3.7807963 1.2781979
-3.1068327 -3.7787776 1.2854062
-3.0981457 -3.7816114 1.2916003
-3.0843339 -3.7932332 1.2963585
-3.0916831 -3.7960684 1.2918414
-3.0751872 -3.7943218 1.2916082
-3.0709872 -3.7998903 1.2892591
-3.0712268 -3.8050039 1.2953779
-3.0645442 -3.8055811 1.2952318
-3.0651639 -3.8103576 1.2885174
-3.0450222 -3.8281651 1.2962785
-3.0580282 -3.8274226 1.2904069
-3.0438197 -3.8232844 1.2860428
-3.1606369 -3.9784973 1.2281042
-3.1552577 -3.9786608 1.217943
-3.1343896 -3.9876373 1.2138473
-3.1337483 -3.9977291 1.2284945
-3.1354504 -3.9933815 1.2223321
-3.1310272 -4.0076785 1.2198894
-3.126744 -4.0079284 1.2169591
-3.1091692 -4.0133758 1.2205032
-3.1038272 -4.0171738 1.2290639
-3.1043506 -4.0121145 1.2260295
-3.0892322 -4.0320039 1.2199072
-3.0857599 -4.0320835 1.2180367
-3.092443 -4.0368705 1.2115971
-3.0832155 -4.0465984 1.2194655
-3.0793347 -4.0436158 1.2160733
-3.0616105 -4.0418038 1.2227681
-3.0663228 -4.0613093 1.2135894
-3.0539596 -4.0488458 1.2233318
-3.0580463 -4.0566525 1.2136366
-3.0535665 -4.0706015 1.2133534
-3.0521147 -4.0750561 1.2175256
-3.1496201 -4.2329078 1.1596689
-3.1359379 -4.2319975 1.1476405
-3.1286895 -4.2275019 1.1502056
-3.1335664 -4.2447743 1.1600668
-3.1218295 -4.2499762 1.1560451
-3.1233916 -4.2455511 1.1568155
-3.1141264 -4.2544289 1.1543391
-3.1151125 -4.2530661 1.1483372
-3.105788 -4.2529011 1.1526606
-3.0967405 -4.2569685 1.1567951
-3.0835147 -4.2713909 1.1585747
-3.0818534 -4.278039 1.1456717
-3.0722144 -4.2833519 1.1616633
-3.0800042 -4.2794614 1.1447732
-3.0579269 -4.2897592 1.1470636
-3.0598652 -4.2875514 1.1581533
-3.0610273 -4.3020158 1.1447309
-3.0446596 -4.303411 1.1570293
-3.0342879 -4.3014312 1.1538419
-3.148376 -4.4705386 1.0846415
-3.129319 -4.4583554 1.0916373
-3.1284764 -4.470479 1.0963095
-3.1205306 -4.4789371 1.0799849
-3.1165874 -4.4811654 1.0918585
-3.1095278 -4.4873018 1.077733
-3.1001718 -4.481369 1.0901064
-3.0997202 -4.4825959 1.0922974
-3.0926847 -4.4934587 1.0973678
-3.0933449 -4.4999599 1.0886836
-3.0771866 -4.4977756 1.0893278
-3.0839365 -4.5027714 1.0865557
-3.0636842 -4.5131683 1.0960519
-3.0587537 -4.5218682 1.0814729
-3.050142 -4.5128803 1.0890402
-3.0496507 -4.5230942 1.0948364
-3.0432789 -4.53022 1.0909225
-3.149627 -4.6998849 1.0238435
-3.1284599 -4.6922235 1.0165272
-3.1222165 -4.6915073 1.0270402
-3.124651 -4.7009249 1.0240592
-3.126435 -4.7033892 1.0203952
-3.1109853 -4.711905 1.0306387
-3.1060333 -4.7217999 1.0164776
-3.095654 -4.7293983 1.0155908
-3.0977018 -4.722827 1.0287676
-3.073947 -4.7362113 1.0190874
-3.0741003 -4.7371778 1.0207198
-3.0750401 -4.7435355 1.0144111
-3.0632901 -4.7502136 1.0132068
-3.0610213 -4.7458968 1.0269648
-3.0417275 -4.7499409 1.0226283
-3.0460918 -4.7651176 1.014137
-3.1417789 -4.9209571 0.95381635
-3.1298268 -4.9341278 0.95652592
-3.1187553 -4.9359465 0.95014
-3.1145008 -4.9406171 0.95469385
-3.1199205 -4.9320536 0.962596
-3.1037016 -4.9510484 0.94844615
-3.0937855 -4.9449177 0.95191425
-3.0850673 -4.9431491 0.9639861
-3.0825853 -4.9487228 0.95629168
-3.0844338 -4.9653034 0.95768893
-3.0747676 -4.9626474 0.94653183
-3.0591295 -4.9749155 0.94659555
-3.0607762 -4.9629946 0.94922245
-3.0488026 -4.9737082 0.9515509
-3.0322695 -4.9767361 0.94680566
-6.9320607 -2.9969509 0.41966894
-6.9307051 -3.0029635 0.4105452
-6.9185033 -3.0270879 0.40425184
-6.9292431 -3.0282192 0.42151484
-6.9200802 -3.0339491 0.42173946
-6.913609 -3.0381949 0.40474132
-6.9053388 -3.0480983 0.40384787
-6.7244577 -2.9935431 0.47693074
-6.7228494 -3.0018716 0.48610514
-6.7236543 -3.0013311 0.47173354
-6.7169003 -3.0199139 0.48412555
-6.7167778 -3.0213435 0.48019573
-6.7057662 -3.0347872 0.48182654
-6.7010345 -3.0432005 0.4720051
-6.6990271 -3.046694 0.48612669
-6.6967816 -3.0679729 0.48566979
-6.5196733 -2.9861593 0.54987615
-6.5154037 -2.9994287 0.53646106
-6.5029445 -3.0152795 0.54412574
-6.501298 -3.0161378 0.54173303
-6.4940104 -3.0344579 0.55015379
-6.494318 -3.0368843 0.54653531
-6.4985428 -3.0525408 0.53885758
-6.4811239 -3.0677207 0.55214518
-6.4935141 -3.0651612 0.55131173
-6.3209295 -3.0033922 0.60347146
-6.2997432 -3.0016642 0.60280788
-6.2992435 -3.0198634 0.61798954
-6.2921467 -3.0298128 0.60642934
-6.2973728 -3.0223379 0.60311377
-6.2849798 -3.0318103 0.6105752
-6.2841535 -3.0458379 0.6047014
-6.2869329 -3.0483506 0.61225617
-6.2773786 -3.0577176 0.61371017
-6.1047177 -3.0003746 0.67170233
-6.1028008 -3.0087342 0.67438
-6.0936179 -3.0001049 0.66760862
-6.0850868 -3.0151858 0.67145473
-6.0813618 -3.0273919 0.67416245
-6.0891852 -3.0290587 0.67315006
-6.0803127 -3.0425785 0.67146444
-6.0639663 -3.059531 0.6645444
-6.0734825 -3.0635343 0.66389883
-6.0554318 -3.0622663 0.68266761
-5.8872895 -2.9966912 0.72907454
-5.8947945 -2.9989033 0.73074859
-5.8796101 -3.0161357 0.72957826
-5.8711853 -3.009052 0.74184752
-5.8789034 -3.0224707 0.73042524
-5.8639021 -3.0279517 0.7458449
-5.8699017 -3.0488107 0.7362473
-5.8575754 -3.0575864 0.73819411
-5.8521576 -3.0601523 0.74462837
-5.8473744 -3.0689538 0.7408154
-5.8438106 -3.0825367 0.74530828
-5.6714454 -2.9994869 0.80073184
-5.6648068 -2.9935482 0.80224907
-5.6793275 -3.0033984 0.79907554
-5.6615677 -3.0251911 0.81070322
-5.6552191 -3.0162184 0.80506372
-5.65344 -3.037493 0.80677307
-5.6612477 -3.0307004 0.80790883
-5.6470971 -3.0427606 0.79467469
-5.6465015 -3.0543191 0.80082917
-5.6297073 -3.0666072 0.80158466
-5.6284099 -3.0781233 0.80524045
-5.6365829 -3.0871935 0.8027733
-5.4574428 -3.00387 0.86329418
-5.4473777 -2.9978881 0.86504376
-5.4456744 -3.0097837 0.86368674
-5.4495997 -3.0241373 0.86897004
-5.4518051 -3.0305462 0.86895502
-5.4328642 -3.0270636 0.86478287
-5.4271469 -3.0472555 0.87694931
-5.4352641 -3.0549345 0.86471879
-5.4226155 -3.065608 0.8688572
-5.4263005 -3.0687578 0.87180459
-5.4124422 -3.0828664 0.8748306
-5.4229574 -3.0711076 0.87147415
-5.2474775 -2.9879711 0.92875725
-5.2377105 -3.0066323 0.93440533
-5.24265 -3.0117288 0.94126254
-5.2275944 -3.0221245 0.93921429
-5.2367005 -3.0310535 0.92458045
-5.2336302 -3.0323617 0.92986774
-5.2227802 -3.0452936 0.93207586
-5.2077818 -3.0461929 0.93872243
-5.2098255 -3.0575271 0.93884259
-5.2088327 -3.0636809 0.93829769
-5.2111869 -3.0629041 0.93457687
-5.2011528 -3.0765545 0.93952978
-5.1854606 -3.0793481 0.92671537
-5.0203967 -2.9944522 0.99573392
-5.0200105 -2.9995081 0.99823505
-5.0142484 -3.0057285 1.0067394
-5.0231895 -3.0053439 0.98961753
-5.0099125 -3.0142155 0.99889576
-5.0099788 -3.0293963 1.0041333
-5.0099158 -3.0278602 0.99050492
-4.9903874 -3.0329633 1.0049347
-4.9945703 -3.0523283 0.99298984
-4.9937906 -3.0603073 1.0055208
-4.9858155 -3.0700426 0.99336326
-4.9737177 -3.0635827 1.0031804
-4.9791088 -3.0755613 0.99380189
-4.975986 -3.0806911 0.99182719
-4.8093948 -2.9967582 1.0528994
-4.7942357 -2.9969037 1.0608925
-4.7938299 -3.0012257 1.0574231
-4.7870431 -3.0102692 1.0558457
-4.7858171 -3.007755 1.0618927
-4.7765269 -3.0287302 1.0669444
-4.7746959 -3.0260093 1.0692381
-4.7850137 -3.0354788 1.0649632
-4.7655044 -3.0346379 1.0556753
-4.7753649 -3.0549822 1.0682167
-4.76719 -3.0536332 1.0716386
-4.7628398 -3.0613134 1.0616382
-4.7504869 -3.0727844 1.0540332
-4.7615943 -3.0816753 1.0640961
-4.7542691 -3.0935557 1.0633788
-4.7408881 -3.1003711 1.0683861
-4.5841398 -2.9860218 1.1277137
-4.58354 -3.0095809 1.1193541
-4.5672054 -2.9978843 1.1185174
-4.5601506 -3.0203104 1.1240125
-4.560545 -3.0188339 1.1375263
-4.5575085 -3.017288 1.1300242
-4.5644636 -3.0276797 1.137709
-4.5590148 -3.0334785 1.1231551
-4.5434942 -3.0362613 1.1233667
-4.5486822 -3.0499816 1.1234031
-4.5288539 -3.0495875 1.1208546
-4.5345945 -3.0727854 1.121154
-4.528686 -3.0638499 1.1195511
-4.5236053 -3.0720692 1.1219172
-4.5130205 -3.0849016 1.1321493
-4.5089135 -3.0989254 1.1303107
-4.5122995 -3.1041408 1.1244578
-4.3521876 -3.0008569 1.1840832
-4.3425751 -2.9933856 1.2023859
-4.3527427 -3.0153654 1.193328
-4.342865 -3.0217891 1.1910179
-4.3355274 -3.0182347 1.1918577
-4.3278818 -3.0330617 1.1879748
-4.3218312 -3.0271068 1.2022085
-4.3134055 -3.0348749 1.1899394
-4.3147392 -3.0428524 1.1899701
-4.3179035 -3.0585408 1.1911031
-4.3069119 -3.054256 1.1945354
-4.3011923 -3.0645511 1.1915272
-4.2971611 -3.0692151 1.1926215
-4.3021798 -3.0682113 1.1933683
-4.2895002 -3.0840886 1.18374
-4.2959723 -3.0765471 1.1853493
-4.2863188 -3.0871902 1.1989721
-4.2824235 -3.0936511 1.1908795
-4.1177301 -2.9945207 1.2657617
-4.1262116 -2.9937789 1.2660909
-4.1135526 -3.0063148 1.2567397
-4.1174526 -3.0174084 1.2631223
-4.104353 -3.0087571 1.2508638
-4.1101508 -3.0294189 1.2656257
-4.0951943 -3.0217037 1.2505215
-4.0898576 -3.0247719 1.2489636
-4.0829039 -3.0425062 1.2627616
-4.0823193 -3.0406728 1.2560912
-4.0898194 -3.0515411 1.2633606
-4.0673347 -3.0550802 1.257139
-4.0645127 -3.0701571 1.2641426
-4.071034 -3.0733395 1.265808
-4.0711651 -3.0676355 1.2618741
-4.0635467 -3.0719509 1.2630219
-4.0611582 -3.0855389 1.2576226
-4.0538659 -3.0980275 1.2548867
-4.0481238 -3.0878079 1.2601426
-4.0485759 -3.1012566 1.2529514
-3.8857958 -2.9910593 1.3255113
-3.8857942 -2.9978449 1.3153347
-3.8720067 -3.0060861 1.315783
-3.871208 -3.0051341 1.318745
-3.8687363 -3.0086064 1.3131009
-3.8701909 -3.0087612 1.3288255
-3.8704901 -3.0308368 1.31664
-3.8561811 -3.0299375 1.3176377
-3.8446004 -3.0276208 1.3145211
-3.8477566 -3.0300889 1.3236154
-3.8380961 -3.0440123 1.3131533
-3.8407738 -3.0421216 1.321344
-3.8336208 -3.0506382 1.3267261
-3.8260117 -3.0625587 1.318487
-3.835433 -3.0562172 1.3321967
-3.8304911 -3.0755482 1.3311664
-3.8098171 -3.0794036 1.3134696
-3.8213212 -3.0731826 1.3220756
-3.8118203 -3.0796213 1.3183954
-3.8054283 -3.0934637 1.3176383
-3.8099346 -3.1019008 1.3283432
-3.8048956 -3.0972786 1.3263184
-3.7916586 -3.1097734 1.3211503
-3.7930319 -3.118937 1.3294294
-3.7826369 -3.1218071 1.3294113
-3.7785249 -3.124028 1.3154178
-3.7754359 -3.1298752 1.3229184
-3.770036 -3.1315341 1.3219836
-3.7760231 -3.1480069 1.3199475
-3.7656829 -3.1424103 1.3294004
-3.7560923 -3.1456499 1.3157415
-3.7557895 -3.1481881 1.3320241
-3.7575045 -3.1618338 1.3211253
-3.74438 -3.1612051 1.32637
-3.742969 -3.174541 1.3140457
-3.7415688 -3.1681318 1.3247954
-3.7341549 -3.1830077 1.3149868
-3.7192333 -3.1968658 1.3288022
-3.725239 -3.2010996 1.3314213
-3.7132735 -3.1993899 1.3249074
-3.7118478 -3.2124932 1.3204182
-3.7040737 -3.2097051 1.3186491
-3.7000098 -3.2130501 1.3284861
-3.7068377 -3.2276964 1.3241976
-3.6884134 -3.2253647 1.3318129
-3.6823063 -3.2260735 1.3310707
-3.6854422 -3.2438159 1.3206797
-3.6783795 -3.2310913 1.3216517
-3.6774943 -3.2488346 1.3236045
-3.6739826 -3.2590821 1.3124756
-3.6769779 -3.2523806 1.3134454
-3.6644549 -3.2623889 1.3223995
-3.6536942 -3.2728245 1.3131982
-3.653089 -3.2745864 1.3145341
-3.6567652 -3.2824299 1.3233787
-3.6528192 -3.2886789 1.3166854
-3.6496081 -3.2825842 1.3174143
-3.636781 -3.2939539 1.3160259
-3.6229749 -3.2889726 1.3220458
-3.6272087 -3.3050215 1.3229638
-3.6225646 -3.3086145 1.3157226
-3.6169431 -3.3042405 1.3236058
-3.6223607 -3.313669 1.3261795
-3.6169727 -3.3270624 1.3321115
-3.6102414 -3.3287098 1.3153136
-3.5946586 -3.3309956 1.3173738
-3.5857623 -3.3346617 1.3306297
-3.5961297 -3.3500998 1.3176103
-3.5878787 -3.3563373 1.31466
-3.5736008 -3.3514218 1.3207421
-3.5783978 -3.3664818 1.3283063
-3.5704291 -3.360548 1.3253132
-3.5745702 -3.3646657 1.3179537
-3.5561304 -3.3680365 1.3222563
-3.5517519 -3.3693244 1.3299607
-3.5441644 -3.3796849 1.3204221
-3.5545096 -3.3858111 1.3322532
-3.5515921 -3.3869743 1.3136759
-3.541687 -3.4045627 1.313884
-3.5347252 -3.3925567 1.3240243
-3.5216746 -3.4100378 1.3241143
-3.5210526 -3.4042475 1.3151417
-3.523417 -3.4073026 1.3270481
-3.513134 -3.4166293 1.3205738
-3.5185416 -3.4262958 1.3177953
-3.4962378 -3.4330997 1.3296334
-3.5034659 -3.4349811 1.3203157
-3.4988558 -3.4386837 1.3147986
-3.4928164 -3.4372275 1.3166502
-3.486562 -3.4535623 1.3154584
-3.4901605 -3.461606 1.3217293
-3.4736621 -3.4537945 1.3187276
-3.4661298 -3.4731209 1.3176014
-3.4666841 -3.4669445 1.3320723
-3.453706 -3.470963 1.3217939
-3.4634995 -3.4774718 1.329622
-3.4414482 -3.4760094 1.3204727
-3.4487078 -3.494745 1.3125176
-3.441478 -3.4922557 1.3309094
-3.4323897 -3.5083332 1.3178499
-3.4244864 -3.5128376 1.3216234
-3.4303057 -3.5056787 1.3180786
-3.4191198 -3.5158291 1.3200707
-3.4090536 -3.5113823 1.3130957
-3.4045095 -3.5188129 1.326952
-3.4102376 -3.5208991 1.3191425
-3.4081304 -3.5258026 1.3176314
-3.3951662 -3.5428414 1.3222141
-3.3901503 -3.5375326 1.3141087
-3.3867362 -3.5480247 1.3147415
-3.3763747 -3.5555091 1.3156787
-3.3822331 -3.5537152 1.3285768
-3.37163 -3.5656445 1.3161198
-3.3590279 -3.5724232 1.3128977
-3.3533943 -3.5795808 1.3270266
-3.3538978 -3.577395 1.3238438
-3.3622043 -3.578038 1.3205251
-3.3520153 -3.5906594 1.3249282
-3.3372369 -3.5832138 1.3193939
-3.3305576 -3.5973096 1.3281145
-3.3232388 -3.6060064 1.3140906
-3.3349764 -3.6055307 1.3265936
-3.3138094 -3.599427 1.3318934
-3.325093 -3.6057034 1.3151333
-3.319592 -3.6113346 1.3159281
-3.2999558 -3.6224649 1.3236136
-3.3034959 -3.6269033 1.3153542
-3.2903483 -3.6261611 1.3191648
-3.2927909 -3.6356554 1.315105
-3.2807617 -3.6434917 1.3216265
-3.2800052 -3.6490371 1.3241212
-3.2732663 -3.6513548 1.3317549
-3.2740178 -3.6575463 1.3301482
-3.2694633 -3.6600685 1.3269142
-3.2616625 -3.6621437 1.3226907
-3.2530606 -3.6696432 1.3319719
-3.2567666 -3.6657493 1.3214422
-3.2487259 -3.6737809 1.3162756
-3.2368681 -3.6893351 1.3262283
-3.2290637 -3.6779461 1.312951
-3.2347317 -3.6908932 1.3187275
-3.2178986 -3.7022002 1.3267788
-3.2134254 -3.6993642 1.3132236
-3.2105527 -3.6970854 1.3217241
-3.2109077 -3.7121236 1.3127201
-3.1954799 -3.7036846 1.3207804
-3.1907647 -3.7240822 1.317291
-3.1965728 -3.7215765 1.3303193
-3.1875412 -3.7323563 1.3323354
-3.1885509 -3.7404819 1.3302755
-3.1828318 -3.7394314 1.3197963
-3.1713297 -3.7467101 1.3225305
-3.1717701 -3.7346845 1.3126141
-3.1657596 -3.7449613 1.3294824
-3.1512425 -3.7607744 1.3158113
-3.1457231 -3.7663472 1.3150707
-3.1521373 -3.7523985 1.3184166
-3.1420345 -3.7694583 1.3287455
-3.1388974 -3.7626927 1.312764
-3.1337383 -3.7821496 1.3131198
-3.1306326 -3.7811058 1.3189811
-3.1180003 -3.7937849 1.3220114
-3.1226275 -3.7921357 1.3215079
-3.1171653 -3.7897134 1.315161
-3.0948284 -3.7980175 1.3174269
-3.1061568 -3.806052 1.3185387
-3.0982194 -3.8057561 1.3180101
-3.0869303 -3.8006198 1.3248258
-3.0853062 -3.8176148 1.3228034
-3.0796573 -3.8147244 1.3257135
-3.073647 -3.8140092 1.314049
-3.0617692 -3.825948 1.3140799
-3.0668552 -3.8278067 1.3201268
-3.0524385 -3.8295016 1.3129555
-3.044363 -3.8341644 1.3218324
-3.0540154 -3.8354664 1.3270197
-3.0425501 -3.8541479 1.3168401
-3.1487164 -3.9954321 1.2512211
-3.1507447 -4.0120153 1.2578351
-3.1347892 -4.008285 1.2516544
-3.1359174 -4.0238843 1.2504964
-3.1287038 -4.0129528 1.2616997
-3.1214535 -4.0324602 1.255337
-3.1281502 -4.0229092 1.2515644
-3.1220119 -4.0306473 1.2674065
-3.1069906 -4.0334082 1.2662168
-3.106776 -4.0500808 1.250608
-3.096735 -4.041193 1.266539
-3.0874014 -4.0399294 1.2502975
-3.0914478 -4.0483122 1.2621897
-3.0816689 -4.0634313 1.2628776
-3.0730419 -4.0569515 1.2588843
-3.0732057 -4.0688415 1.2597634
-3.059726 -4.0730548 1.2545649
-3.0500131 -4.0767627 1.2659922
-3.0444522 -4.0710878 1.2590142
-3.0400748 -4.0908432 1.2597119
-3.1442156 -4.2379889 1.188732
-3.1392922 -4.249835 1.1882534
-3.130604 -4.25139 1.1837163
-3.1300175 -4.2488346 1.1883763
-3.128737 -4.2633271 1.1838247
-3.1314435 -4.2636638 1.1916833
-3.113265 -4.2562075 1.1996212
-3.1002791 -4.2647309 1.188136
-3.0958595 -4.2733922 1.1866022
-3.098412 -4.2833805 1.1895819
-3.1002607 -4.2903047 1.201457
-3.0881777 -4.278234 1.1858964
-3.0765674 -4.2834101 1.1931827
-3.069488 -4.2939401 1.187418
-3.0777428 -4.3091364 1.1915461
-3.0705433 -4.3129926 1.1997145
-3.0554788 -4.3046288 1.1997079
-3.0524707 -4.3092446 1.1955379
-3.0409417 -4.315412 1.1870589
-3.1397901 -4.4848318 1.1280298
-3.1465874 -4.4875126 1.1313169
-3.1415031 -4.4840999 1.1310015
-3.1319735 -4.4950719 1.1298287
-3.1151514 -4.4849658 1.122436
-3.124088 -4.489121 1.1241486
-3.1088903 -4.5120902 1.1262985
-3.1055181 -4.5060139 1.1210967
-3.1021466 -4.5029545 1.1355559
-3.0829389 -4.5143976 1.1281155
-3.0922041 -4.5218763 1.1302376
-3.075587 -4.5224109 1.1340817
-3.0756769 -4.5241265 1.1257329
-3.056076 -4.5425839 1.1307976
-3.057642 -4.5304966 1.1303453
-3.0465946 -4.5336294 1.1301055
-3.0538287 -4.5478544 1.1312556
-3.1440537 -4.7022648 1.0579269
-3.1341081 -4.7024899 1.0569044
-3.1296973 -4.7098145 1.0687718
-3.1327207 -4.712718 1.0574845
-3.113616 -4.7253237 1.0699775
-3.1106608 -4.7243452 1.0650609
-3.0960486 -4.7300968 1.0659842
-3.0963655 -4.7437525 1.0632833
-3.0971286 -4.7527037 1.0617293
-3.0781255 -4.755239 1.0702213
-3.0779662 -4.7492075 1.065827
-3.0662243 -4.7598114 1.0656074
-3.0554988 -4.7525916 1.0624534
-3.0528998 -4.7549887 1.0607773
-3.0615821 -4.7648802 1.0708672
-3.0377657 -4.7784219 1.0662988
-3.1404674 -4.9435349 0.99542654
-3.1404092 -4.936152 1.0001487
-3.1230459 -4.9361558 1.0002543
-3.1272306 -4.9437857 1.0021505
-3.102917 -4.9578915 0.99439484
-3.1029918 -4.966897 1.0003424
-3.1032801 -4.9718242 0.9978075
-3.0867162 -4.9608059 0.99716431
-3.0918224 -4.9651289 0.99090898
-3.0868328 -4.972301 0.99538183
-3.0664055 -4.9872389 0.99857432
-3.071939 -4.9890184 0.99354267
-3.0527444 -4.9803405 0.99289078
-6.9525137 -2.9956911 0.47857875
-6.9447703 -2.9983451 0.46568453
-6.9427872 -3.0138078 0.46027002
-6.9340544 -3.0289199 0.47435185
-6.9386859 -3.0379024 0.47886941
-6.9237747 -3.0461168 0.46281052
-6.9356389 -3.0566301 0.46927568
-6.9263616 -3.0641062 0.46105483
-6.7459741 -2.9884222 0.53495437
-6.7400417 -3.0150473 0.53311735
-6.7373271 -3.0126834 0.52451384
-6.7336688 -3.0267754 0.52297688
-6.7228913 -3.0430973 0.5356921
-6.7175155 -3.0349131 0.52300435
-6.7180448 -3.0556002 0.53103721
-6.7140431 -3.0656297 0.54055279
-6.5337024 -2.9927433 0.5927673
-6.5393786 -2.9936669 0.60366964
-6.5332632 -3.0117543 0.60281825
