# .PCD v0.7 - Point Cloud Data file format
VERSION 0.7
FIELDS x y z
SIZE 4 4 4
TYPE F F F
COUNT 1 1 1
WIDTH 1539
HEIGHT 1
VIEWPOINT 0 0 0 1 0 0 0
POINTS 1539
DATA ascii
-2.9678175 4.1860762 1.3358437
-2.9724162 4.1832547 1.3289396
-2.9749901 4.1785064 1.3290249
-2.8840451 4.0265007 1.3966153
-2.8812301 4.0192966 1.3968947
-2.8887205 4.0163369 1.3917129
-2.8952529 3.9990139 1.4008522
-2.9061437 4.0123773 1.389864
-2.901474 3.996388 1.4005541
-2.9043264 4.0007281 1.3888251
-2.9103353 3.9906483 1.3970566
-2.9224446 3.9817924 1.3866341
-2.921452 3.9761791 1.3956387
-2.9403687 3.9762368 1.3910923
-2.9338226 3.9846995 1.4033784
-2.9469914 3.9712558 1.3967488
-2.9453361 3.9768579 1.3968486
-2.954536 3.9571424 1.3943716
-2.9547181 3.9676635 1.399973
-2.9642043 3.9608939 1.39399
-2.9654138 3.953671 1.4020104
-2.9783859 3.9398892 1.3852661
-2.9817748 3.9526441 1.3870071
-2.8808041 3.7809117 1.4550459
-2.8795121 3.7925289 1.453528
-2.8859286 3.7765045 1.4626884
-2.8989687 3.7676575 1.4615808
-2.8919036 3.7751265 1.4648948
-2.9073098 3.7679238 1.4628751
-2.8971088 3.7567389 1.4582387
-2.9128852 3.7498434 1.4505399
-2.9206355 3.7554684 1.4532276
-2.9251244 3.7431917 1.4528459
-2.9278667 3.7420177 1.4560248
-2.9246979 3.7474 1.4548507
-2.9430411 3.7316251 1.4616898
-2.9322183 3.7280629 1.4637265
-2.9424975 3.7368133 1.4572843
-2.9494567 3.7353995 1.4476987
-2.9584298 3.729423 1.4509951
-2.9720337 3.7129006 1.4514699
-2.9733305 3.7138529 1.461651
-2.9719338 3.7155354 1.463644
-2.9709129 3.6996891 1.4485589
-2.9867074 3.6922195 1.4629596
-2.9836702 3.6916084 1.4656956
-2.8736467 3.5396888 1.5111207
-2.8815162 3.5501764 1.5272877
-2.8758225 3.5388896 1.5261734
-2.8797085 3.5238092 1.5232219
-2.9002926 3.5202982 1.5278947
-2.9003963 3.5206585 1.517674
-2.9103134 3.5275772 1.5132968
-2.8982315 3.520673 1.5172418
-2.9212291 3.5231245 1.5178928
-2.9098203 3.5137577 1.5221157
-2.9156699 3.4994118 1.5259368
-2.9182222 3.5021238 1.5242748
-2.9246016 3.495451 1.5153623
-2.9320898 3.4898081 1.5154122
-2.9425237 3.4884913 1.5160012
-2.9482789 3.4919755 1.5210072
-2.9442492 3.490442 1.5169955
-2.9645908 3.4858835 1.5101501
-2.9609816 3.4632151 1.5098335
-2.9567158 3.4768374 1.5242343
-2.9682212 3.4694865 1.5283803
-2.9758995 3.4644539 1.519336
-2.985234 3.4579067 1.5277234
-2.9834754 3.4487305 1.5145794
-2.9816611 3.4539738 1.5242368
-2.9992518 3.4383094 1.5215034
-2.8664215 3.2886465 1.5835018
-2.8828068 3.2865236 1.5829465
-2.8860319 3.2928405 1.5838683
-2.8895681 3.2882481 1.5825642
-2.8986976 3.2769694 1.578068
-2.9036756 3.2828255 1.5727047
-2.8976922 3.2641544 1.5849664
-2.9033158 3.2720435 1.5722308
-2.9020777 3.2665429 1.5889242
-2.9111762 3.2682414 1.5741457
-2.9230027 3.262145 1.5767736
-2.9149585 3.2442424 1.5813091
-2.9274638 3.2476878 1.5761982
-2.9390419 3.2521648 1.5905383
-2.9319181 3.232074 1.5776492
-2.9492848 3.2315617 1.5746725
-2.9520092 3.2215834 1.577087
-2.942466 3.2305264 1.5714594
-2.9656525 3.2252471 1.5844063
-2.9521399 3.2154026 1.5831331
-2.9734001 3.2182598 1.5798515
-2.9720266 3.2136834 1.5827613
-2.9661117 3.201118 1.5732168
-2.985302 3.2014856 1.5722561
-2.9901462 3.1934819 1.5753175
-2.9878738 3.192611 1.581986
-2.9885721 3.1935091 1.5828017
-2.9868503 3.1884384 1.5766926
-2.9907498 3.1846631 1.5894421
-2.8706071 3.0411999 1.6386253
-2.8826294 3.0388069 1.6526827
-2.8779275 3.0222526 1.6463206
-2.8903103 3.0360723 1.6515564
-2.8922319 3.0151551 1.6413292
-2.8951087 3.0138412 1.6472739
-2.8949182 3.0192413 1.6365294
-2.9080536 3.0083792 1.6508713
-3.0329871 3.139873 1.582203
-3.0515947 3.1355019 1.5760934
-3.0574467 3.1246018 1.5884039
-3.0562432 3.1258996 1.5823513
-3.0609763 3.1161137 1.5837799
-3.0520654 3.1181538 1.5830694
-3.0579128 3.1224756 1.5854892
-3.0739815 3.1081183 1.5906479
-3.0840993 3.1181431 1.5852662
-3.0849557 3.0992188 1.5730871
-3.091464 3.0921612 1.5802684
-3.0845013 3.0908608 1.5873405
-3.083642 3.0880673 1.5877806
-3.0904663 3.0908306 1.5737925
-3.1033368 3.0732076 1.5742987
-3.114773 3.0688367 1.5811312
-3.1069136 3.0829537 1.5765779
-3.1166282 3.065331 1.5819653
-3.1211779 3.0619137 1.5816822
-3.1311033 3.0619571 1.5867852
-3.1332018 3.0598032 1.5891469
-3.1281128 3.0489171 1.5745306
-3.1359456 3.0431893 1.5814496
-3.1433322 3.0349305 1.5754662
-3.1447008 3.0380878 1.5762004
-3.1455569 3.0340903 1.5769103
-3.1595745 3.0222268 1.5760894
-3.158139 3.0249176 1.5820044
-3.1513102 3.0273213 1.5888665
-3.1647582 3.024056 1.5801423
-3.1730969 3.002943 1.5736406
-3.3174565 3.1415012 1.5185014
-3.3182194 3.1259336 1.5241563
-3.3120568 3.1272113 1.5259465
-3.331871 3.1313465 1.5152941
-3.3309448 3.1188447 1.5250498
-3.3293018 3.1165392 1.527354
-3.3284736 3.1198764 1.5167665
-3.3417234 3.1142437 1.5130064
-3.348105 3.0993581 1.5104107
-3.343204 3.1003225 1.511137
-3.3447983 3.0994985 1.5245248
-3.3593917 3.0822699 1.5269853
-3.3683236 3.0755558 1.51537
-3.3754587 3.0733728 1.5125422
-3.3732395 3.0764549 1.5218716
-3.3812582 3.0655122 1.5135601
-3.386966 3.0597236 1.5132563
-3.3832548 3.0650046 1.5119967
-3.3832967 3.0482168 1.5205344
-3.3859282 3.0406361 1.514725
-3.3878264 3.0357609 1.5127865
-3.3963304 3.0405855 1.5183203
-3.4023671 3.040765 1.5218469
-3.4200125 3.0380893 1.5279031
-3.4204788 3.0219061 1.5217603
-3.4116094 3.0219715 1.5093997
-3.4310446 3.0205889 1.5159812
-3.4307768 3.0071716 1.5125803
-3.5751393 3.1227889 1.4550008
-3.5877542 3.1349854 1.4567225
-3.5861716 3.1295173 1.4583236
-3.5865204 3.119772 1.4495097
-3.6013286 3.1082106 1.4656416
-3.592603 3.1032174 1.4638702
-3.5978143 3.1019647 1.4506936
-3.6091611 3.0937819 1.4623662
-3.6128619 3.0903578 1.4574462
-3.6099737 3.091388 1.4639045
-3.6104796 3.0756135 1.465952
-3.6264243 3.0715718 1.4652038
-3.6206403 3.0734534 1.4640012
-3.6332481 3.05932 1.4580731
-3.6346626 3.0547054 1.4656096
-3.6399381 3.0631359 1.4531846
-3.6469781 3.050668 1.4645451
-3.6471875 3.0511589 1.4527669
-3.6557171 3.0322478 1.4626143
-3.6491597 3.0405166 1.4585481
-3.6561365 3.0325639 1.4637694
-3.6610589 3.032944 1.4500171
-3.6667223 3.0233786 1.4632202
-3.6735811 3.0054688 1.4473699
-3.8338397 3.1303568 1.3898574
-3.8192432 3.1140563 1.3880006
-3.837064 3.114958 1.3987738
-3.8435171 3.119885 1.3951416
-3.8417406 3.1005099 1.3977079
-3.8501093 3.1119127 1.3936584
-3.8425369 3.1005521 1.3867778
-3.8497353 3.0884755 1.3854046
-3.8506787 3.0949342 1.3995992
-3.8584113 3.0787263 1.401023
-3.8619866 3.0739231 1.3925238
-3.8809338 3.0680616 1.3930808
-3.8817298 3.0687163 1.3999022
-3.8717451 3.0672483 1.3970195
-3.885385 3.0518789 1.4001367
-3.8964512 3.0524559 1.4000379
-3.8915591 3.0449128 1.3939654
-3.8935399 3.034471 1.4012092
-3.8968866 3.0273786 1.400311
-3.9060309 3.0168381 1.3886096
-3.9137435 3.0269997 1.3975164
-3.9099481 3.0224841 1.3859783
-4.0766811 3.1168048 1.3383847
-4.0656528 3.1097836 1.3368855
-4.0774989 3.1133695 1.3254517
-4.0862203 3.1101284 1.3400357
-4.0950322 3.0960112 1.3325232
-4.0899091 3.1041372 1.3400218
-4.0975337 3.093133 1.3258862
-4.1060486 3.0771935 1.3266747
-4.106257 3.0777426 1.3230951
-4.1175504 3.0662806 1.3404762
-4.1203742 3.0633652 1.3422898
-4.1086497 3.0558171 1.3227813
-4.1184163 3.0607541 1.3325636
-4.1196089 3.0412934 1.324816
-4.1262097 3.0373359 1.3286681
-4.1403146 3.0428092 1.3263694
-4.1469126 3.0249574 1.3387957
-4.1476383 3.022882 1.3410177
-4.1475673 3.0248816 1.3295298
-4.1510682 3.0198631 1.3323271
-4.3114352 3.1273952 1.2758285
-4.3158798 3.1195889 1.2796744
-4.3198247 3.106267 1.2742224
-4.3139787 3.0959957 1.2750804
-4.3358717 3.103359 1.277758
-4.3339043 3.0808444 1.2716917
-4.3342271 3.0759504 1.2735622
-4.3421154 3.0745416 1.2791518
-4.3477731 3.0774066 1.2725416
-4.3449101 3.0609655 1.2667195
-4.359241 3.0625997 1.2631348
-4.347929 3.0641224 1.2777777
-4.3527627 3.0460258 1.2651383
-4.3630395 3.0380917 1.268273
-4.3724499 3.0325725 1.2648227
-4.3791738 3.0333204 1.2649155
-4.3719559 3.0180368 1.266178
-4.3828588 3.0191481 1.2721014
-4.3881636 3.0188758 1.2669654
-4.5572186 3.1127083 1.2093364
-4.5550876 3.1092715 1.2015626
-4.5565324 3.1013958 1.2014053
-4.5633259 3.0929267 1.2092506
-4.5627494 3.0784125 1.2152672
-4.5590296 3.0787113 1.2018759
-4.5787506 3.0765007 1.2153498
-4.5783701 3.0657139 1.1996633
-4.5767183 3.0682218 1.2112168
-4.5891342 3.049614 1.2086331
-4.5866771 3.0432801 1.1990467
-4.5997066 3.0433984 1.2123897
-4.6005011 3.0263839 1.2042289
-4.6014433 3.0268798 1.2139772
-4.6145315 3.0322464 1.2155955
-4.6015944 3.0256186 1.2039027
-4.781538 3.1069846 1.1542616
-4.7886443 3.1093373 1.1423693
-4.7914281 3.0976005 1.139393
-4.7826486 3.0976975 1.1442227
-4.7964435 3.0844922 1.1491387
-4.7998157 3.0824893 1.1405987
-4.8098354 3.063915 1.1414759
-4.8080063 3.0686119 1.1492867
-4.8164196 3.0644255 1.1489075
-4.8232055 3.0573721 1.1483499
-4.8216743 3.0540605 1.1521749
-4.827642 3.0479648 1.1450367
-4.8254919 3.0233984 1.1528515
-4.8263092 3.0319149 1.147459
-4.8422871 3.0109305 1.1555635
-4.8333392 3.0108588 1.148373
-5.0146918 3.104893 1.0871886
-5.0135274 3.1049461 1.0795546
-5.0045424 3.1008422 1.0744599
-5.0159268 3.0941999 1.0890436
-5.0278592 3.0733261 1.0870537
-5.0359564 3.0707135 1.0857117
-5.0311823 3.0544696 1.0865529
-5.0385833 3.0616181 1.082666
-5.0313673 3.0569887 1.0845562
-5.0360365 3.0454974 1.0931419
-5.0478868 3.0386045 1.0826846
-5.0587778 3.0371869 1.0792855
-5.0572934 3.0290556 1.0787933
-5.0608935 3.0138314 1.0786757
-5.2335901 3.1076257 1.0225739
-5.2247114 3.100697 1.0130217
-5.2371645 3.0828044 1.0142604
-5.2487664 3.0817626 1.0296884
-5.2442446 3.0721793 1.0275337
-5.2578225 3.0621588 1.0209404
-5.2628045 3.0645111 1.0145127
-5.2582331 3.0601847 1.0137318
-5.257051 3.0415459 1.0118901
-5.276351 3.0435002 1.0219004
-5.2757578 3.0206308 1.016118
-5.2691226 3.0309484 1.0307236
-5.2720299 3.0131109 1.0147589
-5.4391055 3.1016412 0.96294761
-5.445456 3.0850577 0.95102102
-5.4539504 3.0791633 0.9564147
-5.469027 3.0725436 0.95150691
-5.470521 3.0747418 0.94962525
-5.472785 3.0623584 0.95646322
-5.4768806 3.0549014 0.95261961
-5.4709544 3.052253 0.95327699
-5.4908004 3.0404451 0.95162797
-5.4960303 3.0299256 0.9595232
-5.4972138 3.0219331 0.94965458
-5.4880643 3.0118954 0.95082706
-5.657795 3.1085556 0.89160234
-5.6752839 3.083292 0.89552826
-5.6776695 3.0808077 0.88929504
-5.6819258 3.0803216 0.89832699
-5.6793327 3.0599921 0.88755649
-5.680572 3.0698297 0.90179819
-5.7011433 3.0440516 0.89189857
-5.7033525 3.0372639 0.89915174
-5.6976547 3.0335016 0.90609062
-5.7018151 3.023087 0.89067602
-5.7047915 3.0140934 0.88871402
-5.7048483 3.0119147 0.88941759
-8.6355772 1.3563675 0.14755405
-8.6270056 1.3497684 0.15186572
-8.6347885 1.331761 0.15377355
-8.6280422 1.3193191 0.14631736
-8.6374722 1.3055147 0.16104364
-8.6393833 1.303479 0.15279578
-8.6421509 1.2808487 0.16083071
-8.6434793 1.27794 0.15648656
-8.6438208 1.2586174 0.1499695
-8.6411095 1.2542605 0.16134724
-8.6418524 1.2464319 0.1470626
-8.6578655 1.2290503 0.15824328
-8.6495504 1.2057434 0.14348367
-8.6593103 1.2110246 0.14835174
-8.6565094 1.1887004 0.15148763
-8.6589651 1.1862724 0.14466256
-8.6496515 1.1628679 0.14728445
-8.6522865 1.1599092 0.15907741
-8.6592493 1.1383657 0.14362992
-8.6527119 1.1212738 0.15591028
-8.6547794 1.1251625 0.15244915
-8.6711149 1.1147448 0.14369579
-8.6762524 1.0943323 0.1437275
-8.6761332 1.085833 0.16113451
-8.6711292 1.0617906 0.14831395
-8.6629715 1.0569315 0.14516407
-8.6816225 1.0430077 0.15071087
-8.6776352 1.0280544 0.14540243
-8.6818371 1.0277272 0.15065601
-8.4926128 0.99377435 0.21305899
-8.499918 0.98130709 0.20932718
-8.4906683 0.97404224 0.20728979
-8.4901552 0.94316053 0.21695425
-8.4895935 0.93390232 0.21023576
-8.4916086 0.93113571 0.2115934
-8.5064268 0.91799659 0.22021247
-8.5043793 0.90765995 0.20703045
-8.496768 0.90274775 0.21101968
-8.4944487 0.87505287 0.20680842
-8.5068588 0.86912787 0.22250785
-8.4989834 0.85725319 0.21760689
-8.4948225 0.83596766 0.2173098
-8.5126829 0.83651799 0.21800159
-8.5008621 0.81893593 0.22130758
-8.5157433 0.80062842 0.21372117
-8.5092506 0.78877503 0.20487171
-8.514122 0.78022587 0.21756344
-8.5121584 0.78052771 0.21722245
-8.5061893 0.76437217 0.22106785
-8.5044146 0.75701284 0.21087123
-8.5069246 0.73871928 0.22068457
-8.5143185 0.72575957 0.22109869
-8.5219927 0.71609646 0.21395105
-8.5089579 0.69939435 0.22111084
-8.5126019 0.68893486 0.22185425
-8.5238142 0.68607557 0.22263692
-8.52386 0.65943563 0.20676462
-8.511198 0.65583301 0.22308987
-8.5188599 0.63925701 0.21515681
-8.5226593 0.62549633 0.2117631
-8.5166397 0.61025047 0.22197591
-8.3311501 0.59534031 0.27326408
-8.3348503 0.58728987 0.28465858
-8.3456831 0.57324809 0.27125525
-8.329339 0.55652094 0.2792981
-8.3322353 0.54952204 0.27638865
-8.3343325 0.54340202 0.27874753
-8.3322859 0.53085256 0.26941338
-8.3338976 0.51153272 0.27541402
-8.3434267 0.50928789 0.27956605
-8.3363333 0.49392149 0.28038549
-8.3390102 0.47524691 0.27148736
-8.3325157 0.47367826 0.26618963
-8.3346109 0.46206793 0.27850208
-8.3500938 0.44757575 0.28574041
-8.3375168 0.43094513 0.27763399
-8.3478336 0.41295877 0.27506271
-8.3357744 0.39774442 0.27159813
-8.353034 0.4016273 0.28047088
-8.3442755 0.37667441 0.27875698
-8.3513498 0.37949207 0.27333581
-8.3375883 0.36029309 0.28090015
-8.3527079 0.34823215 0.27855679
-8.3531094 0.33470377 0.27626497
-8.3411818 0.32630467 0.2711437
-8.342 0.31107771 0.28105536
-8.3509083 0.30611348 0.28464508
-8.342371 0.29377085 0.28468561
-8.3572826 0.28471571 0.28027505
-8.3433046 0.26494873 0.28257829
-8.3510246 0.25862193 0.27936661
-8.3441496 0.24655481 0.2686241
-8.3496943 0.23984922 0.27748948
-8.3575659 0.21320747 0.28449604
-8.3477125 0.21894203 0.2747736
-8.3429642 0.20429127 0.28149498
-8.3482876 0.18114878 0.27492347
-8.3500051 0.1669433 0.26768124
-8.3516665 0.15821026 0.28305632
-8.1676445 0.14061987 0.33247092
-8.1713762 0.13912882 0.34509873
-8.1583033 0.12484798 0.33733338
-8.1559572 0.10534171 0.33453688
-8.1647291 0.098266684 0.33677351
-8.1664791 0.081331104 0.33641997
-8.1579361 0.069413707 0.33309135
-8.1626549 0.072426192 0.33829623
-8.3640299 0.055037614 0.27883852
-8.3625326 0.054864481 0.28445798
-8.345643 0.028840959 0.26736662
-8.3614569 0.019270316 0.28019607
-8.3446264 0.0029409064 0.2701568
-8.3555441 -0.010889755 0.27202362
-8.5393457 -0.013869487 0.21609445
-8.5507908 -0.018230684 0.21677592
-8.542573 -0.03394356 0.21695289
-8.5376663 -0.054286707 0.21155536
-8.5475378 -0.065831624 0.21910305
-8.5347176 -0.075820528 0.21815628
-8.7263527 -0.090984054 0.16073117
-8.724968 -0.10009498 0.14754769
-8.7307367 -0.11236583 0.14971359
-8.7265272 -0.11556191 0.14972761
-8.7404337 -0.13247971 0.15895391
-8.7281199 -0.14088258 0.15576316
-1.8815763 4.9991455 1.3015779
-1.8912194 5.0066104 1.3045174
-1.8893284 4.995553 1.3146002
-1.8943214 4.9919291 1.3150672
-1.8971651 4.9843736 1.3042096
-1.9042058 4.9774241 1.3063954
-1.9189503 4.9875622 1.312238
-1.9352931 4.9737072 1.3011191
-1.93828 4.9693756 1.3082823
-1.9483298 4.9840794 1.3081058
-1.9470396 4.9671903 1.3167624
-1.9515995 4.9676142 1.3155241
-1.953216 4.9768815 1.3058784
-1.9647459 4.9681053 1.3152684
-1.9758049 4.9634304 1.2997721
-1.9777178 4.9586558 1.3000053
-1.9974408 4.9660749 1.3130654
-1.9913175 4.9640851 1.3149688
-1.9963092 4.9460387 1.3152487
-2.0141337 4.944869 1.31295
-2.0121307 4.9519119 1.3164893
-2.0214672 4.9413137 1.3031899
-2.032038 4.9360142 1.3019048
-2.0322506 4.9460959 1.3145996
-2.0430691 4.9320259 1.3053856
-2.0493798 4.9229465 1.3141731
-2.0554535 4.9210434 1.3131651
-2.0684631 4.9321594 1.3129623
-2.079565 4.9251757 1.3175176
-2.0703831 4.9272556 1.3037176
-2.0834959 4.918222 1.2997844
-2.0930653 4.9067321 1.3080868
-2.0959299 4.9115472 1.3139327
-2.1000755 4.9030218 1.3127131
-2.1115222 4.9105458 1.3002859
-2.1121788 4.8986235 1.3016514
-2.1240437 4.9074874 1.3039955
-2.1369126 4.8901982 1.300347
-2.1299801 4.8886585 1.3126155
-2.1384881 4.8831491 1.3098739
-2.1607919 4.8913703 1.3010187
-2.1670244 4.8768625 1.3036029
-2.1649506 4.8863254 1.3139415
-2.1770265 4.8784747 1.3187033
-2.1703179 4.8660045 1.3139476
-2.196032 4.8797011 1.3002371
-2.2003765 4.8683519 1.3183677
-2.2023726 4.8709493 1.3021958
-2.2080128 4.86729 1.3074806
-2.2213802 4.8619294 1.3102616
-2.2174847 4.8610673 1.3042793
-2.2224402 4.8607712 1.3068141
-2.2248073 4.8493428 1.3018461
-2.2368312 4.8526287 1.3120712
-2.2440889 4.8494086 1.3128793
-2.256098 4.8472552 1.310447
-2.2618134 4.8475351 1.2997378
-2.2693934 4.8325915 1.3147076
-2.2731411 4.8387761 1.3091093
-2.2915995 4.8183575 1.3012512
-2.2872722 4.8285942 1.3156413
-2.288923 4.8206306 1.3128546
-2.3080344 4.8170514 1.3017689
-2.3121092 4.8081951 1.3171071
-2.3059545 4.8188229 1.3123732
-2.3189871 4.8041801 1.3086435
-2.3344474 4.8105555 1.3083603
-2.3406124 4.7960796 1.3163096
-2.3518031 4.8045812 1.3136292
-2.3485873 4.8013444 1.3137251
-2.3532252 4.7891507 1.3072619
-2.3634686 4.7820177 1.316049
-2.3764937 4.7824798 1.30448
-2.3806 4.7855697 1.3072869
-2.3893635 4.7815123 1.3039638
-2.3828564 4.7711153 1.3092489
-2.400074 4.7719469 1.3041699
-2.3975704 4.7732973 1.3078851
-2.4071126 4.7701373 1.3033811
-2.4193304 4.7568674 1.318929
-2.4314477 4.7656302 1.305581
-2.4300234 4.7508159 1.3084072
-2.4398074 4.7496376 1.3150123
-2.4411557 4.7510095 1.3080331
-2.439692 4.7502699 1.3003316
-2.4615469 4.7426848 1.3055776
-2.4581118 4.744525 1.315009
-2.4597509 4.7355065 1.3091539
-2.4776697 4.7235794 1.303511
-2.480088 4.7260623 1.3079802
-2.4869535 4.7230525 1.3046031
-2.4871621 4.7280855 1.3098117
-2.5045397 4.709949 1.3172513
-2.5153072 4.7170739 1.3094815
-2.5130489 4.7122674 1.3043998
-2.518487 4.7122064 1.3151704
-2.5186744 4.7021751 1.3112272
-2.5294254 4.6970959 1.3017211
-2.5460267 4.7006826 1.3037524
-2.5482657 4.6884322 1.311741
-2.5460308 4.6958923 1.3002026
-2.5671678 4.6897144 1.3171897
-2.5630913 4.6727257 1.299542
-2.5715699 4.6715307 1.3125299
-2.5878136 4.6791501 1.3042312
-2.5891337 4.6678829 1.2994001
-2.5996783 4.6629753 1.3080764
-2.594161 4.6738577 1.3152202
-2.5981445 4.654676 1.3095077
-2.6200919 4.6597867 1.3151103
-2.6140454 4.6536589 1.3117476
-2.6195323 4.6529164 1.3057911
-2.628027 4.6427665 1.3064388
-2.6341641 4.65065 1.3094934
-2.6473081 4.6287966 1.3037789
-2.6487458 4.6321244 1.3104175
-2.6550093 4.6314044 1.3157777
-2.6725914 4.6226931 1.3156588
-2.6630244 4.6164846 1.3000056
-2.6791646 4.61481 1.3131196
-2.6896973 4.6256585 1.3037719
-2.6835871 4.6174912 1.317356
-2.7034283 4.607295 1.3044742
-2.7026165 4.5974226 1.3031685
-2.7187448 4.600862 1.3037111
-2.7205822 4.589314 1.3112924
-2.7157757 4.5979481 1.3018736
-2.7256038 4.5954399 1.3074723
-2.7355456 4.5889339 1.3106005
-2.7411351 4.5727177 1.3158011
-2.7536051 4.5723929 1.3156059
-2.7554176 4.5645981 1.3110081
-2.7636406 4.5633755 1.299988
-2.76474 4.5693736 1.3028784
-2.7671397 4.5656471 1.3129998
-2.7889912 4.5664811 1.3153739
-2.7832561 4.5585141 1.3101916
-2.7869344 4.5471072 1.30632
-2.8050084 4.5521402 1.2997698
-2.7999489 4.537961 1.3008394
-2.8096831 4.537683 1.3054299
-2.8196073 4.5419588 1.3060793
-2.8141236 4.5243726 1.3093694
-2.8396544 4.532042 1.3025297
-2.8422892 4.5236621 1.3158441
-2.8347974 4.5197749 1.3138822
-2.8449256 4.5079622 1.3078523
-2.8602304 4.5188046 1.3143227
-2.8594015 4.4979014 1.3097428
-2.8651173 4.5083804 1.3149087
-2.8697577 4.4954424 1.3037307
-2.889802 4.4988923 1.3007714
-2.8891914 4.494132 1.3041772
-2.8852849 4.4901419 1.2992131
-2.9082124 4.4898119 1.3098383
-2.89782 4.4832635 1.3005544
-2.9093838 4.4728713 1.3034445
-2.9269717 4.4734526 1.3011729
-2.9180834 4.4611359 1.3020023
-2.9337695 4.4693708 1.3173239
-2.944284 4.4592271 1.3037297
-2.9459705 4.4552956 1.3176159
-2.9506109 4.4582253 1.3107812
-2.9518394 4.4513059 1.3040044
-2.9580264 4.4476986 1.3009547
-2.9735825 4.4407172 1.3154223
-2.9784164 4.4284 1.3035718
-2.9803545 4.4247174 1.3163857
-2.8775723 4.2584553 1.3617171
-2.8807209 4.2605515 1.3786414
-2.8885422 4.2583389 1.3695312
-2.8899522 4.2606392 1.3606069
-2.8974702 4.2444935 1.3787388
-2.9118173 4.2533073 1.3740866
-2.9129355 4.2421165 1.3699708
-2.9170978 4.2415466 1.363026
-2.9267867 4.2423129 1.367925
-2.9283202 4.2273068 1.373311
-2.9370341 4.2342553 1.3742971
-2.9411535 4.223989 1.3614169
-2.9483428 4.2118287 1.3703697
-2.9646368 4.2241807 1.3656768
-2.9698489 4.2149305 1.3689003
-2.9769237 4.1972446 1.3650079
-2.9686446 4.2043452 1.3740035
-2.9844756 4.1931834 1.3665159
-2.8763306 4.0432801 1.4246327
-2.8739793 4.0328321 1.4311039
-2.8862367 4.0395532 1.4286356
-2.8975019 4.0280309 1.4400206
-2.9016421 4.0151906 1.4233735
-2.8968236 4.0119219 1.4232147
-2.9166925 4.0093002 1.4379505
-2.913332 4.0054574 1.4391528
-2.9138584 4.0157418 1.4316168
-2.9253833 3.996037 1.4370878
-2.9243903 3.9993985 1.4317787
-2.926017 3.9907255 1.4400519
-2.9411671 3.995404 1.4390839
-2.9387794 3.9944201 1.4306401
-2.9450011 3.9748931 1.4334097
-2.9478643 3.9857764 1.436972
-2.9708803 3.9823768 1.4219822
-2.9591548 3.9679179 1.427227
-2.9662211 3.9585073 1.4268411
-2.9808178 3.9631407 1.4308435
-2.9899375 3.9543302 1.4223082
-2.8689506 3.797823 1.4899509
-2.8748829 3.8035064 1.4856457
-2.8817775 3.7971237 1.4844803
-2.8971105 3.7900598 1.4879198
-2.889668 3.7856677 1.4863821
-2.8986576 3.7837884 1.4855919
-2.9026315 3.7791579 1.4944978
-2.9213548 3.7729783 1.4981557
-2.9204581 3.777714 1.4906173
-2.9155533 3.7588356 1.4984466
-2.9191782 3.751034 1.4855819
-2.9358974 3.7625828 1.4824327
-2.9369159 3.7525139 1.4969405
-2.9390941 3.7523832 1.4884311
-2.9578271 3.7449605 1.499584
-2.958092 3.7338083 1.4929191
-2.959141 3.7439363 1.4856926
-2.9712787 3.7405901 1.496363
-2.9597526 3.7233829 1.4958526
-2.975759 3.7163179 1.5005547
-2.9839303 3.7108595 1.4815537
-2.9849606 3.7139077 1.498207
-2.9891341 3.7011573 1.4889041
-2.8785753 3.5635996 1.5443335
-2.8765323 3.560529 1.5557251
-2.8833311 3.5423968 1.5600991
-2.8967888 3.5484128 1.5587434
-2.8974676 3.5474827 1.5581906
-2.9074702 3.5432646 1.5445874
-2.8979776 3.5282197 1.5480829
-2.9037774 3.5301778 1.5502909
-2.9085722 3.516274 1.5597255
-2.9167082 3.5233593 1.5605953
-2.9341412 3.5259411 1.5559436
-2.9368818 3.5155103 1.5522535
-2.928225 3.5032198 1.5544698
-2.9351885 3.5024047 1.5467479
-2.9435019 3.5058384 1.5621485
-2.9523623 3.5041914 1.5573903
-2.9548202 3.4969532 1.561654
-2.9537768 3.488826 1.5519488
-2.9705195 3.4808087 1.55242
-2.9778218 3.4895546 1.5440633
-2.9642487 3.4857612 1.5423824
-2.9753213 3.4641149 1.5543712
-2.9900782 3.4760075 1.5581771
-2.9826131 3.4658129 1.545282
-2.9828639 3.4521756 1.5599418
-2.9877083 3.4545426 1.5570825
-2.8717997 3.3159277 1.6118623
-2.8769269 3.3067682 1.6219139
-2.8917534 3.3057137 1.6080965
-2.8861032 3.3021989 1.6071801
-2.8888042 3.2970936 1.606632
-2.8931804 3.2857461 1.6086061
-2.9055619 3.284466 1.6066482
-2.9141321 3.27547 1.6186777
-2.9155915 3.2710361 1.6212589
-2.9223855 3.2665651 1.6104025
-2.9320331 3.2572985 1.6085167
-2.9276376 3.2675002 1.621505
-2.9331849 3.2674646 1.6174787
-2.9325438 3.2576635 1.6139841
-2.9328134 3.2497399 1.609437
-2.9536252 3.2420127 1.6176014
-2.9524572 3.2464712 1.6085515
-2.9532416 3.2469208 1.6145778
-2.9619904 3.2304668 1.6202484
-2.9681523 3.2317688 1.6055326
-2.9651649 3.2279677 1.6056415
-2.9640574 3.2131007 1.6200492
-2.9699557 3.2172194 1.6185254
-2.9798746 3.2065063 1.6113105
-2.9932823 3.2000449 1.6202884
-2.9912312 3.1972873 1.605662
-3.0010099 3.2002077 1.6196229
-2.9998326 3.1868482 1.6181691
-3.0126231 3.1892381 1.6044028
-2.8685308 3.0517733 1.676829
-2.8901618 3.0401516 1.6688658
-2.8916786 3.0341189 1.6701961
-2.8987818 3.046663 1.6798117
-2.8874032 3.0337582 1.6828872
-2.903234 3.0319095 1.6636806
-2.9100811 3.0165699 1.6659019
-2.9115491 3.0159039 1.6752354
-2.9190502 3.0208616 1.6754072
-2.9079995 3.0174692 1.6821731
-3.0438325 3.1477373 1.6131275
-3.0550435 3.1440845 1.6172358
-3.0542114 3.1431448 1.6193506
-3.0720432 3.1393263 1.6180545
-3.0602534 3.1311052 1.6079044
-3.065382 3.1312664 1.6199627
-3.0697112 3.128788 1.620744
-3.0918131 3.1090434 1.604928
-3.0845757 3.1059937 1.6181442
-3.0971601 3.0981853 1.6120483
-3.1029727 3.1118517 1.6039667
-3.0970824 3.0986764 1.6165103
-3.1070776 3.0906966 1.6123985
-3.1149521 3.0892425 1.6087583
-3.1041164 3.0839293 1.6211934
-3.1234248 3.0778329 1.6180921
-3.1306689 3.0717466 1.6168208
-3.1171255 3.0678918 1.6201197
-3.1393921 3.0756018 1.6046895
-3.1284363 3.0550487 1.6057776
-3.1435704 3.0529983 1.6048646
-3.1467798 3.0611472 1.6151152
-3.1374395 3.0436044 1.6217306
-3.1522048 3.0424838 1.6112425
-3.150604 3.03649 1.6197982
-3.1565621 3.0354729 1.6066203
-3.1656153 3.0314903 1.6117247
-3.1759336 3.0253241 1.6173491
-3.1629469 3.021158 1.6150643
-3.185384 3.012208 1.6166129
-3.186727 3.0123785 1.6205037
-3.1889768 3.013588 1.6169419
-3.3200495 3.138638 1.5594993
-3.3256025 3.1227064 1.5460891
-3.3416371 3.1326048 1.5511013
-3.3491094 3.120769 1.5595186
-3.3497531 3.1240969 1.5483816
-3.3452857 3.1213179 1.5555123
-3.3551874 3.1157303 1.5429168
-3.3673675 3.1119044 1.5458171
-3.3579924 3.0909281 1.5533397
-3.3647201 3.0918882 1.5465294
-3.3750029 3.0850356 1.5589743
-3.381979 3.0769856 1.560151
-3.382359 3.0772502 1.5558959
-3.3777201 3.0743852 1.5444806
-3.3846571 3.0752122 1.561075
-3.3827245 3.0648363 1.5595779
-3.3936548 3.0688815 1.5571874
-3.3971739 3.0650632 1.5556707
-3.3977859 3.0549297 1.5578837
-3.4108684 3.0423722 1.5457689
-3.4107549 3.0438285 1.5515193
-3.4181898 3.0425987 1.5539438
-3.4244413 3.0252726 1.5613627
-3.4349411 3.0368624 1.5506525
-3.4368496 3.0257854 1.5455114
-3.442157 3.0209048 1.5547421
-3.4489546 3.009351 1.5527719
-3.5820265 3.1234524 1.4910007
-3.5928922 3.1360612 1.4846042
-3.6015377 3.1198239 1.4904218
-3.6022913 3.1279306 1.4824731
-3.5972874 3.1128261 1.4980782
-3.6098521 3.1156871 1.5011466
-3.6149907 3.1122587 1.5006
-3.6108325 3.0911252 1.4937778
-3.6318083 3.0888815 1.4868817
-3.6235461 3.0840299 1.493245
-3.6372473 3.0741806 1.4936047
-3.6319699 3.0778165 1.4915986
-3.6330819 3.0771506 1.4983871
-3.6483693 3.0600684 1.4983201
-3.6515982 3.0523198 1.4881923
-3.659215 3.0563297 1.4859755
-3.6637561 3.0595169 1.4853861
-3.6688366 3.0511711 1.4887252
-3.6607323 3.0461512 1.4948883
-3.6595168 3.0336883 1.501274
-3.671931 3.0318117 1.4828901
-3.6839783 3.0194931 1.4932282
-3.6780243 3.0303359 1.4879924
-3.6852748 3.0101576 1.4907721
-3.692585 3.0110097 1.4909072
-3.8381779 3.1283236 1.4394195
-3.8379855 3.1253078 1.4369771
-3.8583751 3.1214492 1.4313108
-3.855418 3.1099255 1.4257523
-3.8662901 3.1038406 1.4328642
-3.870769 3.0895576 1.423239
-3.8736243 3.0874364 1.4264405
-3.8661339 3.0954709 1.4256361
-3.8838718 3.0804496 1.4298104
-3.8788223 3.0823054 1.4399998
-3.8936303 3.0709109 1.4328456
-3.8991756 3.0640488 1.4280573
-3.8871558 3.06113 1.4247981
-3.9007947 3.0454936 1.4354089
-3.8999848 3.0433025 1.4253345
-3.912055 3.0409424 1.4263828
-3.913743 3.04003 1.4307218
-3.9122217 3.0309026 1.4285131
-3.9114974 3.0283251 1.4367068
-3.9265907 3.0150766 1.4321862
-3.9314871 3.0112929 1.4217069
-3.9235303 3.0062282 1.4298072
-4.0921264 3.1126597 1.3796939
-4.0923619 3.1142704 1.3601402
-4.1019793 3.1009331 1.3638551
-4.1016626 3.0997593 1.3706754
-4.1002898 3.101124 1.3620547
-4.1145701 3.0882292 1.3697841
-4.1110506 3.0802698 1.360419
-4.1193299 3.0814204 1.3632947
-4.1321211 3.0818706 1.3678815
-4.1353841 3.0744658 1.3729045
-4.1305385 3.0544181 1.3746465
-4.1350555 3.0584681 1.3637238
-4.1391182 3.0572264 1.3651943
-4.1394582 3.0406191 1.3712277
-4.1529694 3.0496943 1.3643687
-4.1550937 3.028791 1.3703634
-4.1494799 3.0357003 1.3741533
-4.1532235 3.0186162 1.3648546
-4.1740828 3.0130179 1.3617727
-4.1703477 3.0084264 1.3770587
-4.3365116 3.1238787 1.3173331
-4.3261495 3.107914 1.3081846
-4.3467021 3.1121316 1.3035852
-4.3457751 3.1002464 1.3081747
-4.3388066 3.0990787 1.3076419
-4.3586888 3.080008 1.3120139
-4.3525677 3.0707633 1.3091093
-4.362648 3.08198 1.3149408
-4.3620186 3.0765336 1.301
-4.3644629 3.0590107 1.3082995
-4.3716121 3.0544348 1.3059523
-4.3777361 3.0445476 1.3137003
-4.3730001 3.0384262 1.3117318
-4.3928547 3.0375414 1.30395
-4.3881116 3.0279264 1.3010786
-4.3838925 3.0227227 1.3052204
-4.3952928 3.0279243 1.3062077
-4.4095893 3.0073216 1.3045076
-4.5557146 3.1186237 1.2427204
-4.5582523 3.1045125 1.2502609
-4.5734816 3.107502 1.2393395
-4.5710492 3.0886095 1.2446504
-4.5808597 3.078686 1.2499657
-4.5926299 3.0731323 1.2405279
-4.5921726 3.0765378 1.2476128
-4.5945783 3.0683701 1.2556373
-4.592833 3.0530009 1.2550128
-4.6100917 3.0475259 1.2399405
-4.6090412 3.0577762 1.2553234
-4.6090264 3.0498114 1.242982
-4.6214619 3.0309308 1.2400234
-4.6248097 3.0387874 1.2445712
-4.622838 3.0211289 1.2456008
-4.6355419 3.0159872 1.2474879
-4.6376743 3.0155799 1.2391979
-4.7928777 3.1002724 1.1884207
-4.8000264 3.1075101 1.189446
-4.8077908 3.1017401 1.1914313
-4.8106179 3.0812621 1.1901078
-4.8180528 3.085032 1.1872666
-4.8178196 3.08059 1.1919975
-4.8205357 3.0570145 1.1910437
-4.8186946 3.0596168 1.1788962
-4.835814 3.0537119 1.1880773
-4.8310375 3.0498621 1.1833276
-4.8345413 3.0351524 1.1865164
-4.8480701 3.0376072 1.1836547
-4.8405647 3.016602 1.1817408
-4.8510642 3.0170648 1.1860727
-4.8628774 3.0143783 1.1809044
-5.019814 3.0960603 1.1172873
-5.0298581 3.0992072 1.117579
-5.0208464 3.0884521 1.1272206
-5.023972 3.0848253 1.1177112
-5.0379066 3.0702133 1.1311114
-5.0365815 3.0763264 1.1365676
-5.0520577 3.0731299 1.1312499
-5.0503855 3.0616491 1.1317046
-5.0506177 3.0438693 1.119405
-5.0665078 3.0384669 1.1312079
-5.0675564 3.0426011 1.1316285
-5.0714693 3.0210025 1.1222234
-5.0750813 3.0127177 1.1290967
-5.0690413 3.0055988 1.1193825
-5.2367129 3.105495 1.0613594
-5.2468972 3.0940914 1.0572433
-5.251615 3.0914736 1.0569881
-5.2616405 3.0747802 1.0723156
-5.2712007 3.0820973 1.0569324
-5.2730503 3.0577569 1.0632224
-5.2630868 3.0565906 1.0607276
-5.2726922 3.0557237 1.0637214
-5.2716928 3.0354481 1.0655231
-5.2838097 3.0454056 1.0673046
-5.2856302 3.0360866 1.059419
-5.2847209 3.0208912 1.0674695
-5.2879176 3.0052757 1.0602483
-5.4572988 3.0975943 1.0029429
-5.4655328 3.0907261 1.0010551
-5.4691396 3.0862753 1.0021906
-5.4864459 3.0760448 1.0095296
-5.4862361 3.0804548 1.0033776
-5.4830217 3.0701005 1.0043316
-5.4979949 3.0518551 1.0026307
-5.4911761 3.0560048 0.99900424
-5.4922318 3.0452683 1.0075817
-5.5052266 3.0355303 1.0079491
-5.5054317 3.0265353 1.0143744
-5.5221891 3.0136106 1.0015802
-5.6883087 3.0922518 0.95124745
-5.6859236 3.0867577 0.93908727
-5.6961884 3.085746 0.93900388
-5.6925936 3.0722106 0.93623894
-5.708034 3.0679529 0.94290727
-5.7051644 3.0547547 0.94140971
-5.7059097 3.0447302 0.93686634
-5.7180667 3.0459301 0.95028126
-5.7098446 3.0311332 0.94240344
-5.7151866 3.0237763 0.94930911
-5.7333117 3.0219722 0.95169151
-5.7410154 3.006856 0.93653363
-8.7763948 1.7420664 0.15423281
-8.7884693 1.717886 0.16172928
-8.7870197 1.7080079 0.14972959
-8.7857418 1.7111592 0.16028455
-8.7772923 1.6871978 0.16238686
-8.7973127 1.6808779 0.15521644
-8.7890396 1.6578375 0.16476803
-8.7897062 1.6430062 0.14999504
-8.8026171 1.6472932 0.16146846
-8.8008909 1.6283418 0.14969772
-8.8104191 1.6073306 0.16370986
-8.8035202 1.5966454 0.1458129
-8.8091078 1.5897942 0.15031251
-8.8066778 1.5865875 0.15024129
-8.8136759 1.5741795 0.15848988
-8.8185539 1.5440842 0.15270303
-8.810586 1.5445769 0.15616353
-8.8130484 1.526702 0.15708363
-8.8102674 1.5181966 0.1545849
-8.8159952 1.5136815 0.14543211
-8.8134766 1.5018857 0.14756849
-8.8169289 1.4792184 0.15132329
-8.8182611 1.473176 0.16053362
-8.8350763 1.4517591 0.15884717
-8.8319454 1.4455224 0.15706548
-8.6524067 1.4063487 0.21824697
-8.6467381 1.3877697 0.2114975
-8.6575909 1.3688545 0.21919499
-8.6475077 1.3548304 0.21071194
-8.6599064 1.3571707 0.21004157
-8.6614408 1.3441046 0.20990607
-8.660821 1.3296444 0.21943684
-8.6564302 1.3158932 0.21526174
-8.6628122 1.3073505 0.22200893
-8.6708641 1.2839451 0.21486156
-8.6606808 1.2739257 0.21110509
-8.6700411 1.2715055 0.22085452
-8.6661339 1.2601448 0.22377649
-8.6745129 1.2407641 0.2247646
-8.6713581 1.2308644 0.22018591
-8.6688557 1.221293 0.21463673
-8.6664724 1.2141863 0.20672549
-8.6745415 1.1932993 0.21716371
-8.666769 1.187842 0.21116249
-8.6722326 1.1761283 0.21386169
-8.6848259 1.1563764 0.21864977
-8.681159 1.1490252 0.21312837
-8.687726 1.1273254 0.20835958
-8.6913538 1.1189746 0.21632564
-8.6939764 1.1154895 0.20651002
-8.6811609 1.0961999 0.21924345
-8.6938772 1.0809704 0.216993
-8.6944885 1.0793316 0.20598054
-8.4954662 1.0442654 0.28238082
-8.5115747 1.0284694 0.27845451
-8.5049667 1.0216892 0.26690823
-8.5135546 1.0001681 0.28014502
-8.5076475 0.99365568 0.28381842
-8.5064926 0.98507386 0.27127954
-8.517355 0.97541088 0.26739633
-8.5180159 0.96008795 0.27636647
-8.5059271 0.93355602 0.28225207
-8.5160723 0.92790383 0.27864605
-8.5172129 0.91356963 0.27496618
-8.5226793 0.90455216 0.26737753
-8.5120554 0.90355074 0.28489763
-8.5129614 0.8753534 0.27278769
-8.5206137 0.87443876 0.28605828
-8.5245762 0.85603815 0.28264198
-8.5210609 0.84811753 0.28145942
-8.5214119 0.84086144 0.27685261
-8.5327759 0.82700318 0.2776143
-8.5182381 0.80429244 0.28462607
-8.5272903 0.80171674 0.26920769
-8.5200052 0.79493386 0.27667773
-8.5402918 0.7800175 0.27505395
-8.5230417 0.76542139 0.27714214
-8.5378847 0.74438238 0.27022675
-8.5394411 0.74057388 0.27682343
-8.5443964 0.72145712 0.26741391
-8.5305185 0.72314876 0.28266424
-8.5412302 0.69461906 0.27597395
-8.5311632 0.70175362 0.27849209
-8.5340681 0.68094647 0.27035531
-8.5323753 0.66851771 0.26735792
-8.5431948 0.65687871 0.28136796
-8.3455925 0.62944406 0.33344975
-8.355895 0.62258029 0.33567676
-8.353097 0.61518717 0.34602353
-8.3636856 0.6038484 0.32918316
-8.3636675 0.58738148 0.34596547
-8.3483829 0.58117956 0.34615052
-8.3597727 0.56600434 0.34540391
-8.348628 0.5488677 0.33578524
-8.3656034 0.53435117 0.34567422
-8.3655596 0.52992499 0.33586192
-8.35149 0.51396519 0.34465948
-8.3660641 0.50856012 0.33826816
-8.3583956 0.48679441 0.33615977
-8.360364 0.4752647 0.33438981
-8.3591557 0.46456152 0.32783127
-8.3611488 0.44993526 0.34675029
-8.3629417 0.44469556 0.34217468
-8.3654642 0.43136069 0.33214402
-8.3575888 0.42179385 0.33927959
-8.359808 0.41299769 0.33367261
-8.3718233 0.39898223 0.34379062
-8.3750257 0.39108679 0.34018928
-8.3646021 0.3715384 0.34650886
-8.3762703 0.37068388 0.33298633
-8.3696928 0.35168281 0.34044915
-8.3696575 0.3313176 0.34497511
-8.3706865 0.32977328 0.33595166
-8.3762751 0.30630329 0.34528446
-8.3718777 0.31128895 0.33674234
-8.3603287 0.29461929 0.33109683
-8.3743706 0.28648201 0.34312937
-8.3782768 0.27567467 0.33896074
-8.3657694 0.25580603 0.34693873
-8.3669252 0.24476767 0.34575787
-8.3615885 0.24078968 0.33727241
-8.3687716 0.21731356 0.34011874
-8.3714123 0.21325833 0.3331185
-8.1725559 0.19977424 0.39508909
-8.1748486 0.17564496 0.39300174
-8.185668 0.16346595 0.4059442
-8.1821165 0.15763026 0.40244943
-8.1865168 0.14825594 0.39984789
-8.1750698 0.13174164 0.38907877
-8.1756296 0.13440698 0.39897284
-8.1773529 0.12272944 0.39659092
-8.1875467 0.10417188 0.40243533
-8.1748772 0.083260268 0.39592737
-8.1891928 0.070971183 0.3919127
-8.1822643 0.076637425 0.39520639
-8.1774073 0.051716931 0.39775902
-8.370142 0.051380001 0.34517172
-8.3758059 0.025761509 0.33539116
-8.3840551 0.031774722 0.34053513
-8.3830576 0.01739764 0.33978352
-8.3721495 0.0014494599 0.33879367
-8.383606 -0.0045552878 0.33068576
-8.5597534 -0.018550729 0.27236339
-8.5718403 -0.046242144 0.2739343
-8.5679255 -0.046915893 0.27261141
-8.5606995 -0.062659293 0.27780813
-8.5709047 -0.080529854 0.27329227
-8.572937 -0.084022321 0.27486426
-8.7552719 -0.098114975 0.21341324
-8.7619047 -0.1090894 0.21003404
-8.7492723 -0.12916225 0.22241303
-8.7576122 -0.14071542 0.22049363
-8.7540426 -0.15790448 0.21706559
-8.7480364 -0.16723736 0.21791843
-8.9509535 -0.17670155 0.1493272
-8.9446583 -0.19532363 0.15770717
-8.9531498 -0.2042578 0.16018853
-8.9461403 -0.21534881 0.1511492
-8.9375401 -0.21837722 0.16236559
-9.1386051 -0.27730191 0.1040736
-2.3774271 5.0021658 1.283361
-2.3795841 5.0048304 1.2860292
-2.3872654 5.0040469 1.2831511
-2.391943 5.0053968 1.2827922
-2.4009712 4.9940271 1.2799044
-2.4123483 4.9912667 1.2856978
-2.4201062 4.9872098 1.289508
-2.4197392 4.980567 1.292104
-2.4333322 4.9745045 1.279225
-2.4292381 4.9861531 1.2837893
-2.4426317 4.9712462 1.2874465
-2.4450998 4.9811487 1.2971044
-2.464895 4.9703326 1.2893248
-2.4675634 4.9617968 1.2862506
-2.4705858 4.9511857 1.2951723
-2.4764912 4.9561458 1.2847087
-2.4965982 4.9602914 1.2935728
-2.4928904 4.9517426 1.2791888
-2.5065815 4.9565353 1.2821463
-2.5131469 4.9523516 1.2801666
-2.5151432 4.9416986 1.2867033
-2.5134771 4.9354973 1.2865762
-2.5221484 4.9364161 1.2790757
-2.5385942 4.921577 1.2864919
-2.5381093 4.9306207 1.2867591
-2.5486975 4.9206591 1.2954583
-2.5497446 4.9174867 1.2917846
-2.5619226 4.9249129 1.2830536
-2.5684795 4.9055338 1.2826163
-2.5720737 4.9064703 1.2815055
-2.5776427 4.9122872 1.2932618
-2.5966699 4.906641 1.2823466
-2.5958192 4.8991904 1.2958895
-2.602464 4.9021549 1.2981418
-2.6016874 4.8924608 1.2929963
-2.6206384 4.8790302 1.2814575
-2.6308851 4.8913989 1.2903239
-2.6248004 4.8784313 1.2902036
-2.6474416 4.8657436 1.2943009
-2.6505151 4.8762927 1.2829413
-2.6546941 4.8680992 1.2810142
-2.6671114 4.8677001 1.2970665
-2.6704388 4.8549681 1.2893028
-2.6802182 4.8624024 1.2881482
-2.6877401 4.85742 1.2809538
-2.680402 4.8402872 1.2839919
-2.6845977 4.8397036 1.2830721
-2.6999216 4.8319955 1.2928671
-2.6953607 4.8284321 1.293666
-2.706697 4.8285761 1.2887157
-2.7093878 4.831316 1.279283
-2.7340002 4.8284092 1.2931715
-2.7225549 4.8289394 1.2980579
-2.7388682 4.8264503 1.294118
-2.7363307 4.823194 1.2889442
-2.7609823 4.8140249 1.2903959
-2.7625902 4.8074045 1.2950318
-2.7651124 4.8121991 1.2957367
-2.7778344 4.8082876 1.2966647
-2.769752 4.7997684 1.2815325
-2.7866147 4.7952819 1.2929456
-2.7929044 4.7929001 1.2852664
-2.8053 4.7886758 1.2819417
-2.812804 4.7748456 1.2799615
-2.8042424 4.7702546 1.2985677
-2.8208489 4.7677083 1.2918571
-2.8159983 4.7702451 1.2823876
-2.8265064 4.7569447 1.2815834
-2.8363039 4.7576027 1.2807484
-2.8451679 4.7530179 1.2952837
-2.8491585 4.7582397 1.2892311
-2.8617303 4.7438354 1.284705
-2.8619759 4.7436943 1.2798725
-2.8655405 4.7427015 1.2851365
-2.8710797 4.7369184 1.2897456
-2.8780072 4.7411704 1.2957538
-2.8916395 4.7369094 1.2882534
-2.8947358 4.7287712 1.291417
-2.8986304 4.7174611 1.2792116
-2.9033544 4.7239065 1.2864039
-2.9135375 4.712976 1.2828099
-2.9297676 4.7160821 1.2888128
-2.9305177 4.7055454 1.2986845
-2.9360948 4.6980419 1.2915834
-2.9364021 4.6915913 1.2827276
-2.9520946 4.6847992 1.2821618
-2.9617729 4.6909556 1.2813821
-2.958946 4.6805906 1.2965207
-2.9729497 4.6729002 1.2844145
-2.8761501 4.5062137 1.3421769
-2.8749309 4.5168819 1.3537443
-2.8773 4.4978728 1.3525107
-2.8936605 4.5046601 1.3448429
-2.9001436 4.4924116 1.353783
-2.9137223 4.4863915 1.3403928
-2.916151 4.4912081 1.3443403
-2.9191399 4.4928708 1.3385828
-2.9229026 4.4838781 1.3466082
-2.9315212 4.4673939 1.3511003
-2.93224 4.4712129 1.3539079
-2.9345391 4.4625278 1.3514148
-2.9452653 4.4577441 1.3539526
-2.9572191 4.4628649 1.3473265
-2.9568348 4.4477615 1.3525096
-2.9675047 4.4453335 1.3557385
-2.971559 4.4467249 1.3478594
-2.8648689 4.2930236 1.4050745
-2.8705008 4.2802911 1.398041
-2.8881013 4.2851715 1.3986247
-2.9012041 4.2755585 1.4071374
-2.8914938 4.269866 1.4110836
-2.9042709 4.2596617 1.4143732
-2.9145045 4.2637119 1.4069194
-2.9113584 4.2543483 1.4085071
-2.9230237 4.2605119 1.4118199
-2.9314542 4.2488117 1.4006859
-2.9277582 4.243196 1.3983672
-2.9461896 4.2379065 1.4073461
-2.9516487 4.2409692 1.4052439
-2.9565184 4.236876 1.4175752
-2.9528697 4.2284346 1.408269
-2.9652691 4.2331514 1.4128218
-2.9743729 4.2135649 1.4054959
-2.9709249 4.2230492 1.4128865
-2.9858832 4.2067862 1.4105285
-2.8665693 4.0525484 1.4599154
-2.8891201 4.0435266 1.4684427
-2.8939841 4.041975 1.4757934
-2.8898635 4.0408602 1.470328
-2.8878396 4.0407662 1.4648986
-2.8934784 4.0302052 1.4751652
-2.9084179 4.033124 1.4742949
-2.9187992 4.0328116 1.4579922
-2.9165003 4.0218148 1.4753356
-2.9268053 4.0217209 1.4605869
-2.9394624 4.0158429 1.4712365
-2.9420753 4.0130467 1.4768959
-2.9361551 4.0110135 1.4650433
-2.9428785 3.9987228 1.4761236
-2.9550617 3.9940717 1.4711649
-2.9526684 3.989392 1.4597089
-2.9600024 3.9953773 1.4752425
-2.9682012 3.9765804 1.4745427
-2.9726968 3.9856753 1.4669328
-2.9798434 3.9700527 1.4633232
-2.9817326 3.9673545 1.457938
-2.8775032 3.8154817 1.5332149
-2.8828595 3.8073986 1.5312285
-2.8800626 3.798157 1.5210769
-2.8861799 3.8022912 1.5304079
-2.8972502 3.7943721 1.5192002
-2.899771 3.7846665 1.5181268
-2.9067523 3.7923038 1.5224131
-2.9144278 3.7809813 1.519959
-2.9097075 3.7880425 1.5260544
-2.928591 3.778739 1.5336317
-2.9328542 3.7637198 1.5256618
-2.9411829 3.7686446 1.5336428
-2.9314921 3.7616611 1.5164236
-2.9519475 3.753849 1.5273875
-2.9430659 3.7602503 1.5344887
-2.9653864 3.7494085 1.5359477
-2.9687743 3.7568574 1.529115
-2.9678702 3.7418973 1.5350382
-2.9694145 3.736918 1.5321084
-2.9848576 3.7383103 1.5239679
-2.9727175 3.7406886 1.5249085
-2.9885414 3.7199819 1.5348819
-2.9963787 3.7142036 1.5219867
-2.8811405 3.5648501 1.5847502
-2.8750141 3.5581245 1.5786963
-2.8817809 3.5542996 1.5859376
-2.8870833 3.5523016 1.5847721
-2.8992124 3.556417 1.5927981
-2.9054129 3.5441918 1.5800037
-2.9145374 3.5417211 1.5927677
-2.9117968 3.5365822 1.5920835
-2.9081097 3.5408056 1.5948731
-2.9144435 3.542372 1.5760723
-2.9336669 3.5240624 1.5804654
-2.9294696 3.5168407 1.5821673
-2.9313202 3.5278077 1.5840853
-2.9459238 3.5184231 1.5880536
-2.9416871 3.5218534 1.5801923
-2.9494185 3.5040226 1.5841677
-2.9499388 3.5020003 1.5897412
-2.957689 3.5076463 1.5942518
-2.9661181 3.5019014 1.5870682
-2.9717515 3.4947386 1.5855407
-2.9761798 3.493263 1.5897999
-2.9762092 3.4808898 1.5909404
-2.9945309 3.4715648 1.5871582
-2.9909289 3.4725296 1.5781082
-3.0033526 3.4626188 1.5766125
-2.8782392 3.325794 1.6407647
-2.8743362 3.3175645 1.647684
-2.8848541 3.3064551 1.6443933
-2.8908558 3.3117816 1.6395087
-2.8840351 3.3163338 1.6516193
-2.8987365 3.3013108 1.6464189
-2.909173 3.2911057 1.6530167
-2.8984635 3.2874203 1.6544677
-2.9115303 3.2921729 1.6410685
-2.9136415 3.2893314 1.64195
-2.9172425 3.2910349 1.6542693
-2.916034 3.2812586 1.6423892
-2.9279006 3.2655759 1.6434362
-2.9430518 3.2684975 1.6538526
-2.9430821 3.26284 1.6528703
-2.9509962 3.2670755 1.6409208
-2.9441047 3.2654636 1.6428282
-2.9506097 3.2591445 1.645119
-2.955658 3.2443361 1.6362371
-2.9540997 3.2519889 1.6485953
-2.9716542 3.2406065 1.6467447
-2.9768834 3.2349932 1.6392119
-2.9739869 3.2420683 1.640097
-2.9700377 3.2385409 1.6480105
-2.9756663 3.2195265 1.6543797
-2.9822714 3.2171361 1.649104
-3.0008202 3.2261689 1.6463423
-2.9974554 3.2132227 1.6413937
-2.9917943 3.1997485 1.6457754
-2.8838875 3.073477 1.7013029
-2.8745444 3.0532131 1.710251
-2.8870463 3.0522234 1.6977433
-2.8870754 3.0586278 1.6964743
-2.8862135 3.0534728 1.6958482
-2.8974328 3.0471752 1.7003841
-2.9022772 3.0387523 1.7067121
-2.9123914 3.0362551 1.7062618
-2.9052618 3.0415907 1.6970603
-2.9030752 3.03705 1.6985861
-2.916501 3.0337512 1.6969182
-2.9137418 3.0240524 1.6990172
-2.922029 3.026103 1.704163
-2.9228182 3.0123706 1.6997555
-3.0586812 3.1400206 1.6548934
-3.0815442 3.144218 1.6471361
-3.0798652 3.1277995 1.6350163
-3.071852 3.1254897 1.6444654
-3.0842834 3.1345267 1.6433223
-3.0859101 3.1299617 1.6417165
-3.0860047 3.1161768 1.6408957
-3.1077616 3.1093512 1.6544659
-3.1074133 3.1184325 1.6541824
-3.101913 3.1109138 1.6442679
-3.1208141 3.1055253 1.6498297
-3.1252232 3.1016414 1.6438893
-3.1173832 3.0837979 1.6458367
-3.1216571 3.0783231 1.6497865
-3.1364756 3.0847661 1.6470916
-3.1324313 3.073926 1.6441565
-3.1299865 3.0673282 1.6517669
-3.1483564 3.0633049 1.6368883
-3.1531501 3.0639551 1.6354337
-3.158221 3.0544248 1.6508089
-3.1532001 3.0503063 1.6451507
-3.1626115 3.0460858 1.6399692
-3.1579571 3.0540061 1.6413112
-3.171349 3.0419474 1.6415509
-3.1807849 3.0393589 1.6526124
-3.1729095 3.0450974 1.6372187
-3.1879632 3.0375571 1.6396179
-3.1754 3.0359175 1.6423906
-3.1977096 3.0137482 1.6502163
-3.2014673 3.0107663 1.6529202
-3.1898434 3.0170569 1.6359204
-3.3434539 3.1485453 1.5797725
-3.3428392 3.1383696 1.5953195
-3.3408761 3.139035 1.5832404
-3.3586667 3.1344914 1.593011
-3.3653891 3.1220441 1.5929643
-3.3674986 3.1187577 1.5898277
-3.3672025 3.1122427 1.5895071
-3.3641272 3.1076207 1.5914793
-3.3732195 3.1034369 1.5949373
-3.379601 3.0950665 1.5891597
-3.3829761 3.0968516 1.5889866
-3.3831441 3.0836101 1.5833182
-3.3877583 3.0766845 1.5830017
-3.4044452 3.0763144 1.5828341
-3.3913548 3.0735614 1.5949178
-3.3983045 3.0730317 1.5884197
-3.4083841 3.0571244 1.5801175
-3.4187775 3.0486124 1.5919099
-3.4271922 3.0553212 1.5842413
-3.412142 3.0399551 1.5929312
-3.4228628 3.0455141 1.5881407
-3.4337499 3.0351987 1.5948499
-3.4302988 3.0245554 1.5793803
-3.4471576 3.0215058 1.5882933
-3.4441772 3.01582 1.5792122
-3.4491065 3.0274518 1.594366
-3.4605269 3.0132639 1.5783833
-3.460243 3.0129364 1.5786654
-3.6127307 3.1332493 1.5310907
-3.6084836 3.1278424 1.5322868
-3.6155393 3.1159482 1.5238364
-3.6073787 3.1173933 1.5298707
-3.6125016 3.1065094 1.5300684
-3.6330872 3.1029804 1.5320286
-3.6247525 3.1066382 1.5331211
-3.6254921 3.0895665 1.5306692
-3.6310706 3.0852675 1.5188594
-3.6526246 3.0854387 1.5315577
-3.6538897 3.0818727 1.5246022
-3.6433737 3.066901 1.5172893
-3.6516547 3.0692132 1.5231375
-3.6683788 3.064019 1.5354923
-3.6590617 3.0580277 1.5220309
-3.6695395 3.0557697 1.5301141
-3.67805 3.0461578 1.5269345
-3.6854608 3.0401111 1.531769
-3.6753163 3.0327833 1.5173961
-3.6769745 3.0281918 1.5282922
-3.6859274 3.0266187 1.5207258
-3.7018282 3.0198379 1.5232974
-3.7050347 3.0090449 1.5332967
-3.7023861 3.0057898 1.5232235
-3.8560462 3.1360011 1.4729383
-3.8546567 3.11988 1.4648768
-3.8651764 3.1194885 1.4723427
-3.8588684 3.1159194 1.4589074
-3.8677182 3.1067204 1.4632956
-3.8709333 3.1000819 1.4682494
-3.8832448 3.0887024 1.4767933
-3.8831148 3.0856261 1.4637252
-3.8804059 3.0835402 1.4650389
-3.8876901 3.0882931 1.4682782
-3.9050398 3.0722394 1.4670206
-3.8933187 3.061918 1.4750422
-3.9096518 3.0654118 1.4680784
-3.9185112 3.0595412 1.4629575
-3.9207981 3.0491409 1.474056
-3.9186893 3.0398381 1.4639403
-3.9316189 3.0425284 1.4678752
-3.935997 3.0296462 1.4741703
-3.9334357 3.0237625 1.4638218
-3.9295528 3.0148768 1.4636744
-3.9424231 3.0129161 1.4729276
-3.936543 3.0069432 1.4573196
-4.0949168 3.1241686 1.4113233
-4.1081247 3.1213019 1.4042768
-4.1064448 3.1203918 1.4123082
-4.1136589 3.1058266 1.4165207
-4.1109805 3.1025605 1.4089136
-4.1243591 3.0991371 1.41392
-4.1314349 3.0824883 1.3985445
-4.1288509 3.0739279 1.3997911
-4.1264062 3.0766952 1.4045902
-4.1347003 3.0695326 1.408936
-4.1385942 3.0604618 1.4007605
-4.149128 3.0625188 1.4154619
-4.1467004 3.0505829 1.4150031
-4.1562328 3.0557525 1.405735
-4.1615448 3.0479119 1.3989627
-4.1744561 3.0309963 1.414535
-4.1623526 3.0313005 1.3992325
-4.165616 3.018476 1.4011496
-4.1876254 3.0123754 1.4116199
-4.1848273 3.0022521 1.4007195
-4.333117 3.1234732 1.3471979
-4.3542871 3.107223 1.3408854
-4.3607473 3.0976477 1.3484468
-4.3476577 3.1027782 1.3469937
-4.3638277 3.086827 1.3435217
-4.3667617 3.0821874 1.3489615
-4.3741145 3.0738657 1.340539
-4.376761 3.0664861 1.3451314
-4.3774824 3.0612953 1.3494684
-4.3877249 3.0630927 1.3495332
-4.3888588 3.0562241 1.3457007
-4.3841581 3.0525136 1.3516983
-4.3857608 3.0466628 1.3542062
-4.3997936 3.0382128 1.3479365
-4.3952713 3.0378959 1.3518139
-4.4142122 3.0189395 1.3571556
-4.4077044 3.016916 1.3402855
-4.4096107 3.0165231 1.3421519
-4.5850978 3.1067116 1.2856014
-4.578207 3.103663 1.2963244
-4.5912423 3.1037316 1.2863127
-4.5881009 3.0927441 1.2987304
-4.5989528 3.0843883 1.291443
-4.6072884 3.0862253 1.2818574
-4.6018844 3.076802 1.2981123
-4.6125937 3.0726466 1.2815744
-4.6179528 3.0591986 1.2891823
-4.620173 3.0480359 1.2825725
-4.6205173 3.0437505 1.2852982
-4.6180553 3.0506797 1.2913833
-4.6248608 3.028888 1.2839509
-4.6416693 3.0345435 1.2919511
-4.6460509 3.0336432 1.2980212
-4.637711 3.0086954 1.2923604
