# .PCD v0.7 - Point Cloud Data file format
VERSION 0.7
FIELDS x y z
SIZE 4 4 4
TYPE F F F
COUNT 1 1 1
WIDTH 1506
HEIGHT 1
VIEWPOINT 0 0 0 1 0 0 0
POINTS 1506
DATA ascii
-3.5571465 -3.0956752 1.3476672
-3.5486753 -3.0898135 1.3475428
-3.5438335 -3.0918081 1.3517247
-3.5415063 -3.1067693 1.3546906
-3.5232346 -3.0997403 1.362126
-3.522603 -3.1093569 1.3578726
-3.3757911 -2.9912968 1.4241323
-3.3734055 -2.9985645 1.428761
-3.3716979 -2.9925168 1.4199429
-3.3684332 -3.0148158 1.417434
-3.3683555 -3.0182214 1.4187292
-3.3593106 -3.017477 1.4108516
-3.3503835 -3.0162196 1.4259388
-3.3572681 -3.0169704 1.4110181
-3.3411803 -3.0237918 1.4280736
-3.3376505 -3.0343311 1.4204537
-3.3383675 -3.04371 1.410762
-3.3391044 -3.0348916 1.4185342
-3.3352063 -3.0485601 1.41708
-3.3201199 -3.0431659 1.4180472
-3.3275356 -3.0619016 1.4203229
-3.3136499 -3.0558074 1.4280511
-3.3076351 -3.065007 1.4217391
-3.3065267 -3.0653191 1.4193729
-3.3003323 -3.0737774 1.4148757
-3.2970762 -3.0829468 1.4245239
-3.3014336 -3.0770802 1.4094721
-3.295476 -3.0962048 1.4279114
-3.28174 -3.0956914 1.4173489
-3.2894516 -3.1043587 1.4168415
-3.2761896 -3.1047149 1.4222533
-3.2806456 -3.1154652 1.4184083
-3.2773669 -3.1044869 1.4100065
-3.2603939 -3.116693 1.4259297
-3.1294813 -2.9965105 1.4843117
-3.1195412 -2.9876809 1.4918629
-3.1199467 -3.0075209 1.4898994
-3.1153982 -3.0057225 1.4934243
-3.1124041 -3.014513 1.4820693
-3.0999665 -3.015347 1.4866478
-3.1080301 -3.0272572 1.4754649
-3.0906761 -3.0279677 1.4781202
-3.0971608 -3.0297503 1.4763364
-3.0920413 -3.0389173 1.4869227
-3.0909925 -3.0378346 1.4917685
-3.0778422 -3.0309997 1.4898179
-3.0771344 -3.048764 1.4923953
-3.0783842 -3.0461795 1.4811335
-3.0561032 -3.0448067 1.4854376
-3.065171 -3.0552087 1.4932584
-3.0496545 -3.0578921 1.4935136
-3.0453148 -3.0674455 1.4773972
-3.0583138 -3.067714 1.4838308
-3.0530908 -3.0670991 1.4854246
-3.0372753 -3.0696778 1.492422
-3.0366082 -3.0833545 1.4905695
-3.0378859 -3.0805774 1.4952619
-3.0365803 -3.0833106 1.486842
-3.0265305 -3.0880289 1.484092
-3.0121706 -3.1060874 1.4952314
-3.009984 -3.1129074 1.4879726
-3.0075364 -3.0996721 1.4754397
-3.0011992 -3.1037259 1.4869115
-3.0084224 -3.106853 1.4832656
-2.9940462 -3.1184664 1.4813023
-2.9926667 -3.1337209 1.4899178
-2.9931335 -3.134567 1.4855593
-2.9889026 -3.1384275 1.482711
-2.9730854 -3.1365635 1.4793816
-2.9800124 -3.1446717 1.4822247
-2.9757943 -3.1549306 1.4824728
-2.9588292 -3.1470854 1.4801753
-2.954391 -3.1572526 1.4780368
-2.9584754 -3.158998 1.4769782
-2.9461999 -3.1707282 1.4885068
-2.9558818 -3.1654458 1.4889754
-2.9369426 -3.1650033 1.4927865
-2.9423561 -3.1647081 1.4769197
-2.9306121 -3.1729803 1.487093
-2.9221919 -3.1725698 1.4933283
-2.9309227 -3.192337 1.4934686
-2.9193997 -3.1995411 1.485612
-3.0374231 -3.3260431 1.4254538
-3.0301301 -3.341892 1.4139818
-3.0438898 -3.3498843 1.4149189
-3.0261149 -3.3519833 1.4252716
-3.0278654 -3.3595736 1.4201939
-3.0257988 -3.3570135 1.4195321
-3.0195932 -3.3671515 1.4147128
-3.0032084 -3.3733168 1.4144123
-3.0005825 -3.3726664 1.4184467
-2.9978104 -3.3649521 1.4193728
-3.0028889 -3.3724713 1.4172151
-3.0018337 -3.377363 1.4234694
-2.9922445 -3.3806856 1.4259859
-2.9817121 -3.3909101 1.4106513
-2.9808214 -3.3875682 1.4119679
-2.9650025 -3.4068487 1.4200792
-2.9698398 -3.4046183 1.4222809
-2.9594905 -3.4107037 1.422539
-2.9494357 -3.4188697 1.4276625
-2.9553411 -3.4089761 1.4247088
-2.9403143 -3.4088793 1.4184377
-2.9474394 -3.4124513 1.4114702
-2.9483047 -3.431164 1.4253689
-2.9266474 -3.4240804 1.4132252
-2.9403191 -3.4408479 1.4285988
-2.9326687 -3.4465437 1.4288608
-2.9169009 -3.4418302 1.4155153
-3.0408387 -3.5955517 1.3539536
-3.0423987 -3.6001282 1.354661
-3.0188293 -3.5953801 1.3494042
-3.0182076 -3.6003816 1.3483799
-3.0238509 -3.61729 1.3479123
-3.0164561 -3.6198511 1.3528541
-3.0151567 -3.6255486 1.3489951
-3.005995 -3.6297166 1.3524774
-3.0014539 -3.6310391 1.3543659
-2.996645 -3.6214046 1.3450633
-2.9851756 -3.6386113 1.3501532
-2.988976 -3.6424012 1.3549187
-2.9720631 -3.6476507 1.348677
-2.980401 -3.6373134 1.3616719
-2.9697576 -3.6576602 1.3619893
-2.9595757 -3.6556594 1.3439691
-2.9644463 -3.6574116 1.3444684
-2.9531703 -3.6550608 1.345009
-2.938406 -3.6732333 1.3484296
-2.9417474 -3.6716671 1.3456802
-2.9343858 -3.6837077 1.3499128
-2.9219284 -3.6846304 1.3545365
-2.9247 -3.673728 1.3580852
-2.9137075 -3.6962574 1.3561381
-3.0267332 -3.8412716 1.2917176
-3.0222104 -3.8333435 1.2797374
-3.0157015 -3.8553967 1.2901504
-3.0086877 -3.8512902 1.2870528
-3.0011272 -3.8575416 1.289914
-3.0101404 -3.8522625 1.2784655
-3.0018969 -3.8647556 1.2790935
-2.9894149 -3.8699307 1.2829084
-2.9923036 -3.8630226 1.2817285
-2.9916375 -3.8702726 1.2821146
-2.9729128 -3.8786864 1.2896039
-2.9723163 -3.8879461 1.2892656
-2.9636946 -3.8960719 1.291111
-2.9646537 -3.902565 1.2812921
-2.948705 -3.9068844 1.2894434
-2.9498889 -3.9056096 1.2870878
-2.9425156 -3.90149 1.296446
-2.9345088 -3.9102929 1.2848279
-2.9426811 -3.9073944 1.2843096
-2.9320276 -3.9092462 1.280725
-2.9209821 -3.9177952 1.2929031
-2.922442 -3.9311755 1.2799902
-2.9042342 -3.9213674 1.2831126
-2.9041753 -3.9379582 1.2838956
-2.8939297 -3.9440451 1.284505
-2.8955274 -3.9367669 1.2905277
-2.8994746 -3.9475722 1.2848008
-2.894058 -3.955833 1.294394
-2.880254 -3.9577341 1.2910012
-2.8669627 -3.9544559 1.2898643
-2.8772502 -3.9656119 1.2842786
-2.8553541 -3.9637129 1.2894051
-2.8663652 -3.9690971 1.2884244
-2.8542485 -3.9799194 1.2949301
-2.8413432 -3.9859986 1.2794183
-2.8478227 -3.9791832 1.2952465
-2.828274 -3.9818289 1.2843233
-2.8344469 -3.9845777 1.2891858
-2.8310208 -3.9990473 1.2961856
-2.8109822 -4.0057564 1.2904946
-2.8120747 -4.0082889 1.2776706
-2.7987475 -4.0144677 1.290761
-2.8002884 -4.0172048 1.2824748
-2.8028047 -4.0133781 1.2873662
-2.7988095 -4.0222049 1.2901706
-2.7903209 -4.0230751 1.2837746
-2.7859983 -4.0299668 1.2787093
-2.7725937 -4.0286064 1.2948642
-2.7743213 -4.0294008 1.2805103
-2.7690434 -4.0357432 1.2834008
-2.7494514 -4.0487695 1.2877038
-2.7426779 -4.0540662 1.2897656
-2.7428086 -4.0465064 1.29302
-2.73122 -4.047071 1.2840229
-2.7347348 -4.0492544 1.290113
-2.7354398 -4.0685682 1.2792388
-2.7225354 -4.0691848 1.2853713
-2.7146909 -4.062026 1.2767545
-2.7106864 -4.0822306 1.2912258
-2.7010305 -4.0827985 1.2832297
-2.7084787 -4.0894203 1.2860739
-2.6916187 -4.0749202 1.2874805
-2.6926916 -4.0862079 1.2802975
-2.6905046 -4.0915694 1.296393
-2.6773098 -4.0861139 1.2941401
-2.6780193 -4.1070361 1.2964005
-2.6695979 -4.1007323 1.2818642
-2.6550388 -4.112268 1.2782974
-2.6490915 -4.1054883 1.2783295
-2.6486676 -4.1147466 1.2815894
-2.6362345 -4.1171532 1.2820147
-2.6409519 -4.1284041 1.2807195
-2.6242578 -4.1264386 1.2919081
-2.6347415 -4.1280017 1.2814986
-2.6291246 -4.1220903 1.2803004
-2.6057553 -4.1426144 1.2819276
-2.6001205 -4.1404481 1.2935979
-2.6090171 -4.1494594 1.2774642
-2.6014755 -4.1382647 1.2918335
-2.5938964 -4.1523929 1.2806599
-2.5830526 -4.1598401 1.2907872
-2.5717783 -4.1577616 1.2933625
-2.581794 -4.1647515 1.2815949
-2.5606163 -4.1679921 1.2919475
-2.5698431 -4.1713881 1.2918866
-2.5602629 -4.1771932 1.2949686
-2.5490506 -4.1831455 1.2838757
-2.5461631 -4.1837826 1.2874225
-2.5394042 -4.1826706 1.2858068
-2.5382712 -4.1797776 1.2936976
-2.5283065 -4.191844 1.277768
-2.5282099 -4.1984444 1.2875353
-2.5055327 -4.2008734 1.2939233
-2.5146186 -4.2079425 1.2806727
-2.4933469 -4.210062 1.2876199
-2.492131 -4.2084293 1.2923485
-2.4878283 -4.2014174 1.2947022
-2.4946136 -4.2173567 1.2799885
-2.4778473 -4.2123795 1.2899482
-2.4826918 -4.2121177 1.2863541
-2.4596407 -4.2277441 1.2942387
-2.4525144 -4.2291322 1.2790602
-2.455616 -4.233706 1.2849815
-2.4523246 -4.233233 1.2873539
-2.4422793 -4.2373614 1.2911192
-2.4452817 -4.2461514 1.2800213
-2.4235511 -4.2365212 1.279431
-2.4194617 -4.2395635 1.2863895
-2.4100814 -4.2517319 1.2818043
-2.4107366 -4.2546415 1.2809522
-2.4149814 -4.2604027 1.2879364
-2.4113367 -4.2649436 1.2769876
-2.4028656 -4.2584977 1.2849114
-2.3884687 -4.2746773 1.2767462
-2.3916948 -4.2667322 1.2878824
-2.3711507 -4.2677155 1.2936504
-2.3817 -4.2728987 1.2924619
-2.3728352 -4.2799277 1.291636
-2.357007 -4.2835169 1.2820385
-2.3457594 -4.2937064 1.2929193
-2.3553593 -4.2940898 1.2814195
-2.3379703 -4.296783 1.2887503
-2.3315256 -4.2969642 1.2858903
-2.3371525 -4.308712 1.2902062
-2.3309402 -4.3096542 1.2858139
-2.313587 -4.3160257 1.2837766
-2.3104613 -4.318924 1.2798862
-2.3085196 -4.3189397 1.2922882
-2.3073993 -4.309114 1.2844143
-2.295872 -4.3140326 1.2896562
-2.2934594 -4.334547 1.2778109
-2.282542 -4.3236732 1.2865608
-2.2842894 -4.3323603 1.2784092
-2.2688923 -4.332684 1.2817813
-2.2691748 -4.3328099 1.287474
-2.2538452 -4.3416014 1.2900499
-2.2605486 -4.3532906 1.2929736
-2.2511377 -4.3490663 1.2791194
-2.2293208 -4.3497543 1.27832
-2.2353733 -4.3449516 1.2958229
-2.2361794 -4.3637786 1.2960238
-2.2288265 -4.3577337 1.2903024
-2.2127194 -4.3594866 1.2790896
-2.2047596 -4.3718977 1.2907401
-2.1934233 -4.3706503 1.2854434
-2.1963899 -4.3801374 1.2945254
-2.1967764 -4.3823957 1.2950796
-2.1742349 -4.3813162 1.2830112
-2.1855435 -4.3844962 1.2933996
-2.1776471 -4.3798099 1.2917264
-2.1722436 -4.3820162 1.2943542
-2.1666348 -4.3829594 1.286146
-2.1467433 -4.3938894 1.2792953
-2.1380603 -4.4029589 1.283136
-2.1377225 -4.406795 1.2913173
-2.1426773 -4.3997054 1.2930967
-2.138546 -4.3991137 1.2956941
-2.1138563 -4.4020963 1.2824391
-2.1212308 -4.4025078 1.2890633
-2.1182129 -4.4211473 1.2834244
-2.096864 -4.4205122 1.2786218
-2.0928831 -4.4204016 1.2959096
-2.0971062 -4.4265361 1.2852921
-2.088176 -4.4301291 1.2886218
-2.0754011 -4.4195304 1.2911233
-2.0744407 -4.4400358 1.2837138
-2.071697 -4.442564 1.2798868
-2.0663517 -4.4465609 1.2960591
-2.0542574 -4.4440942 1.2947934
-2.0555348 -4.4447765 1.2778529
-2.0424473 -4.4502802 1.2845038
-2.0341582 -4.4579773 1.2942134
-2.0285773 -4.4560771 1.2807271
-2.0136101 -4.4514289 1.2865782
-2.0153091 -4.4601932 1.2859498
-2.0145028 -4.4541879 1.287729
-2.001102 -4.4716334 1.2898842
-1.9915241 -4.4699335 1.2909385
-1.9857701 -4.4623423 1.2773463
-1.9812779 -4.4622359 1.2859504
-1.9737223 -4.4752526 1.2919207
-1.9795119 -4.4861956 1.2930543
-1.9755881 -4.477777 1.2789409
-1.9651467 -4.4806147 1.2923191
-1.9488503 -4.4913778 1.2797681
-1.9531785 -4.487566 1.2960486
-1.9357238 -4.4965882 1.2777007
-1.9361099 -4.5022712 1.2838615
-1.935438 -4.4884434 1.2804136
-1.9283545 -4.4963698 1.2798637
-1.9867781 -4.6765227 1.2227931
-1.9848706 -4.6752915 1.2238395
-1.9818252 -4.6763945 1.2160696
-1.9728895 -4.6933179 1.2282187
-1.9705718 -4.6802106 1.2123518
-1.9608011 -4.697701 1.2230358
-1.9547461 -4.68401 1.2274276
-1.9470352 -4.6969824 1.2288574
-1.9331597 -4.6955633 1.2268277
-1.9227282 -4.693346 1.2195752
-1.932843 -4.7017255 1.2283961
-1.9851794 -4.8893809 1.1549512
-1.9847806 -4.8859797 1.14947
-1.9721478 -4.8801851 1.1498364
-1.9673622 -4.8786187 1.1460723
-1.9584394 -4.8938308 1.1475704
-1.9588288 -4.8895416 1.1455033
-1.9548225 -4.904099 1.1531984
-1.9493828 -4.8913417 1.1450377
-1.9259689 -4.8947182 1.1618106
-1.9298036 -4.9147778 1.1529112
-1.9248137 -4.9023051 1.1537031
-5.9011922 -2.9815302 0.74705929
-5.8936353 -2.9931643 0.74284989
-5.8758569 -3.002347 0.73909366
-5.8737307 -3.0125921 0.73811996
-5.8835716 -3.0175154 0.73976862
-5.878953 -3.0381491 0.74660641
-5.8636842 -3.0468576 0.74692088
-5.8674712 -3.0584688 0.74518007
-5.8559418 -3.0551264 0.73594934
-5.84728 -3.0590611 0.73418218
-5.840672 -3.0665467 0.73383605
-5.6703219 -3.0023377 0.79499859
-5.6715817 -2.9926465 0.81030464
-5.6765871 -3.0050418 0.80359131
-5.6625552 -3.0115027 0.80017424
-5.6668634 -3.017581 0.80433726
-5.6643229 -3.0326385 0.80799991
-5.6614566 -3.0357418 0.80825317
-5.6403203 -3.0515859 0.80004495
-5.6484032 -3.0630503 0.79609203
-5.6382427 -3.0721998 0.81283748
-5.6284175 -3.0625925 0.79364234
-5.622324 -3.078438 0.81207711
-5.4551282 -2.9923744 0.87095457
-5.460547 -3.00738 0.86639237
-5.4493728 -3.0109198 0.86367273
-5.4540248 -3.0161557 0.87381059
-5.4350033 -3.0227737 0.86875415
-5.4357181 -3.0325141 0.87575662
-5.4446301 -3.0346081 0.85919178
-5.4374847 -3.0508225 0.86136872
-5.4335833 -3.0615034 0.86103803
-5.4288664 -3.070394 0.87274098
-5.4257045 -3.0821879 0.86726266
-5.4085593 -3.0835989 0.87441438
-5.2517309 -3.0041606 0.93056166
-5.2419777 -3.0072467 0.9241913
-5.2420769 -3.0155413 0.93882102
-5.227222 -3.0087907 0.93132234
-5.2253547 -3.0152035 0.92933589
-5.2200418 -3.0387323 0.93873525
-5.2125416 -3.0426319 0.92504787
-5.2253623 -3.0460973 0.93005818
-5.2064695 -3.0506938 0.93085676
-5.2130451 -3.0624492 0.93782085
-5.2124586 -3.0659258 0.9379105
-5.2006202 -3.0838432 0.942249
-5.1951423 -3.0860636 0.92562205
-5.0325198 -3.0007951 0.98797429
-5.0200257 -2.9945049 1.0063256
-5.0095081 -3.0071368 0.98845947
-5.0095816 -3.0165136 0.99399924
-5.0033326 -3.0229659 1.0033731
-5.0120635 -3.034791 0.99544418
-4.9999857 -3.037467 1.0030475
-5.0009346 -3.0438421 0.9944557
-5.0017838 -3.0426748 0.99522209
-4.9982848 -3.0603352 1.0010377
-4.9914031 -3.0621936 1.0025373
-4.9870644 -3.0757489 0.99735755
-4.984365 -3.0829871 1.0065709
-4.9795222 -3.0745091 0.99342662
-4.8085494 -2.9839964 1.0657485
-4.8089132 -3.0062263 1.068347
-4.7971964 -3.0006187 1.0552707
-4.7978668 -3.0202093 1.0628145
-4.7871203 -3.0249085 1.0585151
-4.7955976 -3.0303779 1.0635386
-4.7782497 -3.0332441 1.0536811
-4.7793932 -3.0360608 1.05724
-4.765707 -3.0404763 1.060526
-4.7627983 -3.0443571 1.0592494
-4.7730241 -3.0621629 1.055433
-4.7558246 -3.0645201 1.0561099
-4.7560172 -3.0793576 1.0691118
-4.7492766 -3.0790725 1.0692348
-4.7549834 -3.0922558 1.0713642
-4.7449799 -3.0981417 1.0547239
-4.5716376 -2.9873459 1.1268165
-4.5865941 -3.0052848 1.1178749
-4.5779834 -3.0137906 1.1311997
-4.5660772 -3.0036502 1.1273198
-4.555439 -3.0280075 1.1323042
-4.5686083 -3.0194466 1.1215953
-4.5610919 -3.0353687 1.1227068
-4.5605645 -3.0288503 1.1307558
-4.5399051 -3.0523472 1.1322674
-4.5371075 -3.0501592 1.1345332
-4.5309415 -3.0572627 1.1306604
-4.5375795 -3.0635149 1.1352559
-4.5331502 -3.065357 1.1177466
-4.535387 -3.0795031 1.1367731
-4.5214949 -3.0872295 1.1178313
-4.5226097 -3.0923531 1.1338341
-4.5144248 -3.0941966 1.1202922
-4.3493156 -2.9924619 1.1845458
-4.3521023 -3.0014012 1.1867626
-4.3533688 -3.0118062 1.1975271
-4.3323612 -3.0203176 1.1875418
-4.335218 -3.019748 1.1976522
-4.3334708 -3.0190389 1.1922622
-4.3292241 -3.0248656 1.1990619
-4.325943 -3.0411081 1.1844647
-4.3215947 -3.0427818 1.1910678
-4.3212352 -3.040596 1.202145
-4.3144093 -3.0534387 1.1939722
-4.3082271 -3.053261 1.1829485
-4.2998195 -3.0585515 1.1876017
-4.3006392 -3.0670443 1.1898201
-4.2914352 -3.082612 1.1986785
-4.2921128 -3.0806592 1.1943105
-4.278172 -3.0986953 1.1901745
-4.2774234 -3.0976937 1.1958486
-4.1182051 -2.9854186 1.2508012
-4.1255889 -2.9880087 1.2490752
-4.1218877 -3.0080421 1.2605413
-4.1063509 -3.0061707 1.258214
-4.10183 -3.0201776 1.2566191
-4.092648 -3.0192986 1.2525483
-4.1012397 -3.0335188 1.2589207
-4.1009645 -3.0327277 1.2532506
-4.0850496 -3.0423152 1.2555434
-4.0932627 -3.0354822 1.2648305
-4.0757937 -3.0468252 1.2612019
-4.0682693 -3.0497413 1.2607504
-4.0624633 -3.0531533 1.2660269
-4.0651832 -3.0652339 1.25893
-4.0702224 -3.0770071 1.2635754
-4.0568485 -3.0838196 1.2548435
-4.0475378 -3.0834527 1.2576292
-4.0518465 -3.0870485 1.2669376
-4.0418172 -3.0989745 1.2523842
-4.0494876 -3.1033669 1.2503839
-3.8779681 -2.9991438 1.32766
-3.8801253 -2.9868646 1.3228223
-3.8827264 -2.9930563 1.3202746
-3.8800435 -3.0062532 1.3313421
-3.86445 -3.0087826 1.3163264
-3.8642032 -3.0222397 1.3201822
-3.8526809 -3.0306947 1.3300828
-3.8583653 -3.0277755 1.3220596
-3.8547339 -3.0391524 1.3277763
-3.8456483 -3.0425322 1.3147603
-3.8385553 -3.0486279 1.3162136
-3.8390844 -3.0410683 1.3153849
-3.8444436 -3.0603046 1.3137969
-3.8323431 -3.0610604 1.3244387
-3.8291676 -3.0704327 1.3179721
-3.8210003 -3.063776 1.3234633
-3.8289695 -3.0698221 1.3259088
-3.8070309 -3.0857854 1.3166765
-3.813108 -3.0823572 1.3214647
-3.8134608 -3.0940914 1.3282645
-3.8068221 -3.1029878 1.3143538
-3.798723 -3.0966761 1.3133823
-3.791445 -3.0999939 1.318548
-3.6396358 -2.9953282 1.3932308
-3.6434572 -2.991729 1.3789972
-3.633738 -3.0042553 1.396776
-3.6385202 -3.0090516 1.3938582
-3.6208503 -3.0162168 1.3803205
-3.6124055 -3.0137744 1.3955485
-3.6191652 -3.0160077 1.3843738
-3.6191182 -3.0359323 1.3896279
-3.6129746 -3.0320954 1.386513
-3.6077957 -3.0453255 1.3853936
-3.5974441 -3.0372107 1.3940864
-3.5973079 -3.0571091 1.3914754
-3.5913985 -3.0514872 1.3814293
-3.587703 -3.0548539 1.3916726
-3.5869186 -3.0647638 1.3798302
-3.5796645 -3.0704489 1.3955039
-3.5771756 -3.0671213 1.3940121
-3.5658545 -3.0879807 1.3776573
-3.5692725 -3.0869384 1.3901955
-3.5557981 -3.0849655 1.3945534
-3.5634363 -3.0968962 1.3920702
-3.5623746 -3.0929537 1.3947266
-3.5439172 -3.1073711 1.3880371
-3.5354986 -3.1023695 1.3830069
-3.5368299 -3.1208673 1.3930873
-3.3881674 -2.9912148 1.447402
-3.3858287 -3.0083597 1.4451472
-3.384975 -2.9984887 1.4470348
-3.3804696 -3.0163469 1.4549611
-3.3834193 -3.0050495 1.4498503
-3.3820045 -3.0257161 1.4577928
-3.3630664 -3.0296535 1.4546558
-3.3614652 -3.0194731 1.4620734
-3.3665469 -3.0252206 1.4594584
-3.3566523 -3.036653 1.4433054
-3.3566706 -3.0456126 1.4565718
-3.3472733 -3.0364256 1.457443
-3.3401241 -3.0505838 1.4529291
-3.3310809 -3.0644419 1.4552948
-3.3341048 -3.0654621 1.4536901
-3.322233 -3.0692861 1.4561448
-3.3224123 -3.0783973 1.4593824
-3.325722 -3.0701392 1.4575146
-3.3216076 -3.0712011 1.4546077
-3.3201017 -3.0866137 1.444971
-3.3147423 -3.0862958 1.4510714
-3.2961102 -3.1008391 1.4510493
-3.2966001 -3.0924978 1.4615537
-3.3015976 -3.0993843 1.4428786
-3.2842231 -3.1135726 1.4478561
-3.2884467 -3.1201732 1.4536762
-3.2902093 -3.1112437 1.4550459
-3.1317174 -2.9994781 1.5142339
-3.1322794 -2.9981537 1.5121032
-3.1357424 -2.9996338 1.5192026
-3.1288359 -3.0000713 1.5112563
-3.1158228 -3.0062001 1.5133975
-3.1228259 -3.0171485 1.5085045
-3.1193182 -3.017431 1.5213436
-3.1144798 -3.0246813 1.5246067
-3.1046576 -3.0205045 1.5258756
-3.1090093 -3.0224457 1.5206741
-3.091985 -3.0272672 1.5213895
-3.1006722 -3.0368371 1.5078261
-3.0914843 -3.0340619 1.5171736
-3.095191 -3.0485787 1.5104688
-3.0868378 -3.054287 1.5220146
-3.0763373 -3.0512085 1.5269853
-3.0707238 -3.0688391 1.516041
-3.0722654 -3.0658541 1.5222082
-3.0705378 -3.0772755 1.5169078
-3.0675352 -3.0772836 1.5140162
-3.0497282 -3.0845084 1.5106467
-3.0511997 -3.0846674 1.5220454
-3.0462289 -3.0798917 1.5205512
-3.0519042 -3.0830812 1.5088663
-3.0442786 -3.1021829 1.5157933
-3.0251014 -3.0950551 1.5101129
-3.0209475 -3.106591 1.5111099
-3.0277317 -3.1039515 1.5193943
-3.028343 -3.1038735 1.5205532
-3.0142488 -3.1250882 1.5259944
-3.0030403 -3.1127965 1.5084949
-3.0151954 -3.1262839 1.5151144
-2.9959457 -3.119113 1.510782
-2.9981847 -3.1419368 1.5075259
-2.9921026 -3.1414597 1.5094283
-2.9990876 -3.146136 1.5227125
-2.9917471 -3.1509955 1.5087086
-2.9834039 -3.1469817 1.5215861
-2.9867704 -3.147928 1.5187774
-2.968972 -3.1591344 1.5189838
-2.9657269 -3.1634927 1.5157053
-2.9599752 -3.1643722 1.5231572
-2.9675984 -3.1703744 1.5219913
-2.9595482 -3.1829934 1.5222069
-2.9547482 -3.1739144 1.5270988
-2.94804 -3.1762099 1.5115072
-2.9480422 -3.1955605 1.5152432
-2.9420421 -3.1909692 1.5271736
-2.9431591 -3.1941519 1.5223325
-2.9270787 -3.203949 1.5104533
-2.9307864 -3.1949201 1.5183783
-3.0451493 -3.3444245 1.444674
-3.0444767 -3.3462999 1.454023
-3.0449641 -3.3645608 1.4548965
-3.0252299 -3.3624635 1.4489865
-3.0205979 -3.3581054 1.4449124
-3.0315516 -3.3582029 1.4456125
-3.0187635 -3.3767593 1.4550228
-3.0140388 -3.3808973 1.4453629
-3.0141494 -3.3734255 1.4500122
-3.0061333 -3.3941374 1.4477906
-2.9901865 -3.3863115 1.4600188
-3.0030324 -3.4024961 1.4546369
-2.9865239 -3.403857 1.4552528
-2.9891357 -3.4101784 1.462218
-2.9776516 -3.396569 1.4577867
-2.9702361 -3.4186199 1.4574971
-2.9621143 -3.412595 1.4428835
-2.9645765 -3.426564 1.4483577
-2.9566929 -3.4253681 1.445523
-2.964154 -3.4208865 1.4461889
-2.9538312 -3.425194 1.4588865
-2.9512744 -3.4270897 1.459599
-2.9340935 -3.4372244 1.4431434
-2.9362912 -3.4347246 1.4445522
-2.9315178 -3.4455004 1.4437499
-2.93117 -3.4536259 1.4450696
-2.9311061 -3.4584007 1.4565802
-3.0476708 -3.5949771 1.3933755
-3.0365329 -3.6040604 1.380425
-3.0282238 -3.6053934 1.3961022
-3.0192428 -3.6211975 1.3916112
-3.0175581 -3.6192443 1.3893573
-3.0151553 -3.6249161 1.3810946
-3.009202 -3.6375968 1.3794507
-3.0018342 -3.6303213 1.3911434
-2.9952626 -3.6475205 1.3788165
-2.9873657 -3.6494844 1.3858136
-2.9879522 -3.6508265 1.3848888
-2.9868321 -3.6460724 1.3791362
-2.9786568 -3.658057 1.3962994
-2.9747982 -3.6661143 1.3819
-2.9754248 -3.6575468 1.3936882
-2.9582996 -3.6716416 1.3840321
-2.9494314 -3.6648548 1.3859156
-2.9622011 -3.6757774 1.379288
-2.9432726 -3.6852117 1.3796672
-2.9366651 -3.691838 1.3822814
-2.9430544 -3.6841457 1.3877456
-2.9303632 -3.700434 1.3821487
-2.9234188 -3.6936536 1.3887448
-2.9193053 -3.7081268 1.3914541
-3.0266948 -3.8569138 1.3219888
-3.0249736 -3.865294 1.3274903
-3.0329025 -3.8699355 1.3239276
-3.0189421 -3.8724821 1.3135842
-3.0116034 -3.8612406 1.3179412
-3.0038795 -3.8685389 1.3197992
-2.9935355 -3.8873789 1.3134698
-2.9977214 -3.878686 1.3149651
-2.9874985 -3.8882127 1.3273468
-2.9906738 -3.8987956 1.3293538
-2.9711337 -3.9048343 1.3152341
-2.9761477 -3.8945405 1.3169817
-2.9756541 -3.8975701 1.3183278
-2.9587176 -3.91204 1.3213599
-2.9521186 -3.9045773 1.319858
-2.9611571 -3.9148033 1.3152754
-2.9483318 -3.9201033 1.3160625
-2.9418299 -3.9150133 1.3297445
-2.9338272 -3.9251304 1.3180945
-2.9334369 -3.9238582 1.3200485
-2.9310338 -3.9284875 1.3201431
-2.922745 -3.943578 1.3147032
-2.9127026 -3.9436285 1.330398
-2.9013085 -3.9522014 1.3157793
-2.9068766 -3.95964 1.3127722
-2.8939409 -3.9615877 1.3236804
-2.8855822 -3.9561863 1.313422
-2.8964307 -3.9697652 1.3323795
-2.8735914 -3.960829 1.3253381
-2.8823967 -3.9769962 1.3236797
-2.8692422 -3.9762597 1.3214946
-2.8559878 -3.9727392 1.3283142
-2.8681672 -3.9846871 1.3191708
-2.8446465 -3.9907572 1.3255345
-2.8557389 -3.9879177 1.3285315
-2.8498325 -3.9976702 1.313645
-2.8330128 -4.0045972 1.3282167
-2.8264458 -4.0079122 1.3132582
-2.8209157 -4.0139322 1.331277
-2.8224213 -4.014308 1.317162
-2.8055801 -4.0070853 1.3278092
-2.8109183 -4.0121694 1.3259946
-2.8094316 -4.0150003 1.3162422
-2.7970824 -4.0198836 1.3244218
-2.7983644 -4.0414371 1.3194354
-2.776644 -4.0426683 1.328683
-2.7898045 -4.0326695 1.3149825
-2.7683878 -4.041698 1.3219383
-2.7619243 -4.0507975 1.3268371
-2.7574363 -4.0470085 1.3153154
-2.7670581 -4.05199 1.3149638
-2.7460272 -4.0679264 1.3134677
-2.7468057 -4.0679989 1.3130724
-2.7373312 -4.0613499 1.3317181
-2.7396717 -4.0616164 1.3127263
-2.7269933 -4.0658016 1.3164113
-2.7250617 -4.0887918 1.3139956
-2.7168255 -4.076015 1.3264436
-2.7216282 -4.0824294 1.3136766
-2.7015269 -4.0900173 1.3285754
-2.6929419 -4.0928926 1.3223614
-2.7047031 -4.1004086 1.3240716
-2.6979551 -4.0943794 1.3295623
-2.6915972 -4.104558 1.3255466
-2.6865883 -4.1027651 1.3251013
-2.6805661 -4.113986 1.3242997
-2.6708539 -4.108974 1.3243291
-2.6635518 -4.1214294 1.3209486
-2.6637967 -4.1243963 1.3149582
-2.6568031 -4.1329756 1.3251774
-2.6349058 -4.1386895 1.3163104
-2.6392174 -4.1418896 1.3237084
-2.6218133 -4.1440716 1.3209085
-2.6189137 -4.1456308 1.3316948
-2.6200242 -4.1479216 1.3280315
-2.6215754 -4.1499357 1.3168958
-2.6039228 -4.1479888 1.3145132
-2.6062355 -4.1644955 1.3234081
-2.591924 -4.1670089 1.3130612
-2.5835977 -4.1682949 1.3178517
-2.585047 -4.1734557 1.3206369
-2.5753584 -4.1687045 1.3239228
-2.5782666 -4.1723318 1.3287194
-2.5639696 -4.1788459 1.3156413
-2.5588815 -4.1922631 1.3239486
-2.5574515 -4.1930289 1.31391
-2.5471523 -4.1819448 1.3294786
-2.5392308 -4.1989813 1.3321924
-2.5424092 -4.1875186 1.3160369
-2.5359297 -4.1935472 1.3222311
-2.5246546 -4.2068481 1.3268923
-2.5305896 -4.2162881 1.3199241
-2.5132337 -4.2144694 1.3129402
-2.5110762 -4.2241917 1.3230453
-2.501992 -4.2146692 1.323328
-2.5045955 -4.2295642 1.326432
-2.4972327 -4.2200131 1.3241987
-2.4942963 -4.2283988 1.3284998
-2.4886413 -4.2258253 1.3278259
-2.4791369 -4.2426405 1.3246775
-2.4634337 -4.2340536 1.331774
-2.4630644 -4.2372794 1.3129681
-2.4496584 -4.249032 1.3195105
-2.4432316 -4.2445145 1.3198515
-2.4466946 -4.2568054 1.3132285
-2.4298704 -4.2575974 1.315215
-2.4299374 -4.2569289 1.3302491
-2.4322329 -4.2592311 1.3203859
-2.4102225 -4.2617903 1.3165761
-2.4088812 -4.2607622 1.3194228
-2.4106839 -4.2699523 1.31432
-2.405385 -4.2846999 1.3294466
-2.3988874 -4.2719727 1.3162675
-2.385843 -4.2787547 1.3310443
-2.3924527 -4.2949414 1.3169603
-2.3856807 -4.2802486 1.3255064
-2.3769176 -4.291574 1.3181349
-2.3731158 -4.2911501 1.3318663
-2.3591726 -4.2946754 1.3264354
-2.3490345 -4.3028245 1.3254213
-2.356045 -4.2987456 1.3185974
-2.3481538 -4.3153419 1.320398
-2.3451314 -4.3114195 1.3182893
-2.3352835 -4.320436 1.3127537
-2.3306544 -4.3220506 1.3143787
-2.3201046 -4.322886 1.3140347
-2.3210039 -4.3209558 1.3256955
-2.3092706 -4.3212256 1.3211023
-2.3038013 -4.3335595 1.3162968
-2.2837582 -4.3417664 1.3266473
-2.284725 -4.3429999 1.3243734
-2.272511 -4.3423629 1.3287911
-2.278492 -4.3447285 1.3204112
-2.2665772 -4.3432755 1.3262858
-2.2601936 -4.3432283 1.3138088
-2.2521806 -4.3586698 1.3237509
-2.2445071 -4.3610539 1.3188689
-2.2451684 -4.3577528 1.3169543
-2.2304187 -4.3550348 1.325935
-2.2404699 -4.3583302 1.3299295
-2.2201662 -4.3686543 1.3159025
-2.2221322 -4.3728294 1.3257164
-2.219676 -4.3690567 1.3163598
-2.2055955 -4.3794436 1.3316424
-2.205636 -4.3895259 1.3301507
-2.1981492 -4.3776789 1.3163872
-2.180716 -4.3842468 1.3234004
-2.1881607 -4.3975677 1.3168675
-2.1775155 -4.4022365 1.3161968
-2.1778853 -4.4030571 1.3153659
-2.1742566 -4.4096799 1.3273385
-2.1646504 -4.4043784 1.318254
-2.1452262 -4.4027348 1.3160524
-2.1551542 -4.4131298 1.3265653
-2.1497955 -4.4096875 1.3300885
-2.1259246 -4.4248862 1.3285429
-2.1358128 -4.4287829 1.3235055
-2.1186836 -4.42626 1.3282139
-2.1080832 -4.4192324 1.3313127
-2.1181493 -4.4187183 1.3166406
-2.1090422 -4.4407244 1.3183873
-2.0879583 -4.4392772 1.3284681
-2.0959549 -4.4445624 1.3232163
-2.086149 -4.4459372 1.3305855
-2.0858259 -4.4481192 1.3244035
-2.0819757 -4.452599 1.3260214
-2.0596671 -4.4531412 1.3267322
-2.0623918 -4.4427319 1.3129467
-2.0604038 -4.4479046 1.3291616
-2.0553133 -4.4493294 1.3288541
-2.0448906 -4.4678373 1.3294957
-2.0327175 -4.4714561 1.314531
-2.0304596 -4.4692698 1.3172187
-2.0134494 -4.4634805 1.3214606
-2.0090661 -4.4635749 1.3264415
-2.0108607 -4.4660296 1.3298541
-2.0110338 -4.4723907 1.3156278
-1.990492 -4.4876957 1.314705
-1.9837316 -4.4872351 1.3314953
-1.9807526 -4.4879112 1.3297378
-1.9780772 -4.484396 1.3323404
-1.9747564 -4.4949422 1.3141838
-1.9663963 -4.4894695 1.3210642
-1.9553447 -4.4932299 1.3165764
-1.9600472 -4.4988532 1.3148274
-1.9397652 -4.4925227 1.3134482
-1.9360666 -4.5126195 1.3285236
-1.9265906 -4.4984331 1.3311018
-1.9380336 -4.5037489 1.3169384
-1.9126825 -4.5123525 1.3248885
-1.9831456 -4.6986265 1.2542294
-1.9766989 -4.693881 1.2607017
-1.9684048 -4.6870537 1.2554097
-1.9732263 -4.6954565 1.2491124
-1.9625319 -4.6948471 1.259937
-1.9535826 -4.7002449 1.2598296
-1.9460087 -4.7082372 1.2623535
-1.9433556 -4.7130499 1.2617832
-1.9381205 -4.7156067 1.2586075
-1.9270449 -4.7191167 1.2495302
-1.9280155 -4.7253375 1.2509475
-1.986114 -4.8868594 1.1949917
-1.9861138 -4.8915529 1.1935469
-1.9714016 -4.9076304 1.1864686
-1.9629829 -4.8995795 1.1827595
-1.9637356 -4.9091501 1.1964033
-1.944592 -4.9177203 1.1847963
-1.9429204 -4.9102154 1.1911086
-1.9418155 -4.9240565 1.1975873
-1.9238825 -4.9134078 1.1832696
-1.9350231 -4.9103189 1.1854359
-5.9018507 -2.9952331 0.78841883
-5.9071736 -3.00003 0.78306842
-5.900629 -3.012517 0.78924638
-5.9034076 -3.0054407 0.78101391
-5.9005461 -3.0175693 0.78146648
-5.8951778 -3.0281074 0.77846897
-5.8849092 -3.0449328 0.78686088
-5.8897681 -3.0437801 0.79485393
-5.8760333 -3.0608935 0.78127503
-5.8819523 -3.0565979 0.79574019
-5.8758726 -3.0659323 0.78087252
-5.6920753 -2.9964659 0.85299271
-5.7015672 -2.9927335 0.85736269
-5.6848702 -3.0159924 0.85706103
-5.6763949 -3.0206132 0.85287678
-5.6874557 -3.0241005 0.84639454
-5.6815028 -3.0415664 0.85132116
-5.6671467 -3.0481491 0.84562874
-5.6647868 -3.0452664 0.85104525
-5.6559949 -3.0525839 0.84897375
-5.6527262 -3.0581141 0.84577835
-5.6443148 -3.0719779 0.85194111
-5.6472926 -3.0795255 0.84980011
-5.4795661 -3.0034673 0.91587985
-5.4785814 -3.0140276 0.92176986
-5.4617701 -3.0198739 0.91211879
-5.4714303 -3.0240037 0.91294259
-5.4561534 -3.0180252 0.91511822
-5.466558 -3.0339451 0.90810525
-5.4515357 -3.0453427 0.92169744
-5.4585743 -3.0577524 0.91767615
-5.4487977 -3.0660419 0.90770185
-5.4328475 -3.0616126 0.91808438
-5.4390273 -3.0800941 0.9213118
-5.4226384 -3.0817883 0.9216395
-5.2555747 -2.9969935 0.98729682
-5.2630568 -2.9997334 0.97295183
-5.2497048 -3.011426 0.97222823
-5.2541671 -3.0177634 0.98322153
-5.2456322 -3.0333295 0.97044837
-5.2434945 -3.0401952 0.97289038
-5.245368 -3.0415566 0.97466183
-5.2372055 -3.0512505 0.96847564
-5.2386503 -3.0514178 0.97141504
-5.2168579 -3.0595002 0.98026145
-5.2147269 -3.0696075 0.96761191
-5.2104502 -3.0713909 0.97958153
-5.2205076 -3.0840263 0.98721182
-5.0482359 -2.9884775 1.039373
-5.0481391 -3.0052514 1.0397885
-5.0408053 -3.004123 1.0406734
-5.0310202 -3.0091131 1.0475266
-5.0194535 -3.0301964 1.0320096
-5.0140629 -3.0369904 1.0436429
-5.0257235 -3.0262673 1.0345054
-5.0085278 -3.0376995 1.0425663
-5.0039716 -3.0491509 1.0361435
-5.0074363 -3.0549667 1.044379
-5.0032606 -3.0558703 1.03859
-4.9904356 -3.060868 1.043081
-4.9971852 -3.0827336 1.0357487
-4.9830399 -3.0790248 1.0504686
-4.8209133 -2.9879408 1.0946625
-4.8155522 -2.9955015 1.0955721
-4.8185482 -2.9989634 1.1142292
-4.8106728 -3.0094798 1.1084728
-4.8147268 -3.0197005 1.0982774
-4.8051944 -3.0176556 1.1092732
-4.8074169 -3.0357151 1.1063662
-4.7954192 -3.0452387 1.105456
-4.7989211 -3.0458112 1.109669
-4.7897458 -3.0565476 1.1045736
-4.7858415 -3.0505946 1.0975096
-4.7812548 -3.0634689 1.1096307
-4.7757492 -3.0635378 1.1050299
-4.7715774 -3.0799384 1.0966468
-4.7731528 -3.08461 1.1047713
-4.764914 -3.0839748 1.1016626
-4.5868258 -2.9861948 1.1707323
-4.5906248 -3.0040436 1.1734673
-4.595325 -3.0096486 1.1623344
-4.5758028 -3.0103419 1.1671637
-4.5813675 -3.0114043 1.1646386
-4.5739865 -3.0321624 1.1759256
-4.5744762 -3.0317068 1.1738244
-4.5595574 -3.0313804 1.1619971
-4.5530128 -3.0369399 1.1721669
-4.5583353 -3.0585799 1.1696342
-4.5467567 -3.0653055 1.1679349
-4.5496216 -3.0600233 1.1748155
-4.5497422 -3.0636432 1.1625141
-4.5409865 -3.0719528 1.1759361
-4.5273929 -3.0900469 1.1747069
-4.5363159 -3.0849898 1.159125
-4.5339427 -3.1046603 1.1703976
-4.3773212 -2.986315 1.2319112
-4.369009 -2.9928071 1.2307316
-4.3505182 -3.0088866 1.2342932
-4.3545518 -3.0176618 1.2375048
-4.3602762 -3.0135844 1.2323682
-4.3391113 -3.0339193 1.229975
-4.3502393 -3.0297997 1.2256298
-4.3479371 -3.0363958 1.229542
-4.3268552 -3.0362329 1.2248566
-4.3213472 -3.0580242 1.2268401
-4.3245578 -3.0638707 1.2261583
-4.3297677 -3.0655994 1.2250932
-4.3161488 -3.073041 1.2340522
-4.3189597 -3.0687275 1.2403331
-4.2985506 -3.0743589 1.2367828
-4.3032699 -3.0830543 1.2389832
-4.2903733 -3.0871153 1.2313827
-4.3018141 -3.0931196 1.2232598
-4.1357408 -2.9910574 1.3048887
-4.1280937 -2.9987745 1.287267
-4.1384544 -3.0139735 1.2898545
-4.1294894 -3.0186622 1.2967632
-4.1215811 -3.0140202 1.3022742
-4.1247058 -3.0164859 1.2981362
-4.1215415 -3.0228474 1.2943988
-4.1019197 -3.0382416 1.2879918
-4.1000896 -3.0450613 1.3035436
-4.1058517 -3.0476522 1.2991048
-4.0997286 -3.0421019 1.2914969
-4.09549 -3.0530958 1.3019593
-4.0888648 -3.0586503 1.3030039
-4.0796442 -3.0594473 1.2851353
-4.0835075 -3.0765517 1.2976784
-4.081851 -3.0810046 1.2935195
-4.0643249 -3.0865252 1.2887568
-4.0705285 -3.0966637 1.2943519
-4.0631309 -3.0892198 1.2988732
-4.0601735 -3.1117938 1.2865435
-3.8912194 -2.9970248 1.3490193
-3.9004545 -2.9975626 1.3627082
-3.8992195 -2.9957559 1.3565648
-3.8969321 -3.0090168 1.3553405
-3.8925059 -3.0104363 1.3627219
-3.8755291 -3.0145037 1.3513544
-3.8827033 -3.0253568 1.3601643
-3.8746328 -3.0267332 1.3645277
-3.8609595 -3.0450399 1.3620211
-3.8627577 -3.0447249 1.3626204
-3.8568778 -3.0502272 1.3681787
-3.8520358 -3.0491545 1.3586569
-3.8534973 -3.0510445 1.3563938
-3.8410945 -3.0548525 1.3663162
-3.8499088 -3.0784473 1.3602592
-3.8313341 -3.0692856 1.3555691
-3.8241193 -3.0715265 1.3654543
-3.8280873 -3.0899322 1.3593857
-3.8276844 -3.0989082 1.3604271
-3.8297803 -3.0939326 1.3671942
-3.8112698 -3.1073358 1.3538636
-3.8071933 -3.1001625 1.3670045
-3.6658213 -2.9986746 1.4271692
-3.6536827 -2.9889097 1.4253916
-3.6516144 -2.9922473 1.4254
-3.6555963 -3.0013065 1.4199449
-3.6442609 -3.0074546 1.4176177
-3.643033 -3.0218816 1.4222475
-3.6278667 -3.0202243 1.4232582
-3.6316519 -3.0249889 1.4145949
-3.6286631 -3.0355766 1.4178734
-3.6189978 -3.0464284 1.4136636
-3.6161845 -3.0470669 1.4162247
-3.6167204 -3.0397546 1.4136724
-3.6190269 -3.0545695 1.4128981
-3.6013181 -3.0575681 1.4281744
-3.6090572 -3.0534408 1.4224066
-3.5991166 -3.0723023 1.4273099
-3.5845392 -3.0802212 1.4189626
-3.588944 -3.0761559 1.4309369
-3.582005 -3.0733395 1.4174041
-3.5717807 -3.0851028 1.4180934
-3.5657589 -3.0983045 1.423213
-3.5771692 -3.0963013 1.4207073
-3.5711248 -3.1008708 1.4284434
-3.5658476 -3.1120045 1.4182314
-3.5652874 -3.1151576 1.4171913
-3.4079568 -2.9875574 1.4858494
-3.408422 -2.9945748 1.4881003
-3.3972278 -3.0102985 1.479443
-3.3940525 -3.0033917 1.4786226
-3.3844035 -3.010576 1.4910533
-3.3940582 -3.0160611 1.495291
-3.378587 -3.0172861 1.4865341
-3.3856149 -3.0168028 1.4782043
-3.3849001 -3.0353858 1.4837309
-3.3743906 -3.0377588 1.4910889
-3.3649147 -3.0496895 1.4859254
-3.3702953 -3.0462749 1.4785178
-3.3534184 -3.0558622 1.4801538
-3.3651922 -3.0464766 1.493458
-3.3577797 -3.0516515 1.4843335
-3.33793 -3.0706971 1.4944737
-3.3338363 -3.0584941 1.4881328
-3.3384926 -3.0775483 1.487013
-3.3314724 -3.0801232 1.4920422
-3.3389192 -3.076431 1.4794242
-3.3190012 -3.087512 1.4795957
-3.3242402 -3.0882289 1.487896
-3.3168805 -3.0963314 1.4913173
-3.3078783 -3.100476 1.4888263
-3.3055654 -3.1014836 1.4858568
-3.3123703 -3.1069231 1.4885318
-3.3090289 -3.1125574 1.4880941
-3.2920218 -3.1271427 1.4932806
-3.1585951 -2.9884343 1.5440857
-3.1578484 -2.9918635 1.5397279
-3.149713 -2.9996893 1.5489495
-3.1414003 -2.9970753 1.5421082
-3.1447811 -3.0114291 1.5518128
-3.1247346 -3.0211148 1.5420148
-3.1271729 -3.0128281 1.5558453
-3.1325746 -3.0156932 1.548866
-3.1152952 -3.0195704 1.5408765
-3.1184473 -3.0308003 1.5429194
-3.1164067 -3.0305028 1.5577074
-3.1070762 -3.0336487 1.55348
-3.1020973 -3.052856 1.5458347
-3.1078908 -3.0479531 1.5452052
-3.1005199 -3.0506396 1.5546181
-3.0834379 -3.0574946 1.5587354
-3.0761483 -3.0710089 1.5555238
-3.0750217 -3.0741518 1.5538253
-3.0808687 -3.0642483 1.552622
-3.0746992 -3.0817363 1.5445552
-3.0664806 -3.0814292 1.5411466
-3.063468 -3.0760429 1.5589467
-3.0646768 -3.0899355 1.5418884
-3.053525 -3.0938849 1.5540757
-3.0429966 -3.0947332 1.5479133
-3.0430496 -3.1027751 1.5392267
-3.0389791 -3.1078091 1.5413507
-3.0381143 -3.1160042 1.5446506
-3.0389421 -3.1143401 1.5421667
-3.0209675 -3.110806 1.5465018
-3.0310533 -3.123359 1.5554447
-3.0245421 -3.1372113 1.5540687
-3.0202246 -3.1365902 1.543089
-3.0129597 -3.1291411 1.5524424
-3.0135016 -3.135493 1.5452243
-3.0002 -3.1462338 1.5542349
-2.9955792 -3.1572454 1.5424762
-2.9888287 -3.1517398 1.5467808
-2.9987721 -3.1514156 1.5570019
-2.9911935 -3.1574759 1.5550035
-2.9792743 -3.1579874 1.544692
-2.9784062 -3.1763589 1.5447624
-2.9789083 -3.1747901 1.5496818
-2.9703844 -3.1703393 1.5462723
-2.972501 -3.1908193 1.5407263
-2.9618301 -3.1823926 1.5486495
-2.9621427 -3.1937454 1.5497644
-2.9542084 -3.2027543 1.5405822
-2.9419637 -3.2061188 1.5559152
-2.939492 -3.2063231 1.5493729
-2.939013 -3.1990321 1.5464978
-2.9288397 -3.2153027 1.5494238
-2.9185903 -3.216511 1.5580848
-2.9234159 -3.2136366 1.5553569
-3.0389519 -3.3578899 1.4927816
-3.0325251 -3.3755393 1.4863023
-3.0381691 -3.37796 1.4926113
-3.0226922 -3.3769104 1.4940468
-3.036392 -3.3880863 1.4762468
-3.0147524 -3.3812664 1.4823654
-3.0196493 -3.3984489 1.4798915
-3.0074155 -3.3899453 1.4852571
-3.0122497 -3.3956857 1.4935184
-3.0084171 -3.4107499 1.4887515
-3.0073066 -3.3985484 1.4843862
-2.9852443 -3.4046261 1.4866343
-2.9896555 -3.4210606 1.4907176
-2.9877517 -3.4267366 1.4801002
-2.9844065 -3.4308364 1.4825497
-2.9788556 -3.4180272 1.4760555
-2.9671803 -3.4348509 1.4766085
-2.957973 -3.4441826 1.489888
-2.9633944 -3.4430966 1.4816437
-2.9605489 -3.4429317 1.4825447
-2.9424641 -3.4464159 1.4798504
-2.9487391 -3.4526031 1.4952748
-2.9327602 -3.447973 1.4784546
-2.9326923 -3.4662163 1.4801413
-2.9232359 -3.4658973 1.4819046
-2.9313245 -3.4648163 1.480647
-2.9259014 -3.4768546 1.4867288
-3.0418379 -3.6297479 1.4241139
-3.0423682 -3.6277771 1.4302558
-3.0311365 -3.6277723 1.4207054
-3.0189981 -3.6345005 1.4318072
-3.0095479 -3.6323268 1.4208509
-3.0046678 -3.6390033 1.4186476
-3.0166016 -3.6504464 1.4223169
-3.0068429 -3.6572738 1.4304142
-2.9953151 -3.6570356 1.423695
-2.985039 -3.6562266 1.4290329
-2.9886751 -3.6542933 1.4308282
-2.9913993 -3.6579564 1.4188464
-2.9679759 -3.6754601 1.4311143
-2.9740968 -3.6859035 1.4208921
-2.9691103 -3.6719809 1.4170743
-2.9550741 -3.6782675 1.4308038
-2.9632354 -3.6815839 1.4173067
-2.9477217 -3.7002435 1.4211917
-2.9441049 -3.6924825 1.429517
-2.9472015 -3.699559 1.4228466
-2.9449546 -3.6953907 1.4222975
-2.9209065 -3.7190719 1.4222661
-2.9288347 -3.7044601 1.4289047
-3.0416806 -3.8702073 1.3657451
-3.027343 -3.8671725 1.3641888
-3.0168176 -3.8752496 1.3604978
-3.0125566 -3.876642 1.3576353
-3.0217869 -3.8876801 1.3602509
-3.0071261 -3.8802667 1.354758
-3.0041344 -3.9011211 1.3663119
-3.007807 -3.9049053 1.36615
-2.992023 -3.9098239 1.366416
-2.9962645 -3.9078588 1.3653951
-2.9738615 -3.9067423 1.3518226
-2.971091 -3.9166963 1.3655354
-2.9698713 -3.9215386 1.3554139
-2.9723365 -3.9275398 1.3681355
-2.9576585 -3.9281969 1.3540467
-2.9603589 -3.919625 1.3515915
-2.9485466 -3.9334986 1.3524945
-2.9451747 -3.9364884 1.3538183
-2.9419587 -3.9491432 1.3544207
-2.9384711 -3.9514947 1.3611778
-2.9359987 -3.9569039 1.3532336
-2.927093 -3.9450095 1.3595098
-3.0370259 -4.1099982 1.3015894
-3.0243044 -4.1104569 1.2853482
-3.0188553 -4.1217213 1.2926012
-3.007489 -4.1211762 1.2925701
-2.9985721 -4.1343141 1.3028015
-3.0087464 -4.129581 1.2941717
-2.997591 -4.1271386 1.2970077
-2.9858274 -4.1467218 1.3016053
-2.9873006 -4.1493506 1.304899
-2.9767125 -4.1485977 1.3041847
-2.9798419 -4.1507506 1.2952019
-2.957365 -4.1659307 1.2899996
-2.9511237 -4.1614161 1.2977637
-2.9576235 -4.1712961 1.2902962
-2.9441485 -4.1780257 1.293906
-2.9404364 -4.1807013 1.2864558
-2.9453483 -4.178 1.2856464
-2.9274185 -4.1893191 1.289445
-2.9248853 -4.187901 1.2947974
-2.9190526 -4.1816902 1.2850772
-2.9139287 -4.184411 1.2973706
-2.8977818 -4.1904616 1.2986422
-2.9068315 -4.196084 1.2885785
-2.8881114 -4.214025 1.2927771
-2.8968532 -4.2043152 1.2943802
-2.8819797 -4.2167239 1.2974331
-2.8745506 -4.2198811 1.2873052
-2.8679252 -4.2309494 1.289968
-2.8574955 -4.2253327 1.2981501
-2.8617079 -4.2397366 1.2966359
-2.8556349 -4.2348752 1.2964861
-2.8572631 -4.2397318 1.2943624
-2.8376141 -4.2395082 1.2906848
-2.828023 -4.2464409 1.2931268
-2.834228 -4.2479968 1.2893304
-2.8188243 -4.2605662 1.2971691
-2.8203619 -4.2515998 1.2858868
-2.812022 -4.2619066 1.2875632
-2.8010139 -4.2676883 1.2988757
-2.8018184 -4.2635913 1.2997953
-2.8041315 -4.2793374 1.2895789
-2.7865887 -4.2826324 1.2985003
-2.7911644 -4.2722044 1.2916312
-2.779412 -4.2781177 1.3018074
-2.7652123 -4.2961736 1.2943971
-2.7548037 -4.2847691 1.2983783
-2.756551 -4.3008504 1.2952789
-2.7495751 -4.2945461 1.2858173
-2.7409174 -4.3031936 1.2945105
-2.740942 -4.3186102 1.2912283
-2.7400415 -4.3223109 1.2961197
-2.729352 -4.3144445 1.3016274
-2.7297359 -4.3171353 1.3014656
-2.7169833 -4.3340611 1.2992851
-2.7140493 -4.3227792 1.3029349
-2.6985204 -4.3270864 1.3018671
-2.6990049 -4.3391442 1.2885872
-2.6825838 -4.330235 1.2854724
-2.6956189 -4.3386817 1.2975628
-2.6799555 -4.3531723 1.2980806
-2.6675689 -4.3527865 1.2987336
-2.6702859 -4.3477421 1.29108
-2.66749 -4.3491163 1.3045543
-2.6648505 -4.3637786 1.3049135
-2.6443863 -4.3615532 1.3003565
-2.6402674 -4.3698502 1.2952856
-2.6372108 -4.3646879 1.3019419
-2.627429 -4.3691664 1.3012843
-2.6207569 -4.3727469 1.295948
-2.6219893 -4.3867364 1.2998809
-2.6026988 -4.3944168 1.28795
-2.6027503 -4.3908968 1.3048066
-2.59045 -4.3906689 1.3040229
-2.5846705 -4.3938951 1.2923024
-2.5785265 -4.4027553 1.2865243
-2.5769346 -4.4136 1.296158
-2.5804086 -4.4074965 1.2946538
-2.5772212 -4.4177256 1.2923627
-2.5546865 -4.4074016 1.2901739
-2.557483 -4.4244337 1.29767
-2.5563414 -4.4283051 1.3011514
-2.5471261 -4.4183621 1.2918097
-2.5410488 -4.4222584 1.2863444
-2.5357504 -4.4265194 1.3012933
-2.5221677 -4.4307861 1.2910135
-2.514358 -4.4396157 1.2935117
-2.5169096 -4.4380789 1.2857274
-2.5009606 -4.4395194 1.2913197
-2.5072978 -4.4445953 1.2908331
-2.4958189 -4.458642 1.2969024
-2.4968388 -4.457727 1.3026801
-2.4743726 -4.4537811 1.3019722
-2.4812434 -4.4699483 1.3009303
-2.4735744 -4.4670115 1.2991809
-2.4709518 -4.4766912 1.2967098
-2.4586043 -4.4847665 1.2889456
-2.4437535 -4.4816022 1.2862458
-2.4366825 -4.4887037 1.2856245
-2.4440141 -4.4883618 1.3034379
-2.4318278 -4.4827652 1.2907064
-2.4335673 -4.4844174 1.3023827
-2.4295242 -4.4898376 1.301489
-2.4061847 -4.5083671 1.2879039
-2.403882 -4.5054712 1.3007224
-2.4033241 -4.5062013 1.2873188
-2.3852327 -4.5008368 1.2892896
-2.3949008 -4.5068798 1.2978649
-2.387264 -4.5121145 1.3027706
-2.3802438 -4.5109487 1.2914413
-2.3754053 -4.523869 1.2891232
-2.3632939 -4.524806 1.2885582
-2.3595016 -4.5279818 1.28597
-2.3565984 -4.5341043 1.2882401
-2.3472755 -4.5442162 1.2967852
-2.3451297 -4.5400658 1.2879707
-2.3363831 -4.5441251 1.2878821
-2.3256609 -4.5441575 1.2851031
-2.3263588 -4.5428634 1.3004332
-2.3021464 -4.5608635 1.3002642
-2.3092589 -4.5603447 1.2905014
-2.2986851 -4.554039 1.3031191
-2.2886715 -4.5702691 1.2958695
-2.2812419 -4.5699296 1.2857968
-2.2715378 -4.5666051 1.2889035
-2.273284 -4.5674767 1.2994423
-2.26384 -4.5859494 1.2891952
-2.2544804 -4.5800509 1.3021799
-2.2478955 -4.5812068 1.2997142
-2.245976 -4.5845108 1.3024945
-2.244221 -4.5812926 1.289031
-2.2322245 -4.5938697 1.2851022
-2.2276058 -4.602808 1.2881629
-2.2302325 -4.5906954 1.2947742
-2.2229276 -4.5952611 1.287912
-2.2125115 -4.6079612 1.3033707
-2.2115521 -4.597609 1.3035412
-2.2008357 -4.6042938 1.292785
-2.1971304 -4.6107945 1.3040395
-2.1758864 -4.6217813 1.2951469
-2.1718578 -4.6174226 1.292621
-2.1612883 -4.6274815 1.300657
-2.1546435 -4.6193399 1.3028852
-2.1649337 -4.6202478 1.3003474
-2.1486084 -4.6402783 1.296356
-2.1391411 -4.6363239 1.3027682
-2.1342108 -4.637846 1.3026268
-2.129106 -4.6350923 1.2988858
-2.134753 -4.635077 1.2917206
-2.1091416 -4.6402664 1.2966361
-2.1124184 -4.6478806 1.2889688
-2.098217 -4.651382 1.294292
-2.0959756 -4.6547003 1.2907969
-2.091502 -4.6547747 1.2894249
-2.0895619 -4.6649933 1.2910448
-2.071609 -4.6722188 1.2996324
-2.06724 -4.6609926 1.2897017
-2.0630085 -4.671144 1.2855203
-2.0625136 -4.673429 1.3043399
-2.04918 -4.6765933 1.3009467
-2.0509269 -4.6695299 1.2929075
-2.0403373 -4.6747637 1.3043253
-2.0244203 -4.6842594 1.2953745
-2.0319943 -4.6957889 1.2892901
-2.0209365 -4.6918893 1.2959183
-2.0082548 -4.6965528 1.2982433
-2.0069816 -4.7033668 1.2947078
-1.995635 -4.6924729 1.3039252
-1.9884661 -4.7076116 1.2937523
-1.9824736 -4.6959486 1.3033011
-1.9798704 -4.7125683 1.3027903
-1.9653026 -4.7051377 1.2999133
-1.9593129 -4.7083344 1.290399
-1.9622704 -4.7056522 1.2922045
-1.9513083 -4.7184644 1.3007495
-1.9537141 -4.7251501 1.2874621
-1.9337913 -4.7171226 1.2901825
-1.9374 -4.7243114 1.2866094
-1.9317877 -4.7308989 1.2907009
-1.9163444 -4.7380652 1.2892497
-1.9826585 -4.9049306 1.2304428
-1.9779242 -4.9081798 1.2253631
-1.9760633 -4.9120216 1.2398541
-1.9637127 -4.9254074 1.2397842
-1.9495527 -4.9144211 1.2296507
-1.9468437 -4.932435 1.2355703
-1.9374185 -4.9171243 1.2322477
-1.945269 -4.9320235 1.2244564
-1.9366889 -4.927916 1.232789
-1.9240134 -4.9349747 1.2366574
-5.9226027 -3.0123813 0.83210975
-5.9057188 -3.0129514 0.82755643
-5.9168143 -3.0381954 0.83463037
-5.902925 -3.0448475 0.82990855
-5.8899879 -3.0517159 0.84207457
-5.8993239 -3.0589848 0.83926624
-5.887867 -3.0667367 0.82545567
-5.8878455 -3.0671597 0.83848089
-5.717823 -2.9893 0.90638834
-5.7183247 -3.0075648 0.89848953
-5.7063227 -3.0115106 0.89029968
-5.6953211 -3.0227952 0.88981169
-5.6888609 -3.0294092 0.89234579
-5.6953163 -3.0263791 0.89648777
-5.686482 -3.0346687 0.90201563
-5.6854706 -3.0565629 0.8885228
-5.6872568 -3.05128 0.89552039
-5.6828423 -3.070267 0.89033127
-5.6653914 -3.0718911 0.90294057
-5.6621556 -3.0782077 0.90527433
-5.4999533 -3.005625 0.95377898
-5.4929113 -2.9971201 0.95684314
-5.4863467 -3.0063803 0.96126485
-5.4772372 -3.0263309 0.95668226
-5.4839749 -3.0216942 0.95176989
-5.4651742 -3.0403039 0.95291716
-5.4798555 -3.0449684 0.96729511
-5.4675283 -3.0494983 0.95062804
-5.4603801 -3.0608685 0.96027279
-5.4606113 -3.0733047 0.95153069
-5.4584985 -3.0747058 0.95219541
-5.4500036 -3.073262 0.96904981
-5.2731299 -2.9955783 1.0264567
-5.2772593 -3.0066552 1.0294527
-5.2659612 -3.0086987 1.0247526
-5.2595649 -3.0161815 1.0291041
-5.2720113 -3.0225959 1.0164466
-5.2500691 -3.0409443 1.0269085
-5.2447839 -3.0364163 1.0136439
-5.2498436 -3.0364022 1.0155804
-5.2436357 -3.0585682 1.0237473
-5.236752 -3.0565434 1.0209836
-5.2330041 -3.0672634 1.0296406
-5.2339725 -3.0663066 1.0146035
-5.2319345 -3.0782557 1.0248996
-5.0510135 -2.9911554 1.0772176
-5.0494394 -2.997365 1.0883527
-5.060513 -3.0058675 1.0884984
-5.0411148 -3.0133302 1.0805254
-5.0349712 -3.0301082 1.0799139
-5.0468812 -3.0249436 1.0844774
-5.0306144 -3.0371718 1.0784013
-5.0371017 -3.0499382 1.0889345
-5.0349216 -3.0479693 1.0877479
-5.0277696 -3.0482695 1.0819297
-5.0103111 -3.0555384 1.0936558
-5.0226583 -3.0654249 1.0862494
-5.003861 -3.0705864 1.0774114
-5.0049081 -3.0805609 1.088176
-4.8322697 -2.9885671 1.1513555
-4.8420215 -2.9925349 1.1446196
-4.8272004 -3.0044768 1.1527029
-4.8184462 -3.0071568 1.1550616
-4.819149 -3.0119178 1.1464247
-4.8210292 -3.033797 1.1445173
-4.8087177 -3.0224981 1.1423646
-4.8046713 -3.0478368 1.1373432
-4.8080215 -3.0386777 1.1541719
-4.8002009 -3.0548754 1.1480318
-4.8016057 -3.0644028 1.1408392
-4.8019552 -3.0678716 1.1364471
-4.7890315 -3.0807178 1.146875
-4.7880149 -3.0690176 1.1413791
-4.7846303 -3.0822382 1.1378726
-4.7698736 -3.1015656 1.1392313
-4.6176414 -2.9891868 1.200761
-4.6070704 -3.0004163 1.2015512
-4.6015124 -2.9992518 1.198227
-4.5991163 -3.0145309 1.2054259
-4.6028514 -3.0154893 1.209812
-4.5937705 -3.0210807 1.2174383
-4.5890722 -3.0380411 1.1989211
-4.5739374 -3.0382874 1.1988007
-4.5842896 -3.0394604 1.2121506
-4.5781393 -3.0501976 1.2128577
-4.570621 -3.0524058 1.2089906
-4.5636978 -3.068238 1.2003441
-4.5559754 -3.0627158 1.1993065
-4.5515685 -3.07901 1.2094281
-4.5599537 -3.083261 1.2050239
-4.5439439 -3.0826614 1.2014549
-4.3832803 -2.9944372 1.2694796
-4.3782935 -3.0022733 1.2615395
-4.3734183 -3.004719 1.2788349
-4.375185 -3.0052807 1.2717962
-4.3762355 -3.0225999 1.2689462
-4.361145 -3.0172806 1.2766547
-4.3546925 -3.0285318 1.2762705
-4.3492689 -3.0396786 1.2659709
-4.3537154 -3.0435214 1.2777932
-4.3425574 -3.0356743 1.2765819
-4.33496 -3.048511 1.2627897
-4.3414631 -3.060549 1.2672971
-4.3358974 -3.071908 1.2754885
-4.3330278 -3.0692387 1.2692419
-4.3171887 -3.0718336 1.271794
-4.3241911 -3.0835602 1.2657777
-4.3234768 -3.0930648 1.2746162
-4.3231378 -3.1013846 1.2784085
-4.3130903 -3.0983987 1.2644522
-4.1570911 -2.9972179 1.3265648
-4.1565714 -3.003782 1.3397894
-4.1498351 -3.0011222 1.3270527
-4.1385841 -3.0171788 1.3290273
-4.139133 -3.0146558 1.3397357
-4.1259208 -3.0205925 1.3339077
-4.1301484 -3.0378387 1.3224056
