# .PCD v0.7 - Point Cloud Data file format
VERSION 0.7
FIELDS x y z
SIZE 4 4 4
TYPE F F F
COUNT 1 1 1
WIDTH 1506
HEIGHT 1
VIEWPOINT 0 0 0 1 0 0 0
POINTS 1506
DATA ascii
-9.8531914 -0.36910781 0.41534114
-9.8444233 -0.3842366 0.40762463
-9.837307 -0.3822903 0.4051154
-9.8370543 -0.39987367 0.42312434
-9.8347359 -0.42371538 0.42022023
-9.8539429 -0.42612356 0.40367994
-9.8365593 -0.44985265 0.41066504
-9.8348761 -0.45368671 0.4176816
-9.8476295 -0.46674263 0.41483253
-9.8325434 -0.47853214 0.41706118
-9.8471422 -0.48856363 0.41880086
-9.8342171 -0.51035345 0.41917384
-9.8489885 -0.52557176 0.41525447
-9.8462505 -0.54110277 0.40751225
-9.8454838 -0.55489904 0.40968809
-9.8276024 -0.56850523 0.40321463
-9.8262424 -0.58535069 0.4067702
-9.8378773 -0.60115433 0.42024884
-9.8424768 -0.61037219 0.41442785
-9.8299065 -0.62518346 0.41057268
-9.8350878 -0.6352933 0.41044039
-9.8385105 -0.65319574 0.42227164
-9.8215418 -0.66660732 0.41263697
-9.8284721 -0.67803717 0.42122257
-9.8231258 -0.68947637 0.40976211
-9.8355846 -0.70382899 0.41844463
-9.8344975 -0.71763533 0.4040297
-9.8298359 -0.72391021 0.40755796
-9.8316765 -0.75563705 0.41561407
-9.8193188 -0.75566494 0.42260337
-9.8307972 -0.78176516 0.4132261
-9.8223886 -0.792198 0.41968834
-9.8221292 -0.80659044 0.40647978
-9.8114862 -0.80886191 0.41558072
-9.8122377 -0.82675451 0.40698051
-9.8244305 -0.83809239 0.41776434
-9.8079224 -0.84934902 0.40847716
-9.805809 -0.87696874 0.40664893
-9.8201494 -0.88747299 0.40682626
-9.8064137 -0.90668261 0.42070669
-9.8056698 -0.91845286 0.42221633
-9.8142834 -0.92291594 0.40702105
-9.8164167 -0.92824054 0.41115969
-9.811739 -0.94406134 0.40675169
-9.7979412 -0.96179277 0.41817427
-9.8127241 -0.97289515 0.41198051
-6.4861774 4.9025817 0.93570453
-6.4982071 4.8942351 0.93920696
-6.5145297 4.87747 0.92686331
-6.5159664 4.8766456 0.92613047
-6.5166125 4.8631239 0.92904615
-6.5232177 4.8510733 0.93201756
-6.525929 4.8465867 0.9239006
-6.5442305 4.8456979 0.93158454
-6.5414166 4.823607 0.92270869
-6.5604582 4.8171067 0.93186718
-6.5560751 4.8046041 0.94056821
-6.5678988 4.8068891 0.93000722
-6.5762072 4.7996559 0.93177468
-6.5768466 4.7777781 0.92182076
-6.5782061 4.7820339 0.92745781
-6.5966368 4.7664504 0.93016672
-6.592083 4.7549095 0.93752056
-6.6156335 4.7518086 0.93312657
-6.6114869 4.7382493 0.93579197
-6.6162038 4.7323637 0.92111719
-6.6317487 4.7175641 0.92310888
-6.6385798 4.7176304 0.93656451
-6.6359591 4.6960654 0.93197495
-6.6515579 4.7005258 0.9347049
-6.4984512 4.57901 0.98040092
-6.4981861 4.5571918 0.99022549
-6.5151987 4.5465536 0.97773445
-6.5048451 4.5389776 0.97137654
-6.5188727 4.5421486 0.98070306
-6.5302224 4.5271897 0.9733969
-6.5362339 4.5232606 0.98055303
-6.5402412 4.4990621 0.97704685
-6.5507798 4.5040326 0.98125625
-6.5458951 4.4799399 0.97921544
-6.5582681 4.47683 0.97622573
-6.5544362 4.48034 0.98050421
-6.5607667 4.4531794 0.98323923
-6.5795755 4.4627008 0.98750246
-6.5847292 4.4445119 0.98404914
-6.580544 4.4412766 0.97475898
-6.6036515 4.4183211 0.97066998
-6.5995908 4.4176364 0.97152132
-6.5990229 4.4126787 0.98649108
-6.6142325 4.3988585 0.98652482
-6.6114702 4.3789053 0.97261423
-6.6316848 4.3890114 0.97138792
-6.6276078 4.3790011 0.97218353
-6.6407828 4.3563838 0.97169256
-6.649682 4.3548012 0.98221236
-6.6420212 4.3435798 0.97870594
-6.5010571 4.2299771 1.0309653
-6.5066028 4.2122498 1.0222622
-6.5112839 4.2012277 1.0378361
-6.5009828 4.2011209 1.0288327
-6.5106354 4.189888 1.029128
-6.5141859 4.1845393 1.0287896
-6.5189495 4.169354 1.0277098
-6.5429053 4.1670661 1.0332899
-6.547339 4.1619396 1.0265733
-6.5412402 4.1505213 1.0379298
-6.5586348 4.1435204 1.0304232
-6.5532618 4.1368484 1.0342731
-6.5565786 4.1113563 1.0361936
-6.5643091 4.1020141 1.0271075
-6.5810299 4.1088557 1.0358971
-6.5774426 4.0979705 1.0284549
-6.5941811 4.0881314 1.034952
-6.5919862 4.0801353 1.0282946
-6.6041985 4.0534906 1.0256518
-6.6031146 4.0587173 1.0207396
-6.6106615 4.052309 1.0379837
-6.6057019 4.0370207 1.0377209
-6.616879 4.0241494 1.0211396
-6.6261234 4.0092692 1.0243974
-6.6244407 4.0033765 1.0236861
-6.633955 4.0067668 1.0212866
-6.6508989 3.9791019 1.0382539
-6.6413326 3.9793017 1.036438
-6.658411 3.9729464 1.0371985
-6.4914041 3.8545499 1.0819188
-6.4958739 3.8532405 1.0799633
-6.5030866 3.8425095 1.0719643
-6.5105495 3.8262072 1.0803466
-6.5145807 3.8262537 1.083109
-6.5153418 3.8135629 1.0892471
-6.5168014 3.8169246 1.0880517
-6.5206475 3.7888966 1.088475
-6.527514 3.7959759 1.0783896
-6.5361834 3.7715056 1.0712483
-6.5440793 3.7728422 1.0737869
-6.5567465 3.7550738 1.084098
-6.5513563 3.7554443 1.0727675
-6.5539522 3.7336915 1.0742313
-6.5681534 3.7332337 1.0848459
-6.5795789 3.7173288 1.0718813
-6.5848536 3.7252655 1.0713977
-6.591311 3.7146444 1.0720124
-6.577332 3.7024329 1.0888406
-6.5934258 3.6868148 1.0703396
-6.5966482 3.6885509 1.0823237
-6.5973186 3.6628573 1.0856954
-6.6076655 3.6677787 1.078601
-6.6093297 3.6553159 1.0789243
-6.6095171 3.6338511 1.0879676
-6.6190772 3.6261468 1.0702913
-6.6215892 3.6183414 1.0697439
-6.6245713 3.6092396 1.087775
-6.6469264 3.5992641 1.0828013
-6.6524396 3.5983303 1.0714235
-6.6564417 3.5792961 1.0710028
-6.6484461 3.5847008 1.0741171
-6.6570659 3.5648551 1.0713879
-6.4816794 3.4774427 1.1349425
-6.4969177 3.4661384 1.1367779
-6.5030994 3.4503317 1.1201658
-6.5069456 3.4370584 1.1250122
-6.5113258 3.4258349 1.1300273
-6.5176625 3.4172757 1.1343451
-6.5289598 3.4082091 1.1270137
-6.5316224 3.4001341 1.12994
-6.5346928 3.3850348 1.1275699
-6.5346365 3.3862832 1.1346599
-6.5372968 3.3767846 1.134636
-6.5458932 3.3768625 1.1323885
-6.5526419 3.3555601 1.1234217
-6.5559897 3.3552012 1.1302757
-6.5544782 3.3352385 1.1350069
-6.5679388 3.333703 1.1202863
-6.5570693 3.3256209 1.1256133
-6.5735178 3.3196146 1.131986
-6.5670276 3.2952635 1.1323868
-6.5828943 3.2956817 1.1231698
-6.5916581 3.2781401 1.1335948
-6.5804334 3.2766891 1.1332448
-6.5914431 3.2731645 1.120746
-6.5914063 3.2509537 1.1370486
-6.6045032 3.2549036 1.122555
-6.6128554 3.2300289 1.1356992
-6.6159158 3.2206478 1.1299409
-6.613636 3.2194285 1.1273623
-6.6249709 3.2092977 1.1296252
-6.6358919 3.2078853 1.1215051
-6.6360173 3.182281 1.1250488
-6.6257043 3.1924613 1.1363533
-6.6357284 3.1761782 1.1333511
-6.6382384 3.1644654 1.1373627
-6.644433 3.1641769 1.134555
-6.6451082 3.1400437 1.1361096
-6.652626 3.1373456 1.1375265
-6.6658893 3.1214089 1.1269737
-6.6617184 3.118607 1.1355461
-6.4994855 3.027801 1.1814722
-6.5010319 3.0230985 1.1815583
-6.6750345 3.0941877 1.131595
-6.6818199 3.0783763 1.1241337
-6.6915951 3.0644596 1.1342466
-6.6973453 3.0687399 1.133364
-6.6858897 3.0567241 1.1376475
-6.6928668 3.0415561 1.128538
-6.6984143 3.0374775 1.1328034
-6.7145009 3.02191 1.1235845
-6.7220025 3.0171165 1.1344225
-6.8900862 3.093807 1.0801378
-6.9011631 3.0776176 1.0744882
-6.8926859 3.0589302 1.0823687
-6.9116564 3.0547423 1.08568
-6.9205003 3.0490663 1.0826253
-6.9102135 3.0390937 1.0769143
-6.9156299 3.0263793 1.0854007
-6.9301424 3.0123405 1.0791799
-7.0982623 3.083272 1.0372649
-7.1178083 3.073802 1.0294435
-7.1065021 3.0574486 1.0288713
-7.1199627 3.0542982 1.0217518
-7.1190591 3.0438914 1.0255928
-7.1302609 3.0387671 1.0349002
-7.1381378 3.029038 1.0281913
-7.1290555 3.0138218 1.0211757
-7.3244042 3.0722582 0.98161352
-7.3126225 3.0652752 0.98719412
-7.3270478 3.0522444 0.9765417
-7.3338695 3.0439467 0.98635697
-7.3284984 3.0312204 0.9897626
-7.3436852 3.0292847 0.97996747
-7.3459773 3.01249 0.98972118
-7.5238709 3.0818229 0.93480808
-7.5330873 3.074132 0.92963743
-7.5289984 3.0597188 0.93922383
-7.5319099 3.0528731 0.92236942
-7.5448651 3.0420806 0.92876673
-7.5522251 3.021121 0.93237388
-7.5502229 3.0175831 0.93792999
-7.7385535 3.0749941 0.871508
-7.7434001 3.069833 0.88291276
-7.7380266 3.0465808 0.88778704
-7.7428846 3.049078 0.87915832
-7.7531362 3.0266323 0.87336522
-7.7485433 3.0325348 0.88369179
-7.7543492 3.0197699 0.87771094
-7.9378457 3.0678639 0.82197809
-7.9541755 3.0629761 0.82533991
-7.9468818 3.0442908 0.83572006
-7.9540172 3.0416234 0.82272464
-7.9580545 3.0183794 0.83538783
-7.9706717 3.0247641 0.8356241
-8.1598272 3.0785975 0.77968502
-8.1562634 3.058084 0.78164172
-8.1584759 3.0463729 0.78034419
-8.1703453 3.0330505 0.7771309
-8.1681805 3.0212624 0.78328222
-8.1722288 3.0174062 0.77565908
-8.3548908 3.0716336 0.73096585
-8.3652573 3.0561571 0.72423458
-8.3686028 3.0408578 0.72539055
-8.3792696 3.0371401 0.72406816
-8.3696833 3.0298789 0.73965532
-8.3865156 3.0104446 0.72613108
-8.5639181 3.0580628 0.6827997
-8.5801487 3.0527689 0.68706393
-8.5795765 3.0338552 0.69096011
-8.5728359 3.0350926 0.6824258
-8.5937014 3.0198431 0.69300592
-8.7727327 3.0622287 0.63029712
-8.7755737 3.0615146 0.63349062
-8.7772427 3.0543613 0.62467009
-8.7802162 3.0410056 0.64029747
-8.7875853 3.0150118 0.62820613
-8.9718952 3.0607998 0.58093214
-8.9866695 3.0518904 0.58985037
-8.9771614 3.0477889 0.59184265
-8.9837389 3.0346467 0.58706611
-8.9988346 3.0248411 0.57903975
-9.1871967 3.064363 0.53215843
-9.1849661 3.0638635 0.52633417
-9.1995239 3.0459359 0.52562958
-9.2028847 3.0292575 0.54384786
-9.1906004 3.0094159 0.52835703
-9.3946772 3.0727823 0.47897795
-9.3923016 3.0454807 0.48274592
-9.4009886 3.0319283 0.49497092
-9.4076662 3.0160215 0.48661828
-9.3991013 3.0092256 0.48103014
-9.6032457 3.0607288 0.43685547
-9.6001301 3.0398531 0.43452418
-9.6028194 3.0286574 0.4271099
-9.6061945 3.0183213 0.43586797
-9.7963581 3.0620472 0.3881368
-9.7970486 3.0523353 0.38624284
-9.797595 3.0292487 0.3901729
-9.8143549 3.0217063 0.39368212
-10.004213 3.0682409 0.34491783
-9.9971409 3.0507355 0.33200517
-10.015637 3.0379632 0.34513724
-10.008784 3.0125468 0.33080646
-10.2099 3.0641673 0.28919476
-10.212831 3.0408504 0.28017566
-10.206985 3.0365791 0.29073793
-10.219344 3.0158625 0.28528297
-10.399543 3.0532925 0.24093832
-10.409903 3.0434434 0.23226185
-10.416733 3.0332668 0.24729155
-10.422803 3.0144098 0.23879294
-9.8196888 0.99812645 0.47819021
-9.8254461 0.99779201 0.48737234
-9.8177204 0.96896321 0.48181885
-9.8311253 0.95310318 0.49137422
-9.8240576 0.94312096 0.48628712
-9.8251801 0.93838716 0.49048811
-9.8217955 0.91795993 0.47936505
-9.822752 0.91501343 0.47819245
-9.8417883 0.89239192 0.48565432
-9.8327322 0.88672626 0.48815161
-9.8421431 0.86590934 0.49356112
-9.8404303 0.86070985 0.49236575
-9.8295164 0.8445918 0.47607288
-9.8441362 0.81640482 0.47765329
-9.8491812 0.81660306 0.4829866
-9.8392944 0.79697758 0.47732306
-9.8451872 0.78201532 0.48497108
-9.8421841 0.76735699 0.4834131
-9.8403349 0.75490284 0.49297592
-9.8510036 0.73272592 0.49061707
-9.8391562 0.72234035 0.48118702
-9.8418808 0.71485114 0.48030478
-9.8457804 0.69944036 0.47705352
-9.8459539 0.69055462 0.47936592
-9.8445282 0.67774934 0.47562876
-9.8577499 0.65593737 0.48601982
-9.856616 0.64931977 0.495204
-9.8478146 0.62677348 0.48348659
-9.8605518 0.62712592 0.49307337
-9.8637075 0.59783906 0.49424294
-9.8492022 0.58141011 0.47878811
-9.8641081 0.58324873 0.48960659
-9.8598776 0.56215948 0.47877827
-9.8588781 0.54184955 0.4928295
-9.855547 0.54389936 0.48784199
-9.8559341 0.51364225 0.49481043
-9.8659115 0.50541472 0.4889304
-9.8666849 0.48686484 0.49427447
-9.8591557 0.47643456 0.49374261
-9.8620214 0.46368682 0.47769666
-9.863698 0.44626281 0.47899577
-9.8608103 0.43473244 0.47590855
-9.8670855 0.42821351 0.48550826
-9.8641691 0.40345484 0.48857528
-9.8671818 0.40276882 0.48747045
-9.8751631 0.38241833 0.48988783
-9.8561573 0.37279445 0.47785804
-9.8630114 0.36308137 0.48105961
-9.8645029 0.34156176 0.4876132
-9.8665066 0.33782238 0.49520218
-9.8645372 0.31303284 0.47915119
-9.8612499 0.2917383 0.48535472
-9.8610296 0.28475732 0.47882512
-9.871191 0.28126159 0.48132336
-9.8782654 0.25530237 0.47692296
-9.8664255 0.2418922 0.48596013
-9.8721495 0.22799949 0.47916225
-9.8698845 0.22774427 0.47644079
-9.864398 0.20647062 0.48598993
-9.8723383 0.18364672 0.48559055
-9.8726702 0.18322666 0.49419305
-9.8690348 0.16650954 0.47529307
-9.8791761 0.15040821 0.48320475
-9.8758278 0.14452237 0.48141387
-9.8699617 0.11191908 0.48745742
-9.8684769 0.11149356 0.49388498
-9.8779364 0.085663199 0.48021445
-9.8741732 0.082398228 0.48008373
-9.8731127 0.064900249 0.49247482
-9.8824844 0.059722867 0.47583786
-9.8722353 0.034455098 0.49257699
-9.8733654 0.033045974 0.48639554
-9.8733759 0.0016990653 0.47790954
-9.8654547 -0.0061152149 0.4773348
-9.8793058 -0.0078985794 0.47795409
-9.867094 -0.028051415 0.49194539
-9.8684359 -0.037536528 0.49390408
-9.8634281 -0.063151777 0.48639566
-9.8785324 -0.067618586 0.49518731
-9.8812256 -0.081387773 0.49259973
-9.880537 -0.10485873 0.4785426
-9.8630905 -0.10942892 0.47687459
-9.8718061 -0.13399826 0.477658
-9.868988 -0.15065508 0.48442543
-9.866725 -0.16119023 0.48320779
-9.8638239 -0.1595601 0.47563553
-9.8669119 -0.17933713 0.4923763
-9.8680229 -0.19419186 0.4772999
-9.8766222 -0.20425493 0.49155456
-9.8764105 -0.21713525 0.48583782
-9.878768 -0.22946975 0.49044767
-9.8751621 -0.24451925 0.4842847
-9.8732061 -0.26846519 0.48734948
-9.8704472 -0.26979354 0.48755431
-9.8609009 -0.28907901 0.49102053
-9.8725538 -0.3057023 0.48991311
-9.8717594 -0.32567203 0.48282453
-9.8742046 -0.32702956 0.49467677
-9.871707 -0.35728323 0.49026102
-9.8749361 -0.36764136 0.4867596
-9.863862 -0.38069153 0.48471794
-9.8681593 -0.39049086 0.48142052
-9.8586006 -0.39870727 0.48797035
-9.8659573 -0.42455742 0.48698455
-9.8530903 -0.42127374 0.48050541
-9.8567371 -0.45007393 0.49119452
-9.8614731 -0.45853019 0.47570482
-9.8532782 -0.46990171 0.49264789
-9.8532114 -0.47926489 0.4931269
-9.8575411 -0.492365 0.47703668
-9.8653526 -0.5149188 0.48168448
-9.8551874 -0.5223164 0.49032041
-9.8483 -0.5407207 0.48452654
-9.8548441 -0.54706699 0.48666841
-9.8623543 -0.56115031 0.48587897
-9.8563242 -0.57950443 0.49007353
-9.8595858 -0.60323679 0.47959509
-9.8583174 -0.61943597 0.4915275
-9.8600874 -0.61624956 0.48787814
-9.8613596 -0.63809347 0.48490915
-9.8587017 -0.64846897 0.49316582
-9.8513775 -0.66941768 0.48780337
-9.8553982 -0.68423712 0.47781396
-9.8451929 -0.68637729 0.49525464
-9.8528271 -0.69682407 0.49238724
-9.8412313 -0.72205651 0.48493975
-9.8454218 -0.73138547 0.48753282
-9.8400717 -0.74030066 0.48769858
-9.8427696 -0.75185895 0.48482123
-9.8490982 -0.76558131 0.4938693
-9.838376 -0.79755795 0.48630998
-9.8393784 -0.80314106 0.49156865
-9.8457232 -0.81369466 0.47577339
-9.8420391 -0.83501261 0.49160203
-9.8408947 -0.84495294 0.49074671
-9.8425989 -0.86430514 0.47842026
-9.8317308 -0.86887461 0.49052477
-9.8382511 -0.88913977 0.48747259
-9.8245859 -0.89316815 0.48661911
-9.8337793 -0.90460914 0.48579875
-9.8339052 -0.92643166 0.4867557
-9.8215714 -0.93037897 0.47588196
-9.8239594 -0.96181357 0.48820546
-9.8221245 -0.97072482 0.49296021
-9.824441 -0.97967201 0.48152223
-6.4943876 4.9348221 0.99832714
-6.5067148 4.9200835 0.98192251
-6.5068626 4.9214578 0.99464297
-6.5206594 4.9000478 0.99541926
-6.5244966 4.8874235 0.99798959
-6.5227427 4.8786802 0.99479091
-6.5252104 4.8738546 0.99861008
-6.5483432 4.8712716 0.98868781
-6.5480056 4.8525147 0.98923266
-6.5511327 4.8393874 0.99920505
-6.5663085 4.8369274 0.99296719
-6.5750823 4.8289957 0.98107243
-6.5802479 4.8277588 0.99964327
-6.5726805 4.8195548 0.98590499
-6.5843239 4.7943301 0.98865312
-6.5933838 4.7976646 0.99177802
-6.6056299 4.7853222 0.99920666
-6.6140437 4.7766261 0.99319094
-6.6123667 4.775034 0.99756682
-6.6101322 4.7570682 0.99797326
-6.6179123 4.7506676 0.98508722
-6.6319175 4.7422204 0.99344611
-6.6378045 4.735323 0.9897542
-6.6451073 4.7226954 0.98705363
-6.4875093 4.5931973 1.0364201
-6.5056205 4.5934534 1.0302484
-6.5005941 4.5881281 1.040958
-6.5081263 4.5810394 1.0322045
-6.5216613 4.5622663 1.031101
-6.530808 4.5523529 1.041283
-6.5395355 4.5412712 1.0343249
-6.5411363 4.5427847 1.0481898
-6.5543652 4.5249972 1.0444362
-6.5512733 4.5264807 1.0373431
-6.5508695 4.5134959 1.0419658
-6.5691729 4.4887919 1.0359302
-6.5736351 4.4954934 1.0336628
-6.5673747 4.4810286 1.0334102
-6.5898552 4.479382 1.0434959
-6.5934262 4.4549294 1.0327886
-6.586802 4.4480777 1.0401297
-6.6071234 4.445941 1.0381222
-6.6135674 4.4368773 1.0474746
-6.6037517 4.4171953 1.0474664
-6.621016 4.4241943 1.0436383
-6.6336451 4.3991547 1.0442798
-6.6322966 4.3959041 1.0408047
-6.6332026 4.3851523 1.0320559
-6.6343484 4.3781466 1.0308603
-6.6453953 4.3737822 1.0344208
-6.4845524 4.2561569 1.0884333
-6.4987917 4.2507095 1.0814478
-6.5150261 4.2449937 1.0946333
-6.501895 4.2352548 1.0773799
-6.5087595 4.2144008 1.0963773
-6.5194392 4.2070532 1.079595
-6.5294647 4.2071776 1.0888311
-6.5429525 4.1925063 1.0765928
-6.5451765 4.182786 1.0866345
-6.5485835 4.1681032 1.0816064
-6.5484171 4.1577501 1.0943412
-6.5623116 4.1590681 1.090713
-6.563179 4.1500502 1.0904614
-6.5708485 4.140048 1.0895717
-6.575758 4.1290536 1.0769368
-6.5816574 4.1132388 1.086072
-6.5843267 4.1132455 1.0844567
-6.5977468 4.1055984 1.0773033
-6.6033921 4.0815487 1.0895715
-6.5989828 4.0799007 1.0963067
-6.5995889 4.0642152 1.0818467
-6.6074476 4.0604177 1.0778711
-6.6189213 4.0615234 1.0940512
-6.6306334 4.0407171 1.0894113
-6.6232228 4.0407462 1.0829672
-6.6284337 4.0206075 1.0899067
-6.6444964 4.0235186 1.086059
-6.6421618 3.9987159 1.0837784
-6.6469674 3.9939613 1.0866702
-6.4927468 3.879879 1.1252307
-6.4983845 3.8705084 1.1292571
-6.4984694 3.8789344 1.1387321
-6.5025172 3.8615286 1.1385666
-6.5103722 3.8580396 1.1268567
-6.5228543 3.8475778 1.1444454
-6.5217681 3.8375084 1.1311727
-6.5337296 3.8169663 1.1300966
-6.5295258 3.8243361 1.1335109
-6.5475898 3.812465 1.1414715
-6.5427494 3.7936206 1.1440758
-6.5474219 3.7945387 1.1263928
-6.5480556 3.7807589 1.1262269
-6.5592017 3.7683058 1.1377538
-6.5704999 3.7533593 1.1348978
-6.5734954 3.7512798 1.1306936
-6.5788898 3.7356231 1.1255409
-6.5775437 3.7333288 1.1289743
-6.597261 3.7205491 1.1289138
-6.5935507 3.7150035 1.1261252
-6.6018672 3.6995838 1.1336432
-6.6075668 3.7047639 1.131237
-6.6109362 3.6945701 1.1442167
-6.6144586 3.6784775 1.133916
-6.626441 3.676321 1.1378491
-6.6212668 3.6563902 1.1288902
-6.6202836 3.6562741 1.1334692
-6.6444407 3.6426997 1.1249559
-6.6451507 3.6345913 1.1328722
-6.6459088 3.6153631 1.1444594
-6.6494422 3.6129758 1.1298504
-6.6454449 3.6100335 1.1296525
-6.6638408 3.5888534 1.1284989
-6.4980969 3.4976377 1.1885848
-6.4936595 3.4914162 1.1876798
-6.5052767 3.475462 1.1761036
-6.5058403 3.4655712 1.1736778
-6.521812 3.4565904 1.1869516
-6.5262842 3.4519539 1.1813978
-6.5228276 3.4316006 1.1859038
-6.527771 3.4327421 1.1773173
-6.5273104 3.4228964 1.1750903
-6.5270352 3.4196575 1.1809921
-6.5479007 3.3960049 1.1766261
-6.5367541 3.401638 1.1751223
-6.5464997 3.3804901 1.1867548
-6.5478091 3.3636022 1.1775938
-6.5515313 3.3555529 1.1885563
-6.5619664 3.3478296 1.183993
-6.5779428 3.3483481 1.1881939
-6.5694008 3.3286958 1.1826606
-6.5694318 3.3342638 1.1764125
-6.5916777 3.3248541 1.1760628
-6.5880084 3.2993133 1.1812048
-6.5886922 3.3096404 1.1811309
-6.590867 3.2949309 1.1890662
-6.6013966 3.2836082 1.1892774
-6.6010742 3.2732468 1.1906099
-6.6097765 3.2571204 1.173396
-6.6230288 3.249675 1.1858841
-6.6120677 3.2354171 1.1879101
-6.626627 3.2257597 1.1847005
-6.6274214 3.2184763 1.1812843
-6.628552 3.2194684 1.1815366
-6.6445284 3.2043698 1.1813321
-6.6405654 3.1916771 1.1756402
-6.648654 3.193023 1.1878544
-6.6565189 3.1792459 1.1789422
-6.6630378 3.161309 1.1831448
-6.6667581 3.1546485 1.1891501
-6.6579771 3.1434658 1.1901513
-6.4913912 3.0598004 1.2388422
-6.5036526 3.0425034 1.2214298
-6.4993176 3.048553 1.2342823
-6.5147181 3.0230913 1.2213155
-6.5103097 3.0260444 1.2249415
-6.5115809 3.0053475 1.2392049
-6.6970749 3.0821631 1.1809026
-6.6951313 3.0756748 1.1820538
-6.7089725 3.0698662 1.1858548
-6.716795 3.0572257 1.1877893
-6.7036028 3.0397789 1.1778076
-6.7097936 3.0343165 1.1796119
-6.7133832 3.0374224 1.1765548
-6.7241077 3.0293489 1.1771309
-6.7277856 3.009891 1.1897609
-6.9052777 3.0720849 1.142714
-6.91115 3.070442 1.1287305
-6.9272242 3.0550249 1.1376237
-6.9221339 3.0500362 1.1300789
-6.933229 3.0414817 1.1392703
-6.9223762 3.0303624 1.1403978
-6.9414916 3.0172825 1.1254516
-6.9387889 3.0048299 1.1430056
-7.1174512 3.0825975 1.0937998
-7.1173096 3.0638881 1.0826291
-7.1245241 3.0693176 1.0843369
-7.1306849 3.0531492 1.0940673
-7.130815 3.0451672 1.0780524
-7.1420383 3.0265229 1.0867267
-7.1407924 3.0210171 1.09653
-7.3294039 3.0855787 1.036817
-7.3379159 3.0799878 1.0418061
-7.3413596 3.0612922 1.0440439
-7.3472347 3.0464354 1.0370157
-7.3542151 3.0359931 1.0412403
-7.3523517 3.0425956 1.0408624
-7.3487659 3.0272827 1.0342901
-7.3554358 3.0160708 1.0297157
-7.5379953 3.0708423 0.98839605
-7.5520787 3.0578225 0.99964899
-7.5563436 3.0594435 0.99046701
-7.5522208 3.0368328 0.98594737
-7.5630937 3.035044 0.99299169
-7.5717139 3.031631 0.99544454
-7.567348 3.005475 0.99772656
-7.7593365 3.076633 0.94880188
-7.7511935 3.0641048 0.94293386
-7.7696075 3.0491009 0.93614286
-7.7725811 3.0356064 0.9414289
-7.7687721 3.0322955 0.94424713
-7.773695 3.0089717 0.93924427
-7.9689698 3.0837209 0.89410782
-7.9676614 3.0618544 0.88583887
-7.9792929 3.0555751 0.88473266
-7.9684563 3.0378551 0.88805205
-7.9753218 3.0329192 0.90188885
-7.9830098 3.0203893 0.89404285
-7.9965506 3.0136931 0.90204436
-8.1787243 3.0761945 0.83932209
-8.1738329 3.0585299 0.85223871
-8.1861076 3.0401442 0.85270065
-8.1833696 3.0318558 0.8490743
-8.1976652 3.029145 0.85471523
-8.2002144 3.0190558 0.84521681
-8.3862724 3.0704541 0.80105758
-8.3866692 3.0525417 0.79120064
-8.3932114 3.0511479 0.79997122
-8.3875837 3.0204048 0.79320902
-8.393939 3.0135212 0.79217911
-8.5777912 3.0809207 0.75682706
-8.5859232 3.0548911 0.74261105
-8.5935764 3.0558226 0.75154752
-8.6048384 3.0266652 0.74921995
-8.6104431 3.0191498 0.74825597
-8.6055298 3.0121706 0.74373621
-8.8000908 3.0726497 0.70493668
-8.8011618 3.046962 0.70455509
-8.7934446 3.0311203 0.70516121
-8.8124733 3.0331261 0.71062058
-8.8125143 3.0183442 0.71008474
-9.0036612 3.0620117 0.64743686
-9.0052366 3.0596921 0.64581686
-8.9978571 3.0303366 0.64705533
-9.0127888 3.0195863 0.6528002
-9.008666 3.0179427 0.66359341
-9.2133341 3.070369 0.61520958
-9.2044935 3.0446792 0.60151988
-9.2160168 3.030937 0.60428989
-9.2269163 3.0223804 0.60137308
-9.2123384 3.0179791 0.59598732
-9.4029884 3.050216 0.55618054
-9.4235544 3.045121 0.55472231
-9.4257231 3.0316367 0.5564962
-9.4266338 3.0274353 0.56011313
-9.606823 3.0702684 0.50659919
-9.6112413 3.0579269 0.50516737
-9.6159372 3.0386715 0.51091403
-9.634305 3.0321209 0.51579285
-9.8152494 3.0765624 0.45690843
-9.8138065 3.0618339 0.45459551
-9.8177309 3.0453398 0.45766339
-9.8333549 3.0325186 0.46879208
-9.8304195 3.0217505 0.45959798
-10.011454 3.0506597 0.41128337
-10.023168 3.0319602 0.4083463
-10.020288 3.0330904 0.40650529
-10.038821 3.0137527 0.41885254
-10.217665 3.0556052 0.37001204
-10.22561 3.030463 0.36947367
-10.224334 3.0310166 0.36792684
-10.24535 3.0118804 0.36361188
-10.429662 3.0556412 0.31212106
-10.436517 3.0319662 0.31168649
-10.432547 3.0171969 0.31751901
-9.8332481 0.99734771 0.56164807
-9.8442326 0.98096538 0.55811769
-9.8522921 0.98670602 0.54927188
-9.8519249 0.97137809 0.55232131
-9.8547478 0.95900947 0.54785842
-9.8530054 0.92919606 0.56696784
-9.8457136 0.92318976 0.55942261
-9.8436651 0.90145576 0.55903959
-9.8556843 0.90302271 0.56553602
-9.8595133 0.87150198 0.56113303
-9.8554373 0.87519556 0.56393689
-9.8625612 0.84928179 0.56411314
-9.8531961 0.83666676 0.56378675
-9.8526573 0.82575834 0.5618909
-9.8490496 0.81334645 0.56138688
-9.8498859 0.80397797 0.56483167
-9.851594 0.78318226 0.55603421
-9.8608274 0.76569754 0.55926859
-9.8704243 0.75743645 0.55783743
-9.8735065 0.74656987 0.5586549
-9.8609715 0.72098404 0.55693698
-9.8656139 0.70946008 0.56307787
-9.8700609 0.70846766 0.55037808
-9.874815 0.689161 0.5605458
-9.8614454 0.67458946 0.55207908
-9.8685608 0.6602903 0.54802299
-9.8722124 0.64537293 0.55695182
-9.8646412 0.64229214 0.56217802
-9.8738174 0.61066502 0.55292678
-9.8644047 0.59698784 0.56659395
-9.874156 0.59685779 0.54846185
-9.8656054 0.57307863 0.55259365
-9.8708954 0.56582671 0.54952228
-9.868865 0.55477566 0.56093484
-9.8766479 0.53802961 0.55156785
-9.872879 0.51508462 0.56169492
-9.8731461 0.50938553 0.55069906
-9.8844652 0.49213484 0.5504182
-9.8705387 0.48656699 0.55230713
-9.8858442 0.47125086 0.55431706
-9.8874636 0.44700399 0.5499962
-9.8871956 0.43210837 0.55569667
-9.8827763 0.43270501 0.54794669
-9.8814096 0.41609409 0.56294829
-9.8886108 0.39244336 0.55500752
-9.8851595 0.39328617 0.55792648
-9.6975574 0.36750263 0.59703851
-9.6949272 0.35842004 0.60461998
-9.6925583 0.34393007 0.60044122
-9.688282 0.31478146 0.61475492
-9.7019768 0.3046414 0.59863108
-9.6999731 0.29537776 0.60142195
-9.6922503 0.29112247 0.59862053
-9.6922588 0.2688041 0.61302012
-9.6972466 0.25983524 0.59758174
-9.690156 0.23484898 0.59679961
-9.7001276 0.22397235 0.61111194
-9.6990547 0.21620956 0.60988569
-9.690382 0.19127978 0.60771412
-9.6858692 0.19107197 0.60993928
-9.6870232 0.17759609 0.61557031
-9.7042828 0.16653131 0.60548419
-9.6987314 0.14357808 0.60468984
-9.6959639 0.14098652 0.61512476
-9.6987772 0.11375823 0.61013889
-9.69701 0.11395247 0.61371529
-9.6960058 0.084488183 0.59996414
-9.7006702 0.076390892 0.61199963
-9.6865425 0.057242103 0.61265522
-9.6945677 0.042863078 0.60665315
-9.7003479 0.047567487 0.60072583
-9.7004786 0.01523154 0.59728462
-9.6906767 0.008646125 0.60444129
-9.7016497 0.0050098714 0.6025579
-9.7021694 -0.021277584 0.60699785
-9.6876554 -0.025654618 0.60518396
-9.6895466 -0.048903339 0.60745788
-9.7051706 -0.056711409 0.61518675
-9.6887388 -0.070305042 0.59731919
-9.6916332 -0.091855742 0.59862506
-9.700511 -0.099138349 0.59818792
-9.6952972 -0.10652182 0.59896749
-9.6935053 -0.12409222 0.60671425
-9.7045383 -0.13264388 0.60437739
-9.6974354 -0.14174187 0.60930574
-9.685873 -0.15637204 0.60340959
-9.6961069 -0.17295793 0.60781723
-9.7040472 -0.18525065 0.59796917
-9.7042398 -0.20121473 0.60807979
-9.702281 -0.22019455 0.61019176
-9.6989975 -0.22819211 0.59857309
-9.6961317 -0.25113472 0.61312264
-9.6924686 -0.25246361 0.60365325
-9.7010384 -0.26502204 0.59918344
-9.691927 -0.2906934 0.59916651
-9.6978683 -0.30503768 0.59807009
-9.6896868 -0.30986878 0.61393797
-9.6970787 -0.32291272 0.61106306
-9.6942997 -0.33644068 0.60577363
-9.8753872 -0.35561886 0.56696683
-9.8803377 -0.38481477 0.56179768
-9.8768873 -0.39149338 0.5672341
-9.8788681 -0.39487514 0.56488931
-9.8902988 -0.42721319 0.56353319
-9.8861799 -0.4308444 0.55005229
-9.8820591 -0.44084039 0.55577314
-9.8790159 -0.4630973 0.55020821
-9.880084 -0.47320738 0.56514418
-9.8840094 -0.48101872 0.56009626
-9.8732042 -0.49642068 0.55671233
-9.8731003 -0.5173012 0.55794603
-9.8781452 -0.53527904 0.56631392
-9.8777351 -0.53580457 0.56511217
-9.8796511 -0.54834712 0.56538349
-9.8829031 -0.57737648 0.55583405
-9.8796177 -0.58290964 0.55009812
-9.8705912 -0.60604286 0.55591393
-9.8671103 -0.61090833 0.56542742
-9.8686752 -0.62038088 0.56093633
-9.875268 -0.63974988 0.55484909
-9.8652258 -0.65973568 0.56168616
-9.87393 -0.66550726 0.56434923
-9.8742476 -0.67162824 0.5602895
-9.8757477 -0.70044339 0.55748892
-9.8569574 -0.71330875 0.55945957
-9.8676968 -0.72370523 0.54969645
-9.8641529 -0.72591197 0.55059844
-9.8547745 -0.74549383 0.56043202
-9.8558626 -0.76751482 0.55458903
-9.8614235 -0.77702284 0.56317163
-9.8530512 -0.79740179 0.56556183
-9.8578234 -0.80741799 0.55597264
-9.8599138 -0.81870335 0.55405319
-9.8460436 -0.83245981 0.5571081
-9.8549557 -0.84841591 0.56108564
-9.8618774 -0.85612106 0.54845345
-9.8585424 -0.88131124 0.56739968
-9.8542871 -0.87817055 0.56054795
-9.8401785 -0.89718544 0.56545746
-9.8518944 -0.92284709 0.55463976
-9.8550072 -0.92124259 0.55722243
-9.8357115 -0.94553494 0.56356668
-9.8459854 -0.95306104 0.5524016
-9.8381605 -0.96788049 0.56125462
-9.8472605 -0.97279388 0.54792446
-6.4901352 4.9419007 1.0523629
-6.5087533 4.9317055 1.0471394
-6.510211 4.9369273 1.0514522
-6.5225215 4.9149475 1.0589579
-6.5266542 4.9032145 1.0491965
-6.5399814 4.9100008 1.0468241
-6.5347733 4.8912487 1.0464212
-6.5515227 4.887795 1.0581452
-6.5494876 4.8723059 1.0476828
-6.5624781 4.8575754 1.0573539
-6.5548806 4.8640671 1.0403292
-6.5692859 4.8388205 1.0421977
-6.5689025 4.8389831 1.0583861
-6.5841932 4.8336902 1.041702
-6.5919652 4.8111067 1.0424023
-6.5894861 4.8020253 1.0590155
-6.6093664 4.8049684 1.046013
-6.6096363 4.797966 1.0587026
-6.6181698 4.7797894 1.0450581
-6.6171527 4.7754006 1.045848
-6.6264515 4.7653751 1.0423034
-6.632762 4.7476964 1.0426961
-6.6371913 4.7371416 1.0524446
-6.4868231 4.625463 1.0927689
-6.4915648 4.6255078 1.0930551
-6.4955935 4.6147337 1.0934813
-6.5029964 4.5907679 1.1060814
-6.5233893 4.5932074 1.1009189
-6.5310798 4.5737767 1.0868293
-6.532402 4.5620131 1.0976094
-6.5329213 4.5675879 1.0876319
-6.5369725 4.5534763 1.0892532
-6.5406184 4.5415468 1.0896057
-6.554503 4.527988 1.100135
-6.5547171 4.5161152 1.0997924
-6.5746322 4.5066299 1.0977677
-6.5741076 4.5161443 1.1008785
-6.5809708 4.4916563 1.095539
-6.5929837 4.4858556 1.099888
-6.5990729 4.4850974 1.1016015
-6.5943694 4.4701715 1.0980266
-6.5996304 4.4575343 1.0894859
-6.6032572 4.4475775 1.0981704
-6.6265187 4.4500499 1.1024594
-6.6192379 4.4386096 1.1040484
-6.6322865 4.4135423 1.1053329
-6.627347 4.4152751 1.1053216
-6.6392841 4.3964071 1.0900213
-6.6565475 4.3917761 1.0981272
-6.4868722 4.2805638 1.1413579
-6.4978986 4.2672353 1.1522213
-6.5124865 4.2548575 1.1396807
-6.5156031 4.2450514 1.1464257
-6.5100217 4.2381692 1.144894
-6.5201392 4.224741 1.1411815
-6.5286551 4.2244234 1.14167
-6.5358734 4.2151923 1.1531677
-6.5430899 4.2001581 1.1350828
-6.5455947 4.1939816 1.1416612
-6.5599804 4.1810122 1.1530586
-6.5577888 4.1829624 1.1402116
-6.5647216 4.1762581 1.1440787
-6.5641818 4.1523585 1.1472402
-6.5768843 4.1599483 1.1526283
-6.5711055 4.1433158 1.133705
-6.5890265 4.1240506 1.1435895
-6.5864463 4.1234374 1.1333762
-6.5923553 4.1214643 1.1372706
-6.5963364 4.1028309 1.1441383
-6.6137261 4.095644 1.1471943
-6.6197057 4.0964675 1.1413668
-6.6185193 4.0761642 1.1380094
-6.6334529 4.0621943 1.1399348
-6.6252122 4.0613027 1.13864
-6.6315699 4.0519576 1.1499116
-6.6368384 4.0304461 1.1511246
-6.6522093 4.0372572 1.1409386
-6.6577806 4.0238881 1.1380023
-6.492681 3.912194 1.19233
-6.5073247 3.9091072 1.1820428
-6.4988995 3.8857317 1.1818256
-6.5162892 3.8892205 1.19056
-6.5170236 3.883441 1.1945868
-6.51582 3.8715541 1.1869922
-6.5358982 3.8589485 1.1993306
-6.5246921 3.8467007 1.1994437
-6.5322604 3.8446953 1.1956618
-6.5500021 3.8227189 1.1878129
-6.5506668 3.824666 1.1976403
-6.5436583 3.8174043 1.1934654
-6.5669236 3.8039896 1.1950071
-6.5703931 3.7985947 1.1891372
-6.5651159 3.7778623 1.186595
-6.575799 3.7837176 1.1812806
-6.5740638 3.7748659 1.1924829
-6.5799775 3.7625787 1.1805674
-6.5857654 3.7480693 1.1957836
-6.5953217 3.7411516 1.1981682
-6.5927143 3.7388892 1.1916521
-6.6002669 3.7289431 1.1870338
-6.6119809 3.7010267 1.198168
-6.6221409 3.6949222 1.1930817
-6.6181574 3.6993644 1.1964449
-6.6167035 3.67838 1.1948524
-6.6405511 3.6643746 1.1936046
-6.6331835 3.6696861 1.1892737
-6.6377182 3.654428 1.1996444
-6.6470237 3.6548185 1.1923159
-6.6539321 3.6430085 1.1919506
-6.6473432 3.6288257 1.1908721
-6.4942932 3.5155826 1.2377838
-6.5010333 3.5100846 1.2411721
-6.492847 3.5137107 1.2382571
-6.5012851 3.5039189 1.2436194
-6.5113029 3.4953947 1.2442452
-6.5225558 3.4793403 1.2394586
-6.518127 3.4638402 1.2286972
-6.5233145 3.4641111 1.2276163
-6.5358181 3.4625371 1.2440231
-6.5286736 3.4526021 1.2355512
-6.5425954 3.4296882 1.2356603
-6.5362592 3.4249294 1.2393509
-6.5465217 3.4132395 1.2357541
-6.5596867 3.3979816 1.2314588
-6.5674763 3.3975632 1.2277392
-6.5546274 3.3907366 1.2370722
-6.5665522 3.3731709 1.2400187
-6.5692258 3.3752367 1.2323563
-6.5729675 3.369606 1.232247
-6.5802894 3.3559129 1.2313365
-6.5960703 3.3330793 1.2366526
-6.5917296 3.3413503 1.2463571
-6.6036849 3.3241143 1.2335255
-6.5992246 3.3184562 1.2345965
-6.5990462 3.3097384 1.244416
-6.6025748 3.2985866 1.2365826
-6.6167574 3.2802143 1.2403638
-6.6279807 3.2838602 1.2353978
-6.6268535 3.2684433 1.2339944
-6.6258225 3.2503705 1.2280978
-6.6256895 3.2411697 1.228574
-6.6402268 3.2409503 1.2465342
-6.6450472 3.2334027 1.2364777
-6.6426859 3.2149305 1.2299889
-6.6592407 3.2212379 1.2440145
-6.6459632 3.2086058 1.2361273
-6.6605058 3.1863668 1.2391129
-6.6712542 3.1774678 1.2349958
-6.4912243 3.0909357 1.2913862
-6.4881997 3.0735276 1.2923015
-6.4910598 3.0807774 1.2932868
-6.5134301 3.058001 1.2833295
-6.517828 3.0549033 1.275108
-6.51227 3.0386522 1.2777035
-6.5131879 3.0303192 1.2759023
-6.5200672 3.0197234 1.2907709
-6.534821 3.0190318 1.2927088
-6.5265765 3.0120256 1.275062
-6.7193146 3.0745871 1.2368475
-6.7255502 3.063369 1.2369729
-6.7108579 3.05357 1.2334353
-6.715167 3.0456665 1.2362148
-6.7294202 3.0376186 1.2449955
-6.7318821 3.0393698 1.2466305
-6.7317352 3.0244312 1.2290436
-6.7333765 3.0068288 1.2299781
-6.9179053 3.077543 1.1926773
-6.9228234 3.0815752 1.1841654
-6.925375 3.0739245 1.1865011
-6.9394612 3.0643148 1.1870062
-6.9334083 3.0536616 1.1871059
-6.9508791 3.0429502 1.1887014
-6.9455571 3.022223 1.1916542
-6.9514408 3.0232589 1.1857697
-7.1343155 3.0855305 1.1476972
-7.1362314 3.0732324 1.1481117
-7.1371984 3.0583601 1.1498014
-7.1487861 3.0628512 1.1452062
-7.1488719 3.0490592 1.1426493
-7.1666074 3.0254359 1.1401777
-7.1638241 3.0321071 1.1367539
-7.1609273 3.0055349 1.1523255
-7.3559079 3.0833764 1.0902162
-7.3485394 3.0644069 1.1055278
-7.3670406 3.0653892 1.095958
-7.3569336 3.0487363 1.1040698
-7.3663979 3.035383 1.0872951
-7.3741579 3.0346947 1.1050032
-7.3664985 3.0181599 1.098917
-7.5615921 3.0812337 1.0525447
-7.5590343 3.0779305 1.0495195
-7.559886 3.0617208 1.0499377
-7.5651512 3.0542004 1.0433412
-7.585844 3.0383222 1.0480527
-7.5712109 3.0282016 1.0440301
-7.5861325 3.0124326 1.0536445
-7.7738442 3.0827847 0.99353468
-7.7774987 3.0579848 1.0097046
-7.7834296 3.0650458 0.99964702
-7.7754321 3.0414104 1.0098569
-7.7871251 3.0446072 1.0073342
-7.7818279 3.0312121 0.99917877
-7.7960973 3.0167973 0.99408561
-7.9785528 3.0755026 0.95703632
-7.9947739 3.06322 0.9471274
-7.9950018 3.040216 0.95204979
-7.9856 3.0346029 0.96657562
-7.9896255 3.0296059 0.94716656
-7.9974656 3.0229328 0.96568906
-8.1975298 3.0765574 0.90478629
-8.1852808 3.0544 0.90462929
-8.1955385 3.0417495 0.90196592
-8.1939363 3.0390244 0.91578186
-8.1974115 3.0196276 0.90962023
-8.2112532 3.0082707 0.90233558
-8.3977327 3.0674627 0.8565461
-8.3966208 3.0535002 0.86298156
-8.4009676 3.0397265 0.85559732
-8.404707 3.0423112 0.87272346
-8.4099073 3.0311971 0.86660367
-8.4093275 3.0165937 0.86977607
-8.6121836 3.0609763 0.82508695
-8.6144819 3.0459378 0.81580037
-8.6229477 3.0316391 0.8185842
-8.6175575 3.0276971 0.82148445
-8.6194363 3.0242028 0.80852461
-8.8041658 3.0697954 0.76667589
-8.8187866 3.051311 0.76946592
-8.8207741 3.0533137 0.76659262
-8.8256187 3.0343258 0.76436281
-8.836565 3.0201111 0.7792933
-9.0085087 3.0729449 0.71871161
-9.0143585 3.0650423 0.72178948
-9.0294771 3.0529082 0.72260576
-9.0217943 3.0303814 0.73152322
-9.0311937 3.0101774 0.7289955
-9.218152 3.0743175 0.6737324
-9.2157431 3.0466902 0.67896873
-9.2305269 3.0413136 0.67853099
-9.2281656 3.0353138 0.67143458
-9.2280159 3.0225713 0.68245858
-9.4179573 3.0661128 0.62955862
-9.4368401 3.0479484 0.62802655
-9.4326258 3.0389044 0.62697047
-9.4475775 3.0217645 0.63600355
-9.6389637 3.0782495 0.59078765
-9.6275702 3.0574996 0.5878613
-9.6447554 3.0434124 0.59019887
-9.6366844 3.0187774 0.58005708
-9.6490326 3.0207217 0.5768187
-9.8342361 3.0645397 0.5270803
-9.8426991 3.0498536 0.54061037
-9.8373766 3.0405321 0.52915519
-9.8535671 3.0196531 0.54184103
-10.03689 3.0645189 0.48391145
-10.045143 3.0508149 0.48350987
-10.051927 3.0327594 0.49582019
-10.061617 3.0217559 0.48751068
-10.235358 3.0584867 0.44137314
-10.252891 3.0513616 0.43732554
-10.253641 3.0289905 0.45305657
-10.257443 3.0223978 0.44785193
-10.454411 3.0597537 0.40041554
-10.456174 3.0504572 0.39252886
-10.445231 3.0281172 0.38678995
-10.465531 3.0217669 0.40138093
-9.8595943 1.0112282 0.62859929
-9.8657789 0.99122554 0.63185602
-9.8666716 0.98611885 0.62200922
-9.8632078 0.95713359 0.62094903
-9.8610802 0.95859194 0.62563151
-9.8668203 0.94462794 0.6275177
-9.8639956 0.91717565 0.6285637
-9.8750038 0.91807199 0.63067043
-9.8666716 0.89411515 0.63368565
-9.8670492 0.87273848 0.6350401
-9.8624058 0.8676303 0.62995058
-9.8750038 0.85771734 0.63863778
-9.8643255 0.84827286 0.63599938
-9.8834743 0.82363343 0.63815892
-9.8836651 0.82244366 0.63556165
-9.8791533 0.79681683 0.63278723
-9.872736 0.79529846 0.63634908
-9.8852539 0.76403618 0.63459766
-9.8756456 0.76235157 0.6226815
-9.8830032 0.74151456 0.62318254
-9.8889866 0.72652817 0.63237095
-9.8800402 0.72013152 0.62544364
-9.6883831 0.69199765 0.66953719
-9.6933308 0.6797182 0.67612535
-9.6960993 0.66837841 0.67532581
-9.7014475 0.64266074 0.68270308
-9.6895504 0.64445138 0.68236715
-9.6940727 0.6147964 0.68457568
-9.7003269 0.61580253 0.67890781
-9.6984787 0.59048504 0.68621254
-9.6961107 0.58019841 0.67234194
-9.7045355 0.5598532 0.68588722
-9.6998682 0.55813652 0.67869622
-9.6977558 0.53241009 0.67277008
-9.7090359 0.52483338 0.6690498
-9.7010965 0.51280928 0.67315871
-9.705761 0.49356329 0.67260635
-9.710742 0.49065733 0.67594844
-9.6934958 0.46234 0.6738472
-9.7018986 0.4566952 0.67998016
-9.7029781 0.45422396 0.66937935
-9.6979094 0.42411473 0.6719873
-9.699276 0.41944024 0.68643355
-9.7078142 0.3976275 0.66870958
-9.70226 0.38526475 0.67696601
-9.700407 0.38155243 0.66675651
-9.714427 0.35386786 0.67086011
-9.7089796 0.34187514 0.68561786
-9.7001715 0.32778281 0.68561929
-9.7134457 0.32592309 0.67353785
-9.7005672 0.30360067 0.67254794
-9.7182713 0.28694499 0.67501247
-9.7133484 0.28950137 0.68636692
-9.7139606 0.26407883 0.66947389
-9.7122774 0.26475129 0.6737842
-9.7023191 0.24779841 0.6679489
-9.7025509 0.23732919 0.66799653
-9.7186604 0.21279131 0.66961956
-9.7199936 0.19752683 0.67071915
-9.7213058 0.18943456 0.68352848
-9.7146807 0.1746475 0.66758549
-9.7090273 0.16256486 0.66855747
-9.7208891 0.15579461 0.68565708
-9.7213783 0.12878305 0.67090589
-9.7187414 0.1238062 0.67039937
-9.7117758 0.10912054 0.68651277
-9.7106256 0.094516568 0.68573016
-9.7094088 0.084097929 0.67398322
-9.7065506 0.072622418 0.68054587
-9.7225742 0.060091488 0.67259061
-9.7057686 0.034423713 0.68342298
-9.7048874 0.014629205 0.67574781
-9.7230158 0.0031725063 0.6748777
-9.7040243 -0.0085918875 0.68057168
-9.7197666 -0.01755695 0.67486465
-9.7159958 -0.039412387 0.66804802
-9.7160921 -0.039993454 0.68020368
-9.7169523 -0.059252523 0.67551708
-9.7095413 -0.075566493 0.67293155
-9.7155476 -0.087835759 0.67139179
-9.7094908 -0.10325096 0.6777609
-9.7125826 -0.11775509 0.67791235
-9.703331 -0.13037613 0.68018389
-9.7149296 -0.14401446 0.68426782
-9.7208157 -0.15342125 0.67296356
-9.7123899 -0.15910293 0.67338055
-9.710762 -0.1849461 0.66679317
-9.716959 -0.19173338 0.67452329
-9.7078247 -0.21121164 0.67951584
-9.7012558 -0.21681823 0.68581539
-9.7162085 -0.2365084 0.67027587
-9.7047729 -0.23944971 0.6738081
-9.7131662 -0.25331733 0.6782949
-9.7192698 -0.2789813 0.68271875
-9.7012701 -0.29074761 0.6713109
-9.7145567 -0.29432333 0.66779619
-9.707406 -0.31652501 0.67201269
-9.7068243 -0.32519698 0.68301606
-9.698494 -0.34502578 0.66811478
-9.7051516 -0.35859695 0.68118012
-9.7054911 -0.36745024 0.66812813
-9.7013512 -0.38521647 0.68570715
-9.7136593 -0.39174426 0.68299043
-9.7014627 -0.40476194 0.668181
-9.7048225 -0.4201856 0.67517596
-9.6995716 -0.42931944 0.67216539
-9.6978168 -0.45174646 0.68052268
-9.7118263 -0.47405404 0.67377698
-9.6948137 -0.46851203 0.6807707
-9.6926832 -0.49012783 0.66776085
-9.6974678 -0.51260185 0.67946452
-9.6952868 -0.5114736 0.66696811
-9.695507 -0.52321088 0.68150932
-9.6984243 -0.5433268 0.67659736
-9.6961336 -0.56739753 0.66982549
-9.6868277 -0.56683081 0.66748273
-9.7005148 -0.58514136 0.67627496
-9.6858244 -0.5981127 0.67632067
-9.6978617 -0.61474138 0.67546868
-9.7028856 -0.62992877 0.68656015
-9.700901 -0.63060933 0.66873586
-9.6871939 -0.64983505 0.68559712
-9.6859636 -0.67002696 0.6842773
-9.8841619 -0.68772036 0.62973028
-9.8732452 -0.71035826 0.63133317
-9.889082 -0.72449338 0.62705576
-9.8872414 -0.73313624 0.63801962
-9.8765898 -0.74792957 0.62956291
-9.8858728 -0.75561911 0.63802695
-9.875989 -0.76921099 0.624852
-9.8749933 -0.78171515 0.62454349
-9.8718042 -0.80142778 0.63855505
-9.8717337 -0.82084531 0.62591922
-9.8729639 -0.82542652 0.62295187
-9.8620548 -0.8400833 0.63115925
-9.869524 -0.85158753 0.63904279
-9.8612518 -0.88228196 0.63209325
-9.8619957 -0.88337433 0.6241588
-9.8711777 -0.89481884 0.62234175
-9.8718767 -0.91746747 0.62073821
-9.8657303 -0.92022878 0.62043434
-9.8598738 -0.94092703 0.63422012
-9.8599863 -0.9627009 0.62238908
-9.8527155 -0.96687013 0.63977593
-9.8683929 -0.98131531 0.63630337
-6.4885459 4.9799852 1.1139554
-6.490375 4.9585991 1.105029
-6.4993377 4.9529796 1.1028565
-6.517993 4.9540153 1.1098837
-6.515512 4.9345226 1.1100709
-6.5252891 4.9217191 1.1030318
-6.5368996 4.9231677 1.1168684
-6.5352054 4.9114432 1.1026027
-6.5427589 4.9108152 1.1011379
-6.5574784 4.8903933 1.1053394
-6.5622625 4.8758712 1.119691
-6.5748606 4.8664374 1.101741
-6.5763721 4.8749461 1.1072658
-6.5800433 4.8516908 1.1029307
-6.5966744 4.8377957 1.1082165
-6.5931058 4.8409901 1.109822
-6.5965629 4.819428 1.1020092
-6.6061707 4.8264008 1.1116142
-6.6100311 4.8126488 1.109743
-6.6153436 4.8109922 1.1166115
-6.6364417 4.7913547 1.1181293
-6.6431756 4.7859087 1.1193937
-6.6478457 4.765729 1.1183567
-6.4884243 4.6554451 1.1485081
-6.4917216 4.6486998 1.1487293
-6.5097198 4.6322622 1.1613634
-6.5061002 4.6190939 1.1616628
-6.5102806 4.6230302 1.1581725
-6.5248432 4.6098065 1.1501766
-6.5212646 4.5979581 1.1497804
-6.5308046 4.5916853 1.1590117
-6.5388141 4.585341 1.152072
-6.5455461 4.5609746 1.1542358
-6.5533023 4.5641108 1.1486061
-6.5561385 4.550415 1.1453121
-6.5587406 4.5451727 1.1546707
-6.568696 4.5299897 1.1599598
-6.5783391 4.5170531 1.1582934
-6.5914593 4.5159674 1.1525203
-6.5925627 4.5048623 1.1640244
-6.5940495 4.4906054 1.1583909
-6.6062922 4.4947152 1.1555568
-6.6054616 4.4784555 1.157509
-6.6224542 4.4607902 1.1517591
-6.6250639 4.4666262 1.161484
-6.6309543 4.4561849 1.1551459
-6.6274734 4.4421 1.1628128
-6.6386905 4.4246716 1.14674
-6.6515608 4.4204087 1.1587874
-6.4876332 4.3139482 1.1941879
-6.494597 4.2998567 1.1993111
-6.5071812 4.2797699 1.1977761
-6.5025873 4.2867494 1.2092224
-6.5160279 4.262958 1.1922529
-6.5152063 4.2627664 1.1903774
-6.5246468 4.2428803 1.2073274
-6.5404124 4.2326589 1.199468
-6.5484986 4.237391 1.2034644
-6.5526447 4.2154098 1.1924907
-6.5447311 4.220943 1.1917257
-6.566648 4.2054944 1.2059519
-6.5634284 4.2034307 1.2091829
-6.5617313 4.1919174 1.2084925
-6.5685754 4.1729069 1.1931187
-6.5723758 4.1606493 1.2066693
-6.5780387 4.1648698 1.2094586
-6.5867391 4.1392303 1.1911591
-6.6032858 4.1313972 1.2067326
-6.5958233 4.125298 1.2094744
-6.6193218 4.1129804 1.2069069
-6.6235719 4.1046004 1.1980563
-6.6135831 4.1052814 1.1963158
-6.6203504 4.0934887 1.1922438
-6.6277952 4.0806684 1.1983515
-6.6306009 4.0698509 1.2013999
-6.639843 4.0591612 1.1978753
-6.6462831 4.0655489 1.1979252
-6.6510091 4.0411544 1.1993647
-6.4933782 3.929275 1.2491795
-6.4996228 3.9205692 1.250671
-6.5084219 3.9133394 1.2530292
-6.5060592 3.9018118 1.2453232
-6.5254245 3.9092176 1.255087
-6.5288486 3.8948665 1.2413009
-6.5261526 3.8833842 1.2459761
-6.5403957 3.8683217 1.2492477
-6.5381503 3.8724685 1.2482011
-6.5358424 3.8575246 1.2520624
-6.5520821 3.8390641 1.2540541
-6.5437379 3.8398287 1.2364247
-6.5538898 3.8372507 1.240658
-6.5616703 3.8224795 1.2424642
-6.5771446 3.8137748 1.2407838
-6.5828419 3.8070643 1.2538676
-6.5823126 3.788456 1.2445922
-6.577095 3.7809985 1.2493849
-6.588593 3.7811666 1.2474624
-6.6011248 3.7690105 1.2397417
-6.6097822 3.74597 1.2427135
-6.5964355 3.7366157 1.2356101
-6.6207051 3.7424393 1.2550969
-6.6207285 3.7257988 1.248988
-6.6189327 3.7189884 1.2433572
-6.618804 3.711772 1.2402062
-6.6255789 3.6903632 1.2476447
-6.6416163 3.6794374 1.2368304
-6.6328483 3.6822662 1.2553967
-6.6459894 3.677803 1.2510269
-6.6468387 3.6699095 1.2528435
-6.6647029 3.6605766 1.2545401
-6.4985552 3.5590253 1.2965457
-6.50388 3.5360284 1.285916
-6.4953012 3.5400026 1.2977319
-6.5123405 3.529268 1.2915946
-6.5125179 3.5169084 1.2933191
-6.5252442 3.5136483 1.2933956
-6.5287724 3.5042803 1.2855859
-6.533721 3.486882 1.2826051
-6.5230269 3.4737325 1.2810298
-6.5305037 3.4678037 1.2994282
-6.5362706 3.4619925 1.298739
-6.5452633 3.4557858 1.2841343
-6.5448732 3.4430742 1.2825924
-6.5526543 3.4382272 1.2994113
-6.5665598 3.4180937 1.2929726
-6.5587282 3.4101124 1.2923826
-6.570807 3.4034691 1.2915404
-6.5706825 3.3967297 1.2824224
-6.5735264 3.385525 1.2892843
-6.5779328 3.371671 1.2993537
-6.5839276 3.3568647 1.2927547
-6.5905991 3.3578675 1.2890983
-6.5918622 3.3440502 1.2818865
-6.5946541 3.3472281 1.2989907
-6.6006145 3.3212643 1.2851312
-6.6130009 3.3278832 1.2924666
-6.6259637 3.3071613 1.2823416
-6.6197562 3.3112893 1.2946668
-6.622654 3.297286 1.2849832
-6.6386766 3.2835763 1.2906483
-6.6246171 3.2685583 1.2907164
-6.6371436 3.271543 1.2810032
-6.6533132 3.257926 1.286695
-6.656682 3.2461653 1.2847934
-6.6429338 3.2330794 1.2861634
-6.6630316 3.2322299 1.2833941
-6.6557813 3.2230272 1.2891513
-6.4829588 3.1204376 1.3335351
-6.4933648 3.1239707 1.3279326
-6.4934421 3.1160524 1.3378878
-6.5078411 3.1067517 1.342099
-6.5021596 3.0894699 1.3385754
-6.5061784 3.0805504 1.3307211
-6.5244927 3.0727816 1.340399
-6.5246959 3.0632677 1.3262905
-6.5235167 3.0581491 1.340638
-6.5250936 3.0447614 1.3350945
-6.5409007 3.0329795 1.3404703
-6.5375552 3.0151284 1.3384582
-6.5397997 3.0215249 1.3376126
-6.729259 3.0788224 1.2913135
-6.7174244 3.0848646 1.2820736
-6.7291002 3.0711744 1.2930171
-6.7286167 3.0634432 1.2853009
-6.7384424 3.0597696 1.2971857
-6.7423635 3.0415237 1.2930727
-6.751924 3.0259361 1.2846988
-6.747015 3.018764 1.2936759
-6.7567167 3.0191472 1.2939407
-6.9466043 3.0802388 1.2445025
-6.9392471 3.0742342 1.2457678
-6.9529314 3.0643489 1.2424792
-6.9558425 3.0470591 1.2549099
-6.9477959 3.0345106 1.2490251
-6.9674525 3.0363815 1.2488883
-6.9552107 3.0185633 1.239933
-6.9670677 3.015403 1.2448236
-7.1463408 3.0781183 1.2067373
-7.1576748 3.0783136 1.2037235
-7.1687303 3.0509872 1.1924969
-7.1639657 3.0552938 1.2049714
-7.1779218 3.0501783 1.1972723
-7.1751528 3.0264003 1.2020009
-7.1799388 3.014904 1.2039047
-7.1905956 3.0079727 1.1974089
-7.3612771 3.0722468 1.1575862
-7.3611021 3.0738513 1.1495887
-7.3760223 3.0594187 1.157293
-7.3837705 3.0379262 1.1551957
-7.3745179 3.0296385 1.1557811
-7.3964772 3.0303614 1.1506881
-7.3859482 3.0213606 1.1505002
-7.5837274 3.0723407 1.1113174
-7.5762415 3.0694931 1.1159147
-7.5868368 3.0601785 1.1036193
-7.5839133 3.0442603 1.1108869
-7.5955539 3.0327835 1.1100605
-7.5951772 3.0306382 1.1051087
-7.6070809 3.0049825 1.1089778
-7.7823958 3.0640273 1.0696346
-7.7958813 3.0538433 1.0665835
-7.794445 3.0583825 1.0648626
-7.7931809 3.0499461 1.0714649
-7.8058405 3.0332627 1.0658146
-7.8138876 3.0102363 1.0614506
-7.9961333 3.0840743 1.0265315
-7.989275 3.0605371 1.0159922
-8.0032272 3.0615847 1.0139264
-8.0021152 3.0349212 1.0168294
-8.0171194 3.0384495 1.0181828
-8.0062065 3.0127549 1.0202414
-8.2008257 3.0809216 0.97249085
-8.2147493 3.0661528 0.97244924
-8.202054 3.0629413 0.96663165
-8.2149925 3.0358844 0.96870071
-8.2122793 3.0326869 0.96582335
-8.2192259 3.0206165 0.97058779
-8.4197559 3.0854924 0.92234063
-8.4193678 3.0688155 0.92386478
-8.4160604 3.0613563 0.92011398
-8.4313831 3.0490158 0.92187136
-8.4246311 3.0287426 0.93482685
-8.4403696 3.0188162 0.92448276
-8.6197453 3.0709486 0.8771584
-8.6213999 3.0490131 0.87950224
-8.6209688 3.0540123 0.89013565
-8.6233978 3.0362709 0.88019145
-8.6410465 3.0252497 0.87997603
-8.8257437 3.0827091 0.82960004
-8.8249264 3.0636425 0.82877517
-8.8278427 3.0534863 0.84738189
-8.8289833 3.0342996 0.83749366
-8.8371525 3.0235753 0.82946289
