# .PCD v0.7 - Point Cloud Data file format
VERSION 0.7
FIELDS x y z
SIZE 4 4 4
TYPE F F F
COUNT 1 1 1
WIDTH 1525
HEIGHT 1
VIEWPOINT 0 0 0 1 0 0 0
POINTS 1525
DATA ascii
3.709656 -3.0884933 1.0826645
3.7284312 -3.0773408 1.0642481
3.7179971 -3.0817029 1.0799928
3.7359583 -3.0750759 1.0772383
3.7353663 -3.0632818 1.0781772
3.7413247 -3.0561006 1.0737909
3.7318912 -3.0513394 1.0811976
3.7470522 -3.0444071 1.0691587
3.7414212 -3.0452063 1.0769184
3.7574458 -3.0343287 1.069056
3.7597511 -3.0243797 1.0728199
3.7635071 -3.0199635 1.0825604
3.7688396 -3.010282 1.0827569
3.7699091 -3.0069327 1.0643923
3.7682171 -3.008462 1.0726279
3.7874565 -3.0083115 1.0828447
3.7823024 -3.0018666 1.0726169
3.7845476 -2.984525 1.0641094
3.9401877 -3.112386 0.99509072
3.9382997 -3.0929549 1.0062201
3.9485416 -3.0954607 1.0020688
3.9425399 -3.0784454 0.99709797
3.9462709 -3.0803258 0.99656719
3.9501908 -3.0853572 0.99413806
3.9557383 -3.0762939 1.0049266
3.9695139 -3.072197 0.99060595
3.9734983 -3.0574527 0.99746525
3.9672475 -3.0446544 0.99639523
3.9724813 -3.0458412 0.99750179
3.9831829 -3.0332532 0.99255371
3.9850061 -3.0347528 0.99960792
4.0026703 -3.0265763 0.9981792
3.9953558 -3.0189831 0.98936599
4.007503 -3.0117769 0.99001151
3.9972129 -3.0233219 0.99420428
4.0177035 -3.0053828 0.99697196
4.0238662 -3.0077426 0.98895586
4.01688 -3.0006294 1.008204
4.0288162 -2.9925506 1.0007253
4.1706104 -3.0890317 0.92579424
4.178844 -3.0967333 0.91830587
4.1741242 -3.0910156 0.9334361
4.1879668 -3.0768492 0.93059582
4.1929889 -3.074765 0.9293921
4.1986475 -3.0671921 0.93106771
4.2084913 -3.0633421 0.92510092
4.2010942 -3.0575354 0.9311868
4.2056732 -3.042913 0.91879255
4.2094917 -3.0405447 0.92887801
4.2258239 -3.0493243 0.92787856
4.2217107 -3.0341995 0.93335873
4.2301011 -3.028116 0.91873205
4.2336135 -3.0125029 0.932441
4.2342772 -3.0161734 0.92239738
4.2337289 -3.018482 0.93408388
4.234848 -2.9952354 0.92377162
4.2499924 -3.0036666 0.93341118
4.251214 -2.9917917 0.93181247
4.4116845 -3.0873783 0.85222095
4.4107304 -3.0836613 0.85247165
4.4087682 -3.088305 0.84196854
4.4122772 -3.0687981 0.85166413
4.4211512 -3.0700099 0.85108232
4.4237256 -3.0547814 0.84093368
4.4362473 -3.0643158 0.84257436
4.4404473 -3.0569377 0.84155315
4.4343266 -3.038614 0.84618676
4.4378366 -3.0432587 0.85677552
4.4597392 -3.0232658 0.85286808
4.4565358 -3.0285504 0.84653425
4.4535747 -3.0201113 0.84940714
4.4601016 -3.0124691 0.84563154
4.4763155 -3.0002499 0.85448235
4.4719391 -3.0097451 0.85239428
4.4774051 -2.990998 0.85459822
4.6386514 -3.0957093 0.78350645
4.6448636 -3.0872023 0.77904731
4.6357007 -3.0794389 0.78375214
4.6571174 -3.0740182 0.78225237
4.6546173 -3.0560377 0.76926482
4.6657743 -3.0652463 0.77850693
4.6597953 -3.0521472 0.7691763
4.670032 -3.047045 0.76584387
4.6691098 -3.0305214 0.76678932
4.666091 -3.0327251 0.780249
4.685267 -3.0320153 0.76614559
4.6878362 -3.0294132 0.77408957
4.6859369 -3.0202856 0.78333104
4.6887336 -3.0140433 0.77152127
4.6900215 -2.9945941 0.77121431
4.6983128 -2.9882717 0.77521491
4.8522563 -3.0921209 0.69133049
4.86058 -3.0898633 0.70054668
4.8655615 -3.0727844 0.6997847
4.8714795 -3.0629718 0.71031147
4.8708472 -3.0582223 0.69503433
4.8761024 -3.0551326 0.69583958
4.8892918 -3.0381625 0.69924706
4.8917131 -3.0426068 0.70236546
4.9023156 -3.0299656 0.69839579
4.8926015 -3.0332263 0.69420552
4.906878 -3.0231466 0.69953477
4.9117551 -3.0090575 0.70034832
4.905839 -3.014291 0.69146156
4.9191513 -2.9979024 0.70560187
4.9229803 -2.9864314 0.6977005
5.0900006 -3.0906017 0.6315971
5.079474 -3.0690076 0.63015485
5.0923448 -3.0692492 0.61745894
5.0883241 -3.0631363 0.63058913
5.1003237 -3.0509756 0.63363755
5.1081228 -3.0487669 0.61993855
5.1012416 -3.0458999 0.63349575
5.1151643 -3.0331588 0.63498038
5.1201897 -3.0313056 0.62600911
5.1193457 -3.0098133 0.62165833
5.1305904 -3.0039592 0.6229009
5.1302161 -3.012938 0.61865377
5.1283894 -2.9933424 0.62707537
5.2940621 -3.0757816 0.56002003
5.2927804 -3.076546 0.55251789
5.314537 -3.0737772 0.56011701
5.3025837 -3.0621462 0.54346943
5.3041778 -3.0608392 0.55244339
5.3272462 -3.038743 0.55614525
5.3213329 -3.0417175 0.55420798
5.3310585 -3.0376639 0.55098754
5.3220162 -3.0181916 0.5516451
5.3287163 -3.0247426 0.54474926
5.3438277 -3.0100129 0.54198712
5.3463678 -3.0008724 0.55107605
5.3413954 -2.9942727 0.55554312
5.5058913 -3.0747173 0.46975055
5.5119762 -3.0668139 0.47235665
5.5270243 -3.0601082 0.46965039
5.5257635 -3.0635715 0.4765552
5.5225544 -3.0415547 0.48009315
5.5361142 -3.032815 0.47567722
5.5303211 -3.0216 0.47727808
5.537621 -3.0194879 0.4861705
5.5421481 -3.0190394 0.4767594
5.5557532 -3.0077574 0.48649821
5.5538149 -2.9980423 0.47914121
5.5605674 -2.9865417 0.47200003
5.7332935 -3.0723617 0.40937665
5.740047 -3.0554128 0.41008449
5.7336941 -3.0659394 0.4051035
5.7508678 -3.0471628 0.40115044
5.7436147 -3.0384247 0.40069488
5.7579513 -3.0266216 0.39462805
5.7611685 -3.0345154 0.40128011
5.7549639 -3.0130169 0.41147897
5.7584872 -3.0176597 0.40365177
5.774642 -2.9997413 0.39957798
5.7636442 -2.9966564 0.41001108
5.9492183 -3.0766709 0.33491212
5.9508958 -3.0615299 0.33578765
5.9475813 -3.0534854 0.32744104
5.9603019 -3.0369534 0.31982741
5.9525557 -3.030333 0.3360061
5.9587307 -3.0247319 0.33627433
5.9715462 -3.029561 0.33001822
5.9745488 -3.0150819 0.33109102
5.9697132 -3.008651 0.32204753
5.9807916 -2.9974101 0.32804877
6.1481824 -3.0727406 0.25705522
6.1491818 -3.0671978 0.2474149
6.1510453 -3.0492473 0.25753102
6.1645503 -3.0428417 0.25588509
6.1704292 -3.0284364 0.2525596
6.1724749 -3.032099 0.2465293
6.174777 -3.0271769 0.24735798
6.1708112 -3.0034711 0.25434813
6.1879058 -3.0088093 0.25944531
6.1959448 -2.9872651 0.24745387
6.3570099 -3.0693333 0.18055478
6.3546395 -3.0535295 0.1851196
6.362617 -3.0401392 0.17905618
6.3606977 -3.037509 0.17081349
6.3771205 -3.0332527 0.18838498
6.3702049 -3.0111918 0.17369726
6.3772469 -3.0110576 0.17532901
6.3851051 -2.9991064 0.17205778
6.399941 -2.9942658 0.17483388
6.5759287 -3.0456324 0.10197318
6.5716987 -3.0376897 0.11223618
6.5857835 -3.0280404 0.10337995
6.5916128 -3.0262129 0.10989672
6.5950007 -3.0155332 0.10958541
6.5836883 -3.0020308 0.10051318
6.5939946 -2.9848778 0.11449106
3.6209235 -4.9664698 0.59266806
3.6158674 -4.9544382 0.58844042
3.6253536 -4.9613008 0.59807545
3.6424742 -4.9523997 0.59267557
3.6311285 -4.9356904 0.60504079
3.6551843 -4.9472094 0.59156972
3.6622896 -4.9420319 0.60137588
3.6535044 -4.9222984 0.59700698
3.6588242 -4.9319468 0.60499382
3.6658654 -4.9295692 0.60427332
3.6768222 -4.9064984 0.59311086
3.6898429 -4.9154172 0.58894479
3.6986289 -4.9017763 0.59287113
3.6970427 -4.897934 0.60064358
3.7100494 -4.8923497 0.60006082
3.715414 -4.8896155 0.60288489
3.6147788 -4.7383838 0.67893845
3.6162572 -4.7312756 0.67649627
3.6333597 -4.7257323 0.67930287
3.6384418 -4.7200251 0.6793744
3.6427965 -4.7102308 0.67739469
3.6359818 -4.7142787 0.66136432
3.6449938 -4.6963968 0.67383337
3.6579249 -4.7069497 0.66499358
3.6586215 -4.6913371 0.67657733
3.6787283 -4.6971941 0.66572529
3.6816518 -4.6779919 0.67263508
3.6874862 -4.6839237 0.6616208
3.6908712 -4.679359 0.67110872
3.6970556 -4.676311 0.66125357
3.7033043 -4.6554999 0.6761328
3.707566 -4.6680884 0.66189504
3.7157903 -4.6582422 0.66046125
3.7164764 -4.6420355 0.66338742
3.612103 -4.5062795 0.74996537
3.6153154 -4.5025516 0.75244486
3.6276691 -4.4824495 0.74901199
3.6269252 -4.4830551 0.73452312
3.6351602 -4.4868112 0.73946577
3.6528759 -4.470911 0.74231434
3.6407294 -4.4752827 0.74082261
3.6634552 -4.461906 0.74158198
3.671936 -4.4668117 0.74701786
3.6589758 -4.4575305 0.74348181
3.6689348 -4.4429026 0.74509805
3.6723287 -4.4513435 0.74540788
3.678195 -4.4337058 0.74077672
3.7006214 -4.42308 0.75048774
3.7085516 -4.4304795 0.75138211
3.7014172 -4.4264169 0.74310738
3.7171242 -4.4207473 0.74538273
3.7113323 -4.4185915 0.73594755
3.7262926 -4.4141874 0.73651105
3.6066525 -4.2666864 0.81438708
3.6232996 -4.257895 0.80864251
3.6215558 -4.2519207 0.80933511
3.6201148 -4.246284 0.82253492
3.6340356 -4.2444181 0.82122183
3.6376603 -4.2408118 0.80736136
3.6421723 -4.2305226 0.81240702
3.6584027 -4.2307019 0.81795716
3.6569011 -4.2228413 0.82048929
3.6659572 -4.2061815 0.82224321
3.6755698 -4.2152863 0.82402492
3.6699154 -4.1936922 0.80956662
3.6785095 -4.1997833 0.8160426
3.6877887 -4.1932487 0.82310671
3.6902609 -4.178721 0.80697995
3.6914127 -4.1864877 0.80939454
3.6986969 -4.1756554 0.81702513
3.7110193 -4.1744986 0.81939507
3.7088847 -4.1607418 0.82453597
3.7292752 -4.1638203 0.82123876
3.7314122 -4.1631708 0.82373029
3.6111755 -4.0153508 0.89583713
3.6204278 -4.0036821 0.88359469
3.6161492 -4.0085979 0.89275575
3.6189277 -3.9968972 0.89130586
3.6255724 -3.9898942 0.89694178
3.6346245 -3.9814484 0.88825464
3.6513002 -3.9865146 0.89556086
3.6503386 -3.9795427 0.89145201
3.654511 -3.9780006 0.87908471
3.6553791 -3.9601345 0.88217902
3.6587315 -3.9641621 0.8891952
3.6810479 -3.9645424 0.88284904
3.6711147 -3.9547992 0.88654876
3.6903355 -3.9478681 0.89690256
3.6880991 -3.9398763 0.8892054
3.6914916 -3.9284091 0.88489187
3.7061896 -3.9258356 0.89044231
3.7081869 -3.9297864 0.89788699
3.7060678 -3.9151204 0.88178843
3.7115743 -3.9251347 0.89846301
3.7201681 -3.9173379 0.88600898
3.7357707 -3.9127588 0.88806605
3.7250199 -3.90364 0.89475012
3.7379615 -3.9008203 0.88324106
3.612524 -3.7512848 0.9677279
3.6279202 -3.7585073 0.96540672
3.6189957 -3.7365303 0.96051174
3.6356146 -3.7380478 0.96651107
3.6396711 -3.7271686 0.96201402
3.6476221 -3.7362599 0.96233249
3.6522405 -3.7222273 0.96526992
3.644398 -3.718055 0.96760082
3.6586053 -3.710089 0.95385748
3.6594894 -3.7146294 0.95773298
3.6688576 -3.7013226 0.97147065
3.6695697 -3.6978657 0.9529497
3.6679535 -3.6885722 0.97136223
3.6814349 -3.687892 0.96320659
3.6809087 -3.68838 0.96087211
3.6958783 -3.6861348 0.96438098
3.691159 -3.6644821 0.95684958
3.7093701 -3.6758759 0.96841067
3.7099049 -3.6582589 0.96285063
3.7166891 -3.6649473 0.96765578
3.7273417 -3.6474497 0.960666
3.7317245 -3.6544158 0.97202414
3.7375793 -3.6481662 0.96755952
3.7418394 -3.6335962 0.95865184
3.7379365 -3.624706 0.96412557
3.6183522 -3.4961026 1.0398424
3.6154277 -3.4874349 1.038931
3.6249652 -3.4856887 1.0414737
3.6260564 -3.4885333 1.0364741
3.6215808 -3.469712 1.0396196
3.6419032 -3.4653492 1.0350888
3.6352286 -3.4617074 1.0384113
3.6399052 -3.4573073 1.0427954
3.6401103 -3.4537365 1.0365546
3.6514003 -3.4591508 1.0340016
3.6681571 -3.4558847 1.044952
3.6674876 -3.440429 1.0395401
3.6659 -3.4403155 1.0308373
3.6668477 -3.4239829 1.0342463
3.6827886 -3.4169912 1.0314261
3.6818681 -3.4145355 1.0279113
3.6964095 -3.4236054 1.0429744
3.6942661 -3.412843 1.0373665
3.6964998 -3.4067125 1.0302519
3.6924856 -3.3941219 1.0326384
3.7059109 -3.3895974 1.0332001
3.7102795 -3.3905582 1.0441195
3.709229 -3.3779154 1.0300479
3.7194686 -3.3891263 1.0271975
3.73311 -3.3691907 1.0262207
3.7239237 -3.3749628 1.0425749
3.7312155 -3.3709738 1.0447277
3.7335629 -3.3539009 1.0325049
3.7502956 -3.3593602 1.0412678
3.6014175 -3.2292056 1.1106054
3.6132338 -3.2149572 1.1061738
3.6256049 -3.2210848 1.1156166
3.6288881 -3.2130001 1.1125309
3.6380928 -3.1994059 1.1130565
3.62444 -3.1968932 1.1083331
3.6298032 -3.1882825 1.1126462
3.6515136 -3.1970882 1.1157508
3.6553698 -3.1882474 1.1107239
3.646996 -3.1873679 1.1150267
3.647378 -3.1815646 1.0998799
3.6639547 -3.1684506 1.1139507
3.6560926 -3.1674645 1.1168572
3.6776664 -3.1676869 1.1028053
3.6761475 -3.1431892 1.1172982
3.6751468 -3.156822 1.1092482
3.6894157 -3.1495621 1.1047471
3.6879907 -3.1450551 1.106372
3.6896627 -3.1411486 1.1117634
3.6863008 -3.1300652 1.1129535
3.7072346 -3.1230421 1.1148602
3.7130141 -3.1238773 1.1047877
3.7128575 -3.1170025 1.1106023
3.7156003 -3.1129751 1.111089
3.7242837 -3.0948803 1.1109619
3.727453 -3.1021929 1.1120842
3.7225649 -3.0996363 1.1153425
3.7331684 -3.0828972 1.1179776
3.7253897 -3.0888712 1.0993831
3.742995 -3.0825851 1.1067296
3.7417831 -3.0797365 1.1159509
3.742471 -3.0554717 1.0991825
3.7530789 -3.0557201 1.104128
3.7494941 -3.0575752 1.1079344
3.7663887 -3.0550892 1.1046627
3.7631488 -3.0537686 1.1088995
3.7610238 -3.0416639 1.110508
3.78215 -3.0432761 1.1036645
3.7859039 -3.0369802 1.1056502
3.7910559 -3.0173848 1.1087188
3.7835472 -3.0233002 1.1094271
3.7852523 -3.0128191 1.1091852
3.7901816 -3.0160143 1.1034737
3.8000491 -3.0070713 1.11068
3.7937155 -3.0055032 1.1151395
3.8041029 -2.9914374 1.1156805
3.964906 -3.0989933 1.0299456
3.9612846 -3.0942247 1.0304834
3.9708121 -3.0899422 1.0320603
3.9623175 -3.0847404 1.0279697
3.9768839 -3.0712729 1.0326953
3.9721508 -3.0803182 1.0426275
3.9871678 -3.0686452 1.0440838
3.9964659 -3.0713079 1.029197
3.9929624 -3.0645001 1.0305859
3.9939108 -3.0514936 1.0407426
3.9953921 -3.0480516 1.0332814
4.0042667 -3.0325656 1.0450751
4.0136714 -3.0318789 1.0356311
4.0046449 -3.0240061 1.0258628
4.0115204 -3.0258784 1.04403
4.0231137 -3.0167878 1.0276135
4.024631 -3.0169756 1.0373261
4.027597 -3.0121541 1.0388259
4.0356684 -2.9951165 1.0415773
4.0451207 -3.0014033 1.0317732
4.0447221 -2.990474 1.0398428
4.1863561 -3.0858338 0.96468884
4.1904287 -3.0849233 0.9577772
4.2050495 -3.0772803 0.95315242
4.2098932 -3.0869956 0.9610635
4.2128963 -3.0693438 0.95246762
4.2194748 -3.0743926 0.95808005
4.2157578 -3.0606859 0.96290463
4.233532 -3.0631101 0.95915133
4.2340498 -3.0402765 0.96348983
4.2247548 -3.0420287 0.95313066
4.2435217 -3.0358274 0.95268524
4.2402616 -3.0298793 0.96730286
4.250082 -3.0336285 0.96370971
4.2552695 -3.0168431 0.96454138
4.2483592 -3.0213559 0.9571591
4.2528453 -3.0035832 0.95885611
4.2629352 -2.9938128 0.96838224
4.2778416 -2.9905448 0.96960032
4.4212279 -3.0981424 0.89462632
4.4368525 -3.0919676 0.8851403
4.4421091 -3.0912778 0.89595383
4.4469113 -3.0780916 0.88680786
4.4463229 -3.0793207 0.8879993
4.4421325 -3.0595896 0.88005674
4.4587655 -3.0509872 0.88167608
4.4480071 -3.0621097 0.89513671
4.4589372 -3.0473444 0.89243066
4.4593849 -3.041867 0.88704973
4.4610419 -3.0294306 0.89523721
4.4808517 -3.0256968 0.88343209
4.4711671 -3.0210247 0.88614315
4.4722872 -3.0158598 0.89586091
4.4842525 -3.0155845 0.89816427
4.4974008 -3.003792 0.89400727
4.5025978 -2.9996505 0.89225513
4.4894052 -2.9905424 0.89317703
4.6645503 -3.0780258 0.80951905
4.6622386 -3.0858481 0.81825888
4.6745372 -3.0762622 0.81321377
4.6750145 -3.0711067 0.82567525
4.6836772 -3.0598671 0.81657565
4.6750417 -3.0517306 0.80640179
4.676115 -3.0558429 0.81025833
4.6794829 -3.0510123 0.81965649
4.6986847 -3.0451818 0.80693942
4.6961246 -3.0367315 0.81706786
4.694478 -3.0322013 0.81669956
4.7022996 -3.014297 0.82201844
4.6988521 -3.0083997 0.81042653
4.71035 -3.0063219 0.81748754
4.7143006 -2.9998686 0.8092792
4.8861561 -3.0863178 0.7495569
4.890954 -3.0757546 0.75233763
4.8795991 -3.0660837 0.73342222
4.8976331 -3.0614622 0.73380488
4.9029403 -3.0636418 0.73609924
4.898366 -3.0517013 0.73637933
4.8934145 -3.0561624 0.74801338
4.9137721 -3.0482855 0.73898852
4.9025283 -3.0331156 0.7454794
4.9183359 -3.0381913 0.75185555
4.9259257 -3.0126123 0.74519753
4.926919 -3.0065522 0.74230373
4.9306841 -3.0161548 0.74227571
4.9355235 -2.9920218 0.7400583
4.9407363 -2.9868703 0.74884403
5.1073074 -3.0872509 0.66961163
5.0952106 -3.0799518 0.67222482
5.1147375 -3.0765548 0.6758799
5.1052294 -3.0686522 0.66786391
5.1222029 -3.0491827 0.66792524
5.1255422 -3.0463548 0.66671282
5.1222134 -3.0467551 0.66470164
5.1359811 -3.0276029 0.66622323
5.1297107 -3.0278137 0.66500729
5.1412129 -3.0270045 0.66206646
5.1414905 -3.0028811 0.66854185
5.1556621 -3.0151637 0.67520624
5.1524363 -2.992218 0.67815119
5.1528559 -2.9830687 0.66187656
5.3261819 -3.0747766 0.60480738
5.3187571 -3.073638 0.59656745
5.3301096 -3.060087 0.60078698
5.3394403 -3.0570171 0.59701258
5.3302827 -3.0444567 0.60587543
5.3398981 -3.0446229 0.58838946
5.3465629 -3.0287302 0.58786279
5.3596926 -3.0228751 0.58788383
5.3594761 -3.0244446 0.60367489
5.3621941 -3.0097835 0.60143358
5.3686271 -3.0069079 0.59384817
5.3711162 -2.9957566 0.59998333
5.5278325 -3.0883834 0.51910985
5.5464067 -3.0648894 0.52701181
5.5411963 -3.0548215 0.52003831
5.5448375 -3.0593956 0.52545661
5.5509825 -3.0415523 0.51931971
5.5565896 -3.0348163 0.53158402
5.5622067 -3.0325236 0.51481915
5.5636048 -3.031729 0.5252496
5.5627503 -3.008707 0.53108412
5.5742993 -3.0073915 0.52059269
5.5719728 -2.9960217 0.52083284
5.5818982 -2.9903789 0.51685095
5.7436905 -3.0823438 0.44207922
5.7546453 -3.0666111 0.44814122
5.7510071 -3.0490024 0.44431248
5.7612205 -3.0500443 0.45947957
5.7636876 -3.0497158 0.44919348
5.7693782 -3.0322258 0.45195016
5.7654877 -3.0198162 0.44997093
5.7874207 -3.0200717 0.44154373
5.7788515 -3.0068574 0.45671648
5.7905107 -3.0079112 0.44975674
5.7981768 -2.9953308 0.45115766
5.9695063 -3.0616684 0.36713946
5.9616952 -3.070118 0.38584363
5.9700437 -3.0526257 0.37547776
5.9735479 -3.036927 0.37740624
5.9867544 -3.0397868 0.36878443
5.9827056 -3.0307748 0.38452646
5.9966664 -3.0240564 0.37196106
5.9821882 -3.0101233 0.38455206
6.002871 -3.0087349 0.36802563
5.9965825 -3.0038736 0.37600991
6.1781721 -3.0804372 0.30202374
6.1824946 -3.0656068 0.30441156
6.1855097 -3.0467062 0.29597363
6.1781464 -3.0485678 0.29491028
6.1926999 -3.0414782 0.30265698
6.1986194 -3.02268 0.31107962
6.2002687 -3.014153 0.29787862
6.2093406 -3.0043244 0.31026298
6.2109914 -2.9980214 0.29568183
6.216104 -3.0022035 0.29760244
6.3768239 -3.0563993 0.22472027
6.3891592 -3.0493987 0.23120019
6.3838692 -3.0436606 0.22797097
6.3901296 -3.0295508 0.23426427
6.3953137 -3.0251412 0.23902562
6.4082322 -3.0190532 0.23395728
6.4095607 -3.0155451 0.22878225
6.417676 -3.0071821 0.22479634
6.4181628 -3.0013733 0.2384681
6.5926952 -3.0734618 0.1661706
6.6006069 -3.0575945 0.16508511
6.5887589 -3.053674 0.16210315
6.6033783 -3.0393121 0.15595622
6.5947556 -3.0229473 0.15500994
6.6124129 -3.0256424 0.14955838
6.614819 -2.9996512 0.16127384
6.612144 -2.9965508 0.16757062
6.6242814 -2.9895422 0.15329762
3.6187661 -4.9873667 0.64177591
3.6222739 -4.987061 0.64102346
3.6341071 -4.9816751 0.63650542
3.6346931 -4.9653077 0.64463776
3.6443462 -4.9605584 0.65073961
3.652066 -4.9644251 0.64692611
3.6645863 -4.9621763 0.64602977
3.66347 -4.9559178 0.64808041
3.6807814 -4.934813 0.64347124
3.6810803 -4.9297614 0.64157033
3.6939416 -4.9321222 0.64870393
3.6911385 -4.9379354 0.6511035
3.7075758 -4.918869 0.63383907
3.6994877 -4.9261627 0.64788234
3.7195249 -4.9107423 0.64160597
3.7256565 -4.9145341 0.64638406
3.6153336 -4.7438607 0.72009599
3.6165333 -4.7502489 0.72319472
3.6197767 -4.7462368 0.7222904
3.6384037 -4.7288299 0.72132015
3.6351228 -4.7254581 0.71286184
3.6389685 -4.7317791 0.71345347
3.6452065 -4.7285452 0.70796514
3.6541731 -4.7202749 0.71002716
3.6771758 -4.7188354 0.7223438
3.6738951 -4.7181249 0.70569342
3.6753852 -4.7019572 0.70566165
3.6788068 -4.6912284 0.71420479
3.6853197 -4.6838875 0.72171372
3.6909213 -4.6845446 0.72157425
3.7155457 -4.6751003 0.7197417
3.7117043 -4.6684203 0.70651406
3.7284472 -4.682106 0.71143687
3.6035593 -4.527267 0.79131097
3.6166577 -4.5223308 0.77574944
3.6220655 -4.5072584 0.77578735
3.630816 -4.4972706 0.78687286
3.6395278 -4.5104294 0.78355795
3.6367755 -4.5036359 0.78244495
3.641525 -4.4977951 0.77552724
3.6461282 -4.493876 0.79289716
3.6688914 -4.4803381 0.79178083
3.6584201 -4.4765892 0.79180378
3.6728644 -4.4681177 0.77532715
3.6754024 -4.4728613 0.77875537
3.6823714 -4.4585042 0.79221636
3.6893713 -4.4616961 0.79061633
3.7074497 -4.4424691 0.79079992
3.7022059 -4.4522796 0.79271048
3.7158418 -4.4436193 0.77538711
3.7225528 -4.4366274 0.77689862
3.7266264 -4.433136 0.78685558
3.7295766 -4.426374 0.77546006
3.6123717 -4.2685623 0.85919935
3.6186543 -4.2774787 0.86130244
3.6283581 -4.2656622 0.85263526
3.6315157 -4.2530746 0.85563987
3.6330664 -4.2486305 0.85272658
3.6547937 -4.2556448 0.85484892
3.6584244 -4.2552309 0.86046928
3.6647243 -4.2343059 0.84791052
3.672529 -4.2355003 0.85366315
3.6702833 -4.2399306 0.86098975
3.6766353 -4.2275734 0.85807598
3.6749456 -4.2149053 0.86120796
3.6953521 -4.2184982 0.85111052
3.6870842 -4.2048917 0.84854615
3.7018137 -4.1956849 0.86536306
3.7136228 -4.1906948 0.85009444
3.7075469 -4.1880112 0.85016054
3.7070844 -4.1849566 0.86606383
3.7140558 -4.1800199 0.85567677
3.7267725 -4.1832442 0.85575551
3.7268085 -4.1660252 0.86307907
3.6196165 -4.0371261 0.92972332
3.6196618 -4.0331588 0.93587202
3.6296029 -4.0233464 0.93049031
3.6369724 -4.0046844 0.92916971
3.6411517 -4.0000863 0.9276855
3.6500554 -4.0074296 0.9237234
3.6390183 -4.0010939 0.93764573
3.6638772 -3.9936378 0.93132645
3.6583421 -3.9793088 0.93659633
3.6728785 -3.9907806 0.9338907
3.6747313 -3.9709666 0.93561083
3.6714478 -3.9767349 0.93626106
3.6743059 -3.9581833 0.92167848
3.6917751 -3.9578757 0.92070484
3.6879165 -3.9589956 0.91926867
3.7025666 -3.9568114 0.92542076
3.7132475 -3.9512568 0.93283224
3.7178433 -3.946429 0.92261565
3.7161129 -3.9327147 0.92163587
3.7196448 -3.9300354 0.9240846
3.720464 -3.9310672 0.92123967
3.7229962 -3.9209399 0.92751092
3.7461712 -3.9135041 0.92721081
3.6060417 -3.7789345 0.9938606
3.6134572 -3.7691464 1.0024786
3.6194298 -3.7702367 1.0081345
3.6315472 -3.7661681 0.99419063
3.6310692 -3.7630177 0.99991292
3.6403675 -3.7471051 0.99417996
3.6486788 -3.7531602 1.0059491
3.6594317 -3.7438891 0.99150145
3.6473329 -3.737571 1.0019886
3.6614981 -3.7335563 0.99471128
3.6753559 -3.7264273 1.0015881
3.664083 -3.7171578 0.99321735
3.681421 -3.7071836 0.99871314
3.6844079 -3.7103531 1.0032272
3.6934435 -3.6992545 1.0058339
3.6881945 -3.7041044 0.99928808
3.6972053 -3.685883 1.0016146
3.697978 -3.6821411 1.0081327
3.7042959 -3.6757238 0.9958815
3.7210937 -3.6803601 1.0025507
3.7106071 -3.6763496 0.99124724
3.7269897 -3.6688166 1.0041045
3.7349946 -3.6691425 1.0018196
3.728488 -3.6516719 0.99124175
3.7464883 -3.6503482 1.0066319
3.6137331 -3.5088162 1.0638072
3.6075974 -3.5142617 1.0622857
3.623781 -3.504096 1.0793535
3.6264758 -3.4927669 1.0776788
3.6369123 -3.4897873 1.0662011
3.634011 -3.4824343 1.0735598
3.6397994 -3.4838316 1.0632703
3.6384377 -3.4823494 1.0674666
3.654784 -3.4724922 1.063938
3.6605456 -3.4697461 1.0765303
3.66169 -3.471504 1.0748115
3.6682293 -3.4643121 1.0626166
3.6732399 -3.4658437 1.07555
3.6753111 -3.4495807 1.0747679
3.6757004 -3.4477744 1.0719144
3.6846051 -3.4337556 1.0713557
3.6808612 -3.4388278 1.0643349
3.6868207 -3.4301336 1.0737245
3.6969695 -3.4299579 1.0678928
3.7035823 -3.4288788 1.079722
3.70278 -3.4115059 1.0647011
3.720252 -3.4124377 1.0717733
3.7255218 -3.4131951 1.0722084
3.7237177 -3.3967111 1.0637939
3.7211244 -3.3846598 1.0720667
3.7356703 -3.388519 1.0692322
3.7296503 -3.3809304 1.0761932
3.7366023 -3.3721831 1.066709
3.7529364 -3.3780808 1.0722544
3.604898 -3.2370241 1.1454996
3.6070406 -3.2468705 1.1391847
3.6141553 -3.2240176 1.1467721
3.628335 -3.2206597 1.1484293
3.6229429 -3.2238641 1.1413912
3.6291292 -3.2144125 1.1412181
3.6435812 -3.2151582 1.151993
3.6351917 -3.2066605 1.1451575
3.6537559 -3.1959398 1.1418633
3.6428289 -3.1936069 1.1474588
3.6574402 -3.185493 1.1437638
3.6535163 -3.179769 1.1451901
3.6632705 -3.1914563 1.144431
3.6606047 -3.1734822 1.1419848
3.6795893 -3.1654119 1.1512831
3.6715283 -3.1756597 1.1449758
3.6832871 -3.1559529 1.1528587
3.6858139 -3.1491263 1.1441694
3.7014978 -3.1482184 1.1411245
3.6938803 -3.1427135 1.1353301
3.6918511 -3.1470668 1.1525607
3.7061198 -3.1398058 1.15042
3.7018077 -3.1272457 1.1514908
3.7167292 -3.121799 1.1454283
3.709197 -3.1218085 1.1423223
3.7309563 -3.1143126 1.1438485
3.7264009 -3.1194842 1.1399554
3.7297211 -3.1065483 1.1377567
3.7443447 -3.1023407 1.1513274
3.7359164 -3.0901554 1.1452579
3.7416861 -3.0843966 1.1496848
3.7446792 -3.0887599 1.1362156
3.7455244 -3.0818188 1.1501433
3.7674332 -3.0643325 1.1443485
3.763272 -3.0587468 1.1533688
3.7759974 -3.055764 1.1447036
3.770242 -3.0616908 1.1456795
3.780586 -3.0486448 1.1343975
3.7887239 -3.045315 1.1421236
3.7904251 -3.0347464 1.1368294
3.7860496 -3.0427337 1.152082
3.7860937 -3.0320461 1.1377534
3.792661 -3.0248241 1.1451421
3.7931488 -3.0199971 1.1447873
3.8078344 -3.0236275 1.1447821
3.8115327 -3.0188217 1.142518
3.8065586 -3.0040529 1.1490792
3.8225529 -3.0032144 1.1434325
3.8272579 -2.9985054 1.1358557
3.9664447 -3.1117196 1.0818082
3.9737277 -3.0979917 1.0662751
3.9762554 -3.0884647 1.0761521
3.9844468 -3.0966077 1.0679673
3.9800189 -3.0884933 1.0793201
3.9952288 -3.069916 1.0817468
3.9904256 -3.0718555 1.0636781
4.0033507 -3.0629771 1.0750711
4.0028286 -3.0623047 1.0819893
4.0166526 -3.0611207 1.0682976
4.022892 -3.0516989 1.0714319
4.0268493 -3.0393336 1.0627582
4.0152659 -3.0287719 1.0780697
4.0335512 -3.0343425 1.0796903
4.0236444 -3.0286572 1.0638716
4.0450821 -3.0120702 1.0810703
4.0489392 -3.0245869 1.0707635
4.0547194 -3.0084713 1.0637633
4.0518847 -2.9971623 1.0718573
4.0559602 -2.9963067 1.0755514
4.0663362 -2.9934814 1.0630774
4.2099214 -3.1019728 1.0055999
4.2148972 -3.0950794 1.0048554
4.2151761 -3.094146 0.99293244
4.2170677 -3.0873575 1.0010813
4.2231321 -3.0833611 1.0001975
4.226387 -3.0597305 1.0011716
4.239327 -3.054534 0.99262983
4.2452583 -3.0563786 1.0097597
4.2392759 -3.0583465 1.002102
4.256979 -3.0541289 0.99162066
4.2621999 -3.040592 0.99800563
4.2617083 -3.0264089 1.0054138
4.2604642 -3.0362687 1.0078789
4.2672882 -3.0285506 0.99124998
4.2822533 -3.019073 0.99272883
4.2763262 -3.0106378 0.99194384
4.2713652 -3.0135515 0.99045491
4.2778535 -2.9948144 1.0012149
4.2814636 -2.9863322 1.0040945
4.4503822 -3.091404 0.93349987
4.4559855 -3.0883043 0.92229128
4.4479656 -3.0899436 0.91933519
4.4673448 -3.0770664 0.92058301
4.4691806 -3.0615957 0.92360693
4.4743791 -3.0553825 0.93016011
4.4810476 -3.0593107 0.91919458
4.4669223 -3.0524061 0.91935545
4.4712992 -3.0432107 0.93228781
4.4864273 -3.0345948 0.92773056
4.484427 -3.0342157 0.9191168
4.4835958 -3.0325549 0.92740583
4.4915481 -3.0232275 0.92785245
4.4965348 -3.0188253 0.93496722
4.5027614 -2.9968832 0.93133765
4.5120025 -2.9940302 0.92770016
4.5077882 -2.9887874 0.93390733
4.6680703 -3.0852721 0.84901255
4.6731777 -3.0780914 0.8588475
4.6912088 -3.080035 0.85105354
4.6846733 -3.0682228 0.85738772
4.6895146 -3.0614765 0.85912591
4.7026362 -3.0510042 0.86392868
4.6961956 -3.0597625 0.84686506
4.6968603 -3.0465031 0.86546892
4.7138863 -3.0282025 0.86064529
4.7072654 -3.0383072 0.85477817
4.7268429 -3.0277829 0.84946638
4.7132893 -3.016469 0.86481994
4.7295618 -3.0114326 0.85170889
4.7380314 -2.9972315 0.86388266
4.7328258 -3.0024793 0.85626972
4.7293491 -2.9988866 0.85258967
4.9084058 -3.0858407 0.78183293
4.9127889 -3.0763395 0.78955775
4.9157667 -3.0740662 0.78902608
4.9139109 -3.0626581 0.79182667
4.9261785 -3.0559082 0.77858239
4.913125 -3.0469377 0.79007733
4.9354153 -3.045912 0.78002775
4.9245849 -3.0406251 0.7775926
4.9259191 -3.0247424 0.78331727
4.9396305 -3.0165262 0.78603595
4.9496522 -3.0111732 0.77502978
4.9406805 -3.0057476 0.78669435
4.9594245 -3.0016453 0.79379588
4.9576273 -3.0036898 0.78546298
5.1182818 -3.0944798 0.70525813
5.1261563 -3.0856414 0.71894252
5.1255159 -3.0787749 0.70679218
5.1348162 -3.0669918 0.71306252
5.1416707 -3.0581183 0.70834321
5.1342402 -3.0397673 0.70496196
5.1495185 -3.0356185 0.72004932
5.1537805 -3.0446556 0.71367234
5.1496973 -3.0191538 0.70450175
5.1527052 -3.0196447 0.70638478
5.1673703 -3.0233276 0.70730144
5.173594 -3.0034471 0.70991999
5.173492 -3.008508 0.71226227
5.1812296 -2.9885602 0.71923912
5.3367486 -3.0796304 0.63616157
5.3461475 -3.0685847 0.63604808
5.3521547 -3.0665219 0.63291675
5.3532391 -3.0644479 0.63357586
5.3479362 -3.0506983 0.63255847
5.3534517 -3.0381715 0.64386582
5.3608403 -3.0352008 0.64429998
5.3691349 -3.0302172 0.63741857
5.3800378 -3.0095365 0.63827425
5.3732724 -3.0053089 0.63186997
5.3734736 -3.0112643 0.64077365
5.38236 -2.9921219 0.63327783
5.5541887 -3.0821359 0.56862038
5.559936 -3.0642455 0.57035315
5.5663319 -3.055928 0.5783723
5.5716991 -3.066354 0.57144904
5.5683627 -3.0536406 0.56002164
5.5854502 -3.0368712 0.5660969
5.575645 -3.0334272 0.56536597
5.5866847 -3.0209661 0.56136972
5.5913095 -3.0125115 0.56391943
5.5848269 -3.0193672 0.57810688
5.5908375 -3.001647 0.56564271
5.6039534 -3.0024822 0.56332499
5.7633572 -3.0693412 0.48980126
5.766326 -3.0667562 0.48986882
5.7823606 -3.0517774 0.49488771
5.7869558 -3.0439706 0.48890808
5.7776155 -3.0502169 0.49859861
5.7875333 -3.0296612 0.49297029
5.7934432 -3.0287073 0.48801085
5.8018913 -3.0184517 0.48840398
5.8045158 -3.0063906 0.49871978
5.8146648 -3.0054073 0.50039709
5.802485 -2.9937699 0.49553382
5.9744434 -3.0690489 0.43343714
5.9806776 -3.0667555 0.43004176
5.9919186 -3.0641394 0.42639637
5.9971685 -3.0551245 0.42844158
5.9920974 -3.0404425 0.42297375
6.0013862 -3.0240893 0.4303849
6.0057039 -3.0235152 0.41997084
6.0104032 -3.0045331 0.43353143
6.0254064 -2.9996066 0.41998255
6.0220747 -2.9910541 0.4299728
6.2009478 -3.0638909 0.35039657
6.2025228 -3.0712855 0.35654515
6.2006903 -3.0517173 0.35696229
6.1952 -3.0511663 0.35804036
6.2117434 -3.0399418 0.34544078
6.2228065 -3.0236723 0.36082873
6.2212687 -3.0273173 0.34841907
6.2293048 -3.0104833 0.34661418
6.2308893 -3.0028548 0.36135221
6.2389131 -3.0027544 0.35625365
6.4051399 -3.0559704 0.28141519
6.4154396 -3.0507414 0.28232133
6.4118752 -3.0516226 0.2741552
6.4087157 -3.042259 0.27789378
6.4266219 -3.0206056 0.28420454
6.4319158 -3.0121303 0.2781266
6.4325848 -3.0094218 0.27973971
6.4408321 -3.0028946 0.28951672
6.4272618 -2.9989877 0.27824625
6.6176457 -3.0700545 0.20662087
6.6138 -3.0482597 0.20579004
6.6268759 -3.0404468 0.20125976
6.6208453 -3.0404668 0.20691408
6.6266356 -3.0279031 0.21299161
6.6361513 -3.0216775 0.21177618
6.6319652 -3.0143895 0.21008381
6.6416883 -2.9906511 0.20214166
6.8231101 -3.0597818 0.13998944
6.8243046 -3.0495296 0.1445476
6.8142152 -3.0423036 0.14786756
6.8242607 -3.0432024 0.14376442
6.8334618 -3.035291 0.1382504
6.8381195 -3.0176632 0.14348629
6.8484182 -3.0184853 0.13205008
6.8447814 -2.9940188 0.13759778
6.8399158 -2.9979527 0.14118584
3.6308556 -4.9788766 0.68459159
3.646462 -4.9793091 0.69108921
3.6564918 -4.9795766 0.69478381
3.6554589 -4.9709334 0.68099606
3.676131 -4.970367 0.69246215
3.6820114 -4.9557638 0.69419229
3.6900425 -4.9520116 0.69323444
3.6814573 -4.9486103 0.68875557
3.687469 -4.9529786 0.69114649
3.7071552 -4.9457841 0.67675143
3.7086487 -4.9400306 0.69615775
3.7235811 -4.9256358 0.69005841
3.6124737 -4.7785711 0.74901551
3.6173749 -4.7692466 0.76111543
3.6284816 -4.7661943 0.74867892
3.631047 -4.7641993 0.76573324
3.6353357 -4.7611036 0.76141798
3.6386595 -4.7535157 0.75537187
3.6574974 -4.7468328 0.75981593
3.6587191 -4.7473722 0.76630354
3.6655385 -4.7333193 0.75338405
3.6717572 -4.7312288 0.7496888
3.6718693 -4.7346029 0.75827944
3.6805241 -4.7197466 0.75116217
3.681272 -4.720448 0.7620554
3.6895759 -4.7052412 0.74989265
3.6949272 -4.7123952 0.75576544
3.7159557 -4.7028689 0.7641561
3.7109313 -4.7011409 0.75415105
3.7303433 -4.6848197 0.75851858
3.619982 -4.5415773 0.82224834
3.6127431 -4.5256171 0.8325547
3.6218021 -4.5361524 0.83437115
3.6394444 -4.5246334 0.82591856
3.6299624 -4.5189605 0.83163023
3.6513667 -4.51157 0.82740527
3.6606009 -4.5054073 0.83087313
3.6557012 -4.5047879 0.81870538
3.6591847 -4.4957576 0.82309467
3.6726561 -4.4938731 0.81862456
3.6704879 -4.4926462 0.82548362
3.6816354 -4.4849963 0.82326669
3.6830816 -4.4746194 0.82546926
3.6863375 -4.4729242 0.83413678
3.7011335 -4.4670277 0.82341456
3.7016339 -4.4660378 0.83501142
3.7179022 -4.4621162 0.8276906
3.7176311 -4.4493909 0.83590001
3.7251849 -4.4394703 0.82804137
3.6170161 -4.2987723 0.90736777
3.6242743 -4.2902727 0.89239836
3.6183846 -4.2968941 0.89995426
3.630271 -4.2883296 0.8927542
3.6443527 -4.2827625 0.90210748
3.647095 -4.2686462 0.89220625
3.6391077 -4.2602687 0.89813584
3.6627104 -4.2618542 0.9028188
3.6589854 -4.2499361 0.89505059
3.6634624 -4.256681 0.89201713
3.6800737 -4.2377005 0.90089947
3.6855969 -4.2374644 0.89324611
3.6761439 -4.2291136 0.89392811
3.6942394 -4.2348652 0.89812291
3.7051277 -4.2325163 0.90282434
3.7053621 -4.2133999 0.89657384
3.715688 -4.2082376 0.89362425
3.7119365 -4.2054329 0.90400362
3.7128606 -4.212307 0.90120792
3.7260091 -4.2006497 0.90656519
3.7361171 -4.1983204 0.90579289
3.6108375 -4.0563941 0.97054547
3.6219645 -4.0500245 0.96811497
3.6337664 -4.0314775 0.97479802
3.6297562 -4.0279527 0.95868659
3.6304402 -4.030097 0.97654027
3.6448667 -4.0278115 0.97439629
3.6563368 -4.0151672 0.96988881
3.6581788 -4.0074801 0.97333127
3.6572182 -4.0125198 0.96324635
3.6616077 -4.0133181 0.97029805
3.6652179 -4.0009942 0.97406983
3.6831663 -4.0032005 0.95917565
3.6786771 -3.9792554 0.97778523
3.6808636 -3.9849641 0.9748683
3.6869316 -3.975625 0.96474797
3.6908462 -3.977489 0.97184592
3.7126095 -3.9735053 0.96651363
3.7098582 -3.9732945 0.96378547
3.710542 -3.9596527 0.97092748
3.7211337 -3.9472222 0.9721725
3.71877 -3.9567759 0.96063542
3.7401707 -3.9339676 0.96177799
3.7266703 -3.9412286 0.96174377
3.6230779 -3.7959316 1.0412784
3.6250656 -3.7862556 1.0346075
3.616926 -3.7782235 1.0409275
3.6358774 -3.7739792 1.0460783
3.6294894 -3.7780306 1.0462791
3.6403661 -3.7669349 1.0349534
3.6383777 -3.770777 1.0308818
3.6576273 -3.7625053 1.0320728
3.6653328 -3.7583482 1.0308802
3.6541736 -3.7531996 1.0372275
3.6629732 -3.7484503 1.047721
3.6808929 -3.7470169 1.0428557
3.6721349 -3.7390196 1.0409802
3.6896896 -3.737361 1.0382991
3.6923878 -3.7273731 1.0465096
3.6952798 -3.7117841 1.0407513
3.7068388 -3.7234519 1.0460792
3.694319 -3.7011316 1.0345992
3.7029831 -3.6963601 1.04219
3.7104475 -3.7079952 1.0298353
3.724252 -3.6960709 1.0371289
3.7285426 -3.6914599 1.0407474
3.7279606 -3.6808329 1.0472471
3.7254961 -3.67787 1.0302823
3.7403429 -3.6774204 1.0381749
3.6100335 -3.5279136 1.1069261
3.6071348 -3.5236013 1.1084572
3.6295569 -3.516999 1.1071563
3.6204922 -3.526916 1.1054673
3.6390111 -3.5145447 1.1069764
3.6451683 -3.5135376 1.1152358
3.638612 -3.5134017 1.1029251
3.6356671 -3.4990017 1.1160529
3.6592147 -3.4922137 1.1069479
3.6457906 -3.4957187 1.1130898
3.6602519 -3.4813058 1.1121587
3.6730502 -3.4747338 1.110509
3.6673722 -3.4706748 1.1104239
3.6803865 -3.4806085 1.1153772
3.6717045 -3.456944 1.1076503
3.6845245 -3.4520364 1.1158719
3.6855967 -3.4585919 1.0991644
3.694351 -3.4529922 1.1117845
3.6962259 -3.4487374 1.1061136
3.7089889 -3.4427924 1.111852
3.7078862 -3.4272649 1.1069106
3.7058454 -3.4238105 1.1034418
3.7221477 -3.430898 1.1189258
3.7183576 -3.4098287 1.0993632
3.7195134 -3.4222913 1.118345
3.7329352 -3.4067769 1.1171079
3.7345715 -3.3950262 1.1041818
3.7394929 -3.3993495 1.1117152
3.7370269 -3.3866193 1.1183567
3.6103148 -3.260077 1.1761965
3.6077263 -3.2655015 1.1739966
3.6201897 -3.257767 1.170084
3.6291769 -3.2385232 1.1739099
3.6336412 -3.2478549 1.1736249
3.6385357 -3.2408094 1.1756898
3.642405 -3.2251132 1.1880754
3.64503 -3.2325449 1.1870115
3.654722 -3.2198117 1.1764169
3.6519403 -3.214294 1.1733387
3.655793 -3.2216623 1.1857187
3.6670711 -3.2161782 1.1876405
3.6761422 -3.2027833 1.1722573
3.6812935 -3.2049463 1.1710715
3.6702638 -3.1871834 1.1755015
3.6789417 -3.1890569 1.1819181
3.6896775 -3.1715851 1.1789657
3.6927917 -3.1760054 1.1835103
3.6948349 -3.1752436 1.17571
3.7062762 -3.1617663 1.1883434
3.6946321 -3.1689324 1.188518
3.7153606 -3.1493089 1.18908
3.7180042 -3.1450958 1.1779338
3.7252572 -3.1402059 1.1795155
3.7113171 -3.1308129 1.1737446
3.7217996 -3.1372023 1.1809785
3.7386918 -3.1373088 1.1805562
3.7326241 -3.118747 1.1705796
3.7310939 -3.1225805 1.1762242
3.741756 -3.1194046 1.1701994
3.7450442 -3.1122971 1.1718558
3.7484999 -3.1088779 1.1879768
3.7525101 -3.1072254 1.1831456
3.765367 -3.1027226 1.1780332
3.759798 -3.0965555 1.1771362
3.768451 -3.0842941 1.1846663
3.7643306 -3.0795219 1.1869001
3.7797806 -3.0651908 1.1825
3.7852466 -3.076757 1.1890641
3.7763498 -3.0620201 1.1735963
3.7814207 -3.048347 1.1800219
3.7881408 -3.0555632 1.1846464
3.7909746 -3.0431066 1.1856971
3.8089697 -3.0421236 1.1860182
3.8018451 -3.0310321 1.1872679
3.8138161 -3.0356035 1.1755347
3.8133097 -3.0286036 1.1833233
3.8150296 -3.0104544 1.1801863
3.8323421 -3.0111332 1.1802208
3.8362114 -3.0049951 1.1697237
3.8246052 -2.998065 1.1876252
3.8394172 -2.9886863 1.17303
3.8388464 -3.0007384 1.1856049
3.9868131 -3.0943265 1.1034635
3.9877598 -3.1038082 1.1175221
4.0099487 -3.0855606 1.1017053
4.0003963 -3.0920541 1.1075782
4.0186248 -3.0810544 1.1062839
4.0137086 -3.076962 1.1189889
4.0088191 -3.0732129 1.112504
4.0134244 -3.0652742 1.1076155
4.035924 -3.0667212 1.1067659
4.0238199 -3.0529287 1.108519
4.0442834 -3.0428464 1.106607
4.0330043 -3.0361533 1.1096501
4.0357761 -3.0315993 1.1053715
4.0427237 -3.0209179 1.109024
4.0555358 -3.0163205 1.1180947
4.0470457 -3.0209441 1.1056703
4.0512528 -3.0147541 1.1114018
4.0689673 -3.0082476 1.0994723
4.0617852 -3.0035231 1.1004906
4.0737457 -2.9951761 1.1096898
4.0874515 -2.9906311 1.1033539
4.2300477 -3.0925241 1.0476807
4.2450233 -3.0847833 1.0413393
4.2357121 -3.074337 1.0400441
4.2500448 -3.0753126 1.0377049
4.2534404 -3.0690043 1.0450953
4.2444029 -3.0627069 1.0330226
4.2610893 -3.0629058 1.0417976
4.2658372 -3.0544891 1.0296323
4.2715955 -3.0383065 1.0401435
4.2665448 -3.0326052 1.029523
4.2751498 -3.0392966 1.0422285
4.2784801 -3.0353382 1.0367757
4.2754612 -3.0250082 1.0358644
4.2911382 -3.0246544 1.0480665
4.2844682 -3.0052059 1.04066
4.3051801 -2.9990873 1.033628
4.2938108 -3.000567 1.0404682
4.3112082 -3.0015743 1.0297902
4.4699817 -3.0881677 0.95894659
4.4658575 -3.0967805 0.95826483
4.4711041 -3.0810394 0.96493864
4.4690475 -3.0862103 0.9696123
4.4815297 -3.0786347 0.95865119
4.4930916 -3.0596082 0.96207339
4.4968472 -3.0514693 0.95896751
4.4931874 -3.046828 0.97599792
4.5024867 -3.0377569 0.96556044
4.4986176 -3.035481 0.96812141
4.5040617 -3.0321658 0.96516538
4.5090609 -3.0172997 0.96737617
4.5133691 -3.0215037 0.95910168
4.5243425 -3.0120721 0.95942384
4.5199809 -3.0144575 0.96108311
4.5246491 -3.0095716 0.97552466
4.5327311 -2.9852123 0.97185469
4.6937456 -3.0921874 0.89616245
4.6958785 -3.090508 0.89368618
4.7075648 -3.0769529 0.90721744
4.7018032 -3.0822008 0.89778972
4.7130761 -3.0666873 0.89694774
4.7065506 -3.051095 0.90561581
4.7117414 -3.0487494 0.89742351
4.7172451 -3.0549772 0.90054768
4.7243991 -3.0407395 0.90225405
4.7259855 -3.0426142 0.90201014
4.7438927 -3.0237069 0.89187729
4.7365055 -3.0269876 0.89688462
4.7466331 -3.0228932 0.88890153
4.7502823 -3.0088634 0.88911933
4.7444949 -3.007854 0.89829302
4.7578559 -2.997654 0.89649582
4.9181948 -3.0864286 0.82006758
4.9321523 -3.0738535 0.82124329
4.929225 -3.0783811 0.83007544
4.9279943 -3.0655694 0.83044565
4.9265099 -3.0590887 0.82312995
4.9348831 -3.044224 0.82593459
4.9482541 -3.0434515 0.82622844
4.9536324 -3.0432403 0.83394122
4.9592185 -3.0330179 0.8360467
4.953969 -3.0336261 0.82172936
4.9669127 -3.016397 0.83189929
4.9738259 -3.0095229 0.82778877
4.961905 -3.0098798 0.83228928
4.9788065 -2.9957612 0.82273382
4.9760685 -2.987411 0.83278549
5.1463804 -3.0715151 0.76041514
5.1392469 -3.0697362 0.75233889
5.1523967 -3.0668344 0.75758255
5.1532497 -3.0625916 0.76615131
5.156198 -3.0478342 0.74720854
5.1648188 -3.0443594 0.75858563
5.1635995 -3.0381882 0.74992156
5.1782598 -3.0281453 0.75397962
5.1774106 -3.0253983 0.7652294
5.1869955 -3.0095768 0.7578966
5.1866221 -3.0079968 0.75607401
5.1842756 -2.9978535 0.74886179
5.1938429 -2.9988532 0.75737709
5.3507452 -3.0769093 0.69254756
5.3542352 -3.0624375 0.68569618
5.3587718 -3.0636077 0.69512713
5.3746753 -3.0502498 0.68353075
5.3819036 -3.0464745 0.69477314
5.3731804 -3.047781 0.68155247
5.3756962 -3.0437253 0.67693704
5.3908682 -3.024255 0.6866796
5.3842077 -3.0113342 0.6793375
5.3903246 -3.0130384 0.68376184
5.4049459 -3.0041242 0.69651663
5.4051342 -2.9960229 0.6962713
5.5821085 -3.0785747 0.61697078
5.5849824 -3.0783792 0.61395139
5.5762491 -3.0552261 0.60721755
5.5787473 -3.0650575 0.61168122
5.5880136 -3.0566237 0.61269897
5.5926542 -3.0372574 0.62567902
5.6070261 -3.0287812 0.62406641
5.5940452 -3.0184073 0.61322999
5.6054773 -3.0176206 0.62378222
5.6096535 -3.000843 0.61490434
5.6135736 -2.9949265 0.60683489
5.6285896 -2.9904399 0.61118937
5.7857223 -3.0671222 0.54051203
5.7910857 -3.057215 0.5426268
5.8009019 -3.0623121 0.54538578
5.8117242 -3.0470293 0.53971559
5.8155155 -3.0416238 0.5547201
5.8176827 -3.0334377 0.55229104
5.8090024 -3.0180469 0.54283547
5.8108625 -3.0226963 0.54233795
5.8238339 -3.0076313 0.53993189
5.8287244 -3.0017452 0.55418146
5.8379579 -2.9880579 0.55205458
5.9933915 -3.0788987 0.48135427
6.0045662 -3.0583794 0.46788451
6.0184884 -3.051311 0.48161221
6.0067286 -3.0447133 0.4726541
6.0299621 -3.040199 0.48378479
6.0307541 -3.0286045 0.48220319
6.022079 -3.0193777 0.46786305
6.0328946 -3.0213962 0.48047286
6.0412927 -3.0027294 0.47084767
6.0439286 -2.9990234 0.46678317
6.2120862 -3.0738113 0.39893404
6.2123942 -3.0582175 0.4136402
6.2192206 -3.0529804 0.40703771
6.2197628 -3.0437703 0.3986499
6.2313347 -3.0355828 0.40638742
6.234025 -3.0308468 0.39732456
6.2351217 -3.0190179 0.40908784
6.2418661 -3.0005937 0.41042587
6.2412081 -2.9979799 0.40201786
6.2509127 -2.9969275 0.40889746
6.4253473 -3.0604777 0.32542095
6.4336338 -3.0468588 0.33928099
6.436614 -3.0506909 0.32970768
6.4329796 -3.0382459 0.34066811
6.4409442 -3.0384824 0.33113384
6.4366345 -3.0202696 0.33764741
6.4432487 -3.0051889 0.32729572
6.4616141 -3.0075808 0.32666826
6.4613047 -2.9948349 0.33994842
6.642385 -3.0553639 0.25516197
6.6406322 -3.0554211 0.26942933
6.6457968 -3.0514727 0.26835626
6.6448088 -3.0288122 0.25448591
6.6542344 -3.0340421 0.26408914
6.6546073 -3.0155504 0.26447877
6.6654334 -3.0055995 0.27409822
6.6627598 -2.9932523 0.26980937
6.8404012 -3.0636308 0.18372668
6.8468299 -3.061388 0.19179612
6.8465252 -3.0520556 0.18911682
6.8518281 -3.028754 0.19713061
6.8513851 -3.0245526 0.19983739
6.8498554 -3.0255911 0.19594319
6.8544421 -3.0014429 0.19755158
6.868619 -3.0011477 0.18837829
7.0346994 -3.0692139 0.12946941
7.0389628 -3.0489402 0.12402974
7.0589237 -3.0458918 0.11580578
7.0631952 -3.0406959 0.12028923
7.0555229 -3.0200729 0.12456378
7.0651569 -3.0184016 0.12259275
7.0627913 -3.001415 0.11527012
7.0631189 -2.990186 0.11734992
3.6774218 -4.9774947 0.72361851
3.6828585 -4.988945 0.73043519
3.6804662 -4.9788251 0.7245537
3.6843362 -4.9785347 0.73120981
3.7021067 -4.9753823 0.72951329
3.7126849 -4.9560089 0.73812205
3.7222767 -4.9502735 0.74157566
3.7121515 -4.9413576 0.73260939
3.61992 -4.7852855 0.80068302
3.6288908 -4.7928195 0.81002891
3.6330259 -4.7914572 0.80913162
3.6415641 -4.7716212 0.79166728
3.6369116 -4.7811341 0.79919678
3.6463709 -4.773726 0.80188066
3.6624792 -4.7554893 0.80257112
3.6568837 -4.7536092 0.79747945
3.6598899 -4.7490649 0.79295802
3.6663425 -4.7415662 0.7921778
3.6838219 -4.7405853 0.79212153
3.6803303 -4.7373304 0.79949456
3.6861777 -4.7366295 0.80318403
3.6911204 -4.7340727 0.8016538
3.6985917 -4.7228436 0.8055461
3.7135851 -4.7088232 0.79177237
3.7112553 -4.7053561 0.79115182
3.6134498 -4.56669 0.87635565
3.6264985 -4.5592752 0.87196451
3.6150188 -4.5520477 0.86996067
3.6227517 -4.5539742 0.86381698
3.6304214 -4.5460176 0.87579858
3.645457 -4.5388322 0.86334199
3.6441753 -4.5333161 0.86829376
3.661356 -4.5269327 0.8793171
3.6624219 -4.5121527 0.8791939
3.6697068 -4.5062923 0.87736189
3.6763642 -4.5086617 0.86156243
3.6791811 -4.5043516 0.86814564
3.6775997 -4.4978838 0.87691522
3.6940072 -4.4900389 0.8787086
3.7042639 -4.4808726 0.86339962
3.706495 -4.4830122 0.87020814
3.7162623 -4.4727683 0.87745649
3.710974 -4.4716706 0.8660028
3.716702 -4.4758277 0.86423475
3.6022704 -4.3146973 0.93226099
3.6258271 -4.317699 0.94376904
3.6135776 -4.3041825 0.93446636
3.6279042 -4.2985396 0.94650191
3.6309931 -4.302774 0.9412443
3.6358685 -4.3030291 0.94000578
3.6454279 -4.287324 0.93147188
3.6617887 -4.288115 0.9480173
3.6653907 -4.2804499 0.94048679
3.657532 -4.2733059 0.94361728
3.6678979 -4.2668061 0.93837196
3.6772459 -4.2627826 0.94509351
3.6780946 -4.2570343 0.94029117
3.6896336 -4.2629786 0.93608302
3.6932011 -4.2518458 0.94258332
3.6915035 -4.2418427 0.94376278
3.7085605 -4.2282777 0.93557352
3.7170763 -4.2243428 0.94151109
3.7221303 -4.2227893 0.93002295
3.7196465 -4.2150717 0.94057977
3.7402859 -4.2229567 0.93252903
3.6114643 -4.0667224 1.0124235
3.6133692 -4.0565019 1.0039048
3.6304646 -4.0606909 1.0043095
3.6233447 -4.0472536 1.0107063
3.6427183 -4.0414476 1.0019575
3.6432641 -4.0445113 1.0016164
3.6556137 -4.0449791 1.0000445
3.6538937 -4.0263052 1.0148523
3.6606784 -4.0360203 1.0121959
3.6580129 -4.0309935 1.0164639
3.6672895 -4.0164704 1.0110335
3.6674163 -4.0057302 1.0107905
3.6790173 -4.0035739 1.0013171
3.6910157 -4.0142107 1.0002322
3.6894038 -3.9911399 0.99989623
3.6990359 -3.9931819 1.0114315
3.7083197 -3.9885263 1.017426
3.7160244 -3.9912355 1.0170138
3.7185297 -3.9727974 1.0017979
3.7183714 -3.9826555 1.0065122
3.7224736 -3.9688604 1.0006449
3.7211387 -3.9605548 1.0004059
3.7395532 -3.9662573 1.017203
3.6198239 -3.8088899 1.0672725
3.627475 -3.8155825 1.0862401
3.6147833 -3.7982309 1.0780218
3.6336193 -3.7971764 1.0693076
3.638443 -3.7939909 1.0727252
3.6428475 -3.7938664 1.0694138
3.652029 -3.7794595 1.0710695
3.6459177 -3.7865021 1.0813379
3.6539319 -3.7804244 1.0747217
3.6617002 -3.7614698 1.0772048
3.6662583 -3.7591114 1.0751762
3.6718416 -3.7544341 1.0814211
3.6763854 -3.7477744 1.0799766
3.6727035 -3.7475963 1.0745378
3.6803005 -3.7479057 1.0672286
3.691308 -3.749115 1.0749804
3.6989968 -3.7264397 1.0720682
3.708334 -3.7351656 1.0770353
3.7079325 -3.7211604 1.0829943
3.7209077 -3.7246625 1.0828149
3.7163587 -3.7088754 1.0798935
3.729774 -3.7127664 1.0765414
3.7294269 -3.6973681 1.0747342
3.727628 -3.6908991 1.0679826
3.7403829 -3.7020731 1.0757915
3.6124671 -3.5553727 1.1462914
3.6254659 -3.5584958 1.145285
3.6155455 -3.5375004 1.1504008
3.6305852 -3.5421183 1.1443629
3.6315768 -3.5389655 1.1496565
3.6323819 -3.5255589 1.1455637
3.6502585 -3.5239275 1.1523991
3.6447759 -3.5278258 1.1494446
3.6574793 -3.5186989 1.1477638
3.6634235 -3.5019851 1.1497065
3.6571698 -3.5049942 1.1410397
3.6723716 -3.4999738 1.1442192
3.6665599 -3.4898365 1.1433563
3.6658571 -3.489615 1.1528311
3.6791091 -3.4933503 1.1404071
3.6776474 -3.4812219 1.1363312
3.692086 -3.4761512 1.1488216
3.6933525 -3.4614904 1.1523414
3.6916573 -3.4590466 1.1399091
3.7082744 -3.4555714 1.1391046
3.7068269 -3.4632561 1.1501985
3.7167053 -3.4406378 1.1412128
3.7097561 -3.4487231 1.1372581
3.7219367 -3.4423959 1.1484115
3.7235849 -3.4276946 1.1507094
3.7328017 -3.4193249 1.1400087
3.7379355 -3.4213803 1.1492448
3.7355525 -3.4270248 1.1480012
3.7566819 -3.4192138 1.1440541
3.6067793 -3.2730334 1.2074652
3.6144807 -3.2799225 1.2089934
3.6132691 -3.261761 1.2079724
3.6230645 -3.2753689 1.2136917
3.6288984 -3.2616096 1.220557
3.6458786 -3.2510078 1.216936
3.6451495 -3.2559879 1.2164899
3.6537127 -3.2406256 1.2087873
3.651505 -3.2324307 1.210232
3.6480465 -3.2278831 1.2142733
3.6606338 -3.2394154 1.2126797
3.6675878 -3.2278321 1.2191626
3.6760631 -3.2220392 1.2187665
3.6635098 -3.2110224 1.219715
3.6766691 -3.2187364 1.2093695
3.6766865 -3.2140279 1.2245659
3.6930757 -3.1945989 1.2097158
3.6890116 -3.1911504 1.2051554
3.697238 -3.1944458 1.2237109
3.7069016 -3.1857293 1.2217284
3.7005994 -3.1889474 1.2231221
3.7126963 -3.1697268 1.2110013
3.7112691 -3.1665392 1.219569
3.7094383 -3.1604052 1.2140429
3.728549 -3.1656058 1.2156858
3.7173069 -3.1552756 1.2169141
3.7212539 -3.1530359 1.2124419
3.7303436 -3.1393323 1.2062826
3.7348657 -3.1418679 1.2116859
3.7379358 -3.1391976 1.2206577
3.7390165 -3.1272802 1.2212567
3.7614834 -3.1277094 1.2159159
3.6077137 -2.9937251 1.2776333
3.6264451 -2.9864793 1.2912743
3.764087 -3.1044195 1.2054983
3.7790883 -3.0979407 1.2139043
3.7753105 -3.091922 1.2193584
3.7870533 -3.0812142 1.2133185
3.7926295 -3.0903771 1.2195392
3.7836015 -3.0808558 1.2232202
3.7835381 -3.0746324 1.2136025
3.8040664 -3.0703132 1.2183332
3.7992463 -3.0600193 1.2115427
3.8070991 -3.0551829 1.2069647
3.8085854 -3.0613301 1.219282
3.8133254 -3.056818 1.2128319
3.8264642 -3.0404181 1.2071474
3.8250496 -3.036603 1.2069122
3.8175876 -3.0315318 1.2122492
3.836339 -3.0198011 1.2218367
