# .PCD v0.7 - Point Cloud Data file format
VERSION 0.7
FIELDS x y z
SIZE 4 4 4
TYPE F F F
COUNT 1 1 1
WIDTH 1536
HEIGHT 1
VIEWPOINT 0 0 0 1 0 0 0
POINTS 1536
DATA ascii
-3.7105172 -4.853375 1.9994117
-3.7024655 -4.8651485 2.0102828
-3.689961 -4.8668518 2.0100849
-3.6861386 -4.8587298 2.0081599
-3.6769717 -4.864099 2.0152833
-3.6738627 -4.8741403 2.0075352
-3.6666663 -4.8744664 2.0167315
-3.6652844 -4.8897524 2.0071223
-3.6574607 -4.89503 2.0097549
-3.6371191 -4.9029808 2.0062082
-3.6374209 -4.9052353 2.0155289
-3.6285625 -4.9062214 1.9982562
-3.6288264 -4.9214935 2.0044503
-3.6092808 -4.9197412 2.0039275
-3.6116531 -4.915627 2.0031867
-3.606895 -4.935216 1.9975466
-3.5898778 -4.9344282 2.0167131
-3.5836575 -4.9390845 2.0057163
-3.5870395 -4.9427514 2.0145555
-3.5677817 -4.9529171 2.0005472
-3.5720639 -4.9502325 2.0093787
-3.567018 -4.9655447 2.0023088
-3.5592382 -4.9679828 2.0050416
-3.5452571 -4.9777446 2.0145922
-3.5317919 -4.9767547 2.0133126
-3.5390608 -4.97789 1.99749
-3.5319629 -4.9888988 2.0074923
-3.5256915 -4.9805841 1.9978647
15.571555 -0.98103368 0.457901
15.564677 -0.94570851 0.44745085
15.57467 -0.9380185 0.45969206
15.573232 -0.90012646 0.45753792
15.58541 -0.87873989 0.45581153
15.570272 -0.86433738 0.4600198
15.580053 -0.84544128 0.44830629
15.573439 -0.82630408 0.44598529
15.57314 -0.80191481 0.45877436
15.584463 -0.76965654 0.45952374
15.579062 -0.75746512 0.46037799
15.592982 -0.73350555 0.45482966
15.576422 -0.72087795 0.45524177
15.592072 -0.69098151 0.45181456
15.585538 -0.67017037 0.44804066
15.597246 -0.64573026 0.45693436
15.593133 -0.63271135 0.46298754
15.597277 -0.60747993 0.44643959
15.599068 -0.58368927 0.45254096
15.593618 -0.54968745 0.44915912
15.588887 -0.54216743 0.45622563
15.58498 -0.52177882 0.44550726
15.595494 -0.49897188 0.44567046
15.58639 -0.48150533 0.45398274
15.593829 -0.45153341 0.46135741
15.597464 -0.4307825 0.45142213
15.589961 -0.41504446 0.45275444
15.588482 -0.37603274 0.45756561
15.590424 -0.35606846 0.46441361
15.598436 -0.34236261 0.46350855
15.603037 -0.31416577 0.44836745
15.594674 -0.29062381 0.45185786
15.595562 -0.27728504 0.45639712
15.596583 -0.25373742 0.45664379
15.605886 -0.22340819 0.44510236
15.602533 -0.21007131 0.45255092
15.609215 -0.18483308 0.45397571
15.597198 -0.16164041 0.45264962
15.609962 -0.13704129 0.4495244
15.609544 -0.12493438 0.45834097
15.608191 -0.10870158 0.45358959
15.611665 -0.081276394 0.45061475
15.598599 -0.053377256 0.45921266
15.610044 -0.044840999 0.44959158
15.601704 -0.0073553743 0.44853264
15.620048 0.0093435701 0.57306242
15.62755 0.029567337 0.56704301
15.616446 0.057512019 0.56244791
15.623986 0.077988736 0.56068319
15.628371 0.097845457 0.56925631
15.621542 0.11617708 0.57229298
15.60993 0.13784248 0.56098527
15.615314 0.16633199 0.57580703
15.629265 0.18618484 0.57739526
15.613564 0.19764768 0.57469916
15.616775 0.22917901 0.56404275
15.610464 0.24822737 0.5718146
15.618105 0.27621749 0.56573576
15.621119 0.29182324 0.57833833
15.622338 0.31191939 0.56900239
15.612101 0.34532246 0.57620305
15.624869 0.36728099 0.56327426
15.606299 0.37482017 0.57704043
15.622521 0.39653778 0.56886524
15.620301 0.42281273 0.57035893
15.615354 0.45258602 0.56159037
15.61972 0.47636804 0.57007712
15.611827 0.48813927 0.56476128
15.617826 0.5033046 0.57325912
15.616396 0.54009926 0.56006145
15.6056 0.54709631 0.57847589
15.601974 0.56733245 0.57705849
15.60539 0.58949983 0.56139058
15.60254 0.62842023 0.56565136
15.611485 0.6456818 0.57439888
15.601894 0.65858847 0.57113236
15.603504 0.67648363 0.56986123
15.61357 0.70713919 0.57857573
15.598289 0.72447634 0.56067091
15.611477 0.74109739 0.57777697
15.611436 0.76766658 0.5600974
15.609779 0.79138434 0.56087226
15.606674 0.81932199 0.56203401
15.607871 0.8452456 0.56033677
15.593299 0.86097997 0.57412291
15.587443 0.88801873 0.57903868
15.598291 0.89759326 0.56007391
15.587837 0.91819024 0.5699904
15.586067 0.94449389 0.57547092
15.586363 0.96500188 0.57580096
15.583734 0.98651659 0.56092989
18.161322 2.8770654 0.13268402
18.162586 2.9053214 0.13640212
17.961596 2.8838353 0.17212391
17.765575 2.8943257 0.20614783
17.559801 2.8784842 0.22059564
17.557877 2.907342 0.23131664
17.355347 2.8861082 0.25296652
17.155533 2.8930237 0.29963186
17.164831 2.9152541 0.29033151
16.952988 2.8950496 0.32970572
16.762053 2.8940709 0.35567674
16.744219 2.9115889 0.35366353
16.555424 2.9132209 0.38704503
16.351517 2.8973808 0.41744986
16.345348 2.9088445 0.40819842
16.148197 2.9075444 0.45420024
15.961834 2.8821435 0.46687967
15.96069 2.9107008 0.48403791
15.760931 2.8969128 0.51038307
15.746243 2.9255257 0.51491439
15.545748 2.905777 0.53920341
15.554598 2.9281671 0.54673171
15.347255 2.9037197 0.57745528
15.142467 2.89347 0.60355294
15.151307 2.917841 0.60739613
14.956872 2.9060605 0.63287783
14.951558 2.923713 0.63465005
14.754107 2.9061453 0.65361774
14.747728 2.9250715 0.66131437
14.542986 2.9147034 0.68654454
14.536582 2.9205463 0.69536811
14.349867 2.9201028 0.71578532
14.344381 2.9294713 0.71592206
14.338693 2.9522147 0.72142226
14.328176 2.9678397 0.73015767
14.321473 2.9870946 0.72354978
14.329328 3.0050833 0.71374094
14.318926 3.0235872 0.72362554
14.316566 3.0597644 0.73186511
14.301874 3.069062 0.72782081
14.301487 3.0960114 0.72933006
14.309896 3.1140032 0.72930306
14.287796 3.1305659 0.71863705
14.285805 3.145525 0.73071241
14.289286 3.1740799 0.71841657
14.474345 3.2230427 0.69448721
14.479838 3.2613287 0.69946015
14.475494 3.2734091 0.68295825
14.461006 3.287354 0.68266076
14.45473 3.3108597 0.69169384
14.444381 3.3382583 0.68771529
14.455514 3.3583734 0.7017737
14.44659 3.380724 0.69244587
14.446974 3.385447 0.6981343
14.439404 3.4180422 0.69244093
14.41951 3.4272454 0.69281095
14.426558 3.4464486 0.69127315
14.418549 3.4658427 0.70162863
14.414011 3.4953125 0.68574798
14.409147 3.523097 0.69319844
14.413288 3.5251527 0.68787944
14.393423 3.5629883 0.70251399
14.387588 3.5765767 0.69934416
14.392397 3.595252 0.70074874
14.382866 3.6110897 0.69460678
14.387614 3.6317935 0.69753271
14.372705 3.6643324 0.6995331
14.376228 3.6736791 0.70080572
14.37008 3.7033319 0.69143283
14.368023 3.7129931 0.68973649
14.353389 3.7316959 0.68999416
14.353408 3.7554615 0.68799269
14.348033 3.7783482 0.69949198
14.33946 3.7910283 0.68958586
14.332265 3.8191903 0.69544351
14.318899 3.8371406 0.70193827
14.328431 3.8652494 0.70091218
14.319936 3.8819785 0.68918037
14.312685 3.8976836 0.68705589
14.316034 3.9164841 0.69455433
14.297658 3.9258301 0.70072442
14.299513 3.960403 0.69063628
14.489732 4.0277076 0.65252042
14.480954 4.0390987 0.65797365
14.462242 4.0685854 0.67158705
14.46936 4.0900254 0.66315645
14.462944 4.1063457 0.6628477
14.455474 4.1195455 0.65928882
14.436244 4.150898 0.67146319
14.434861 4.17103 0.66247374
14.440949 4.198245 0.66287369
14.433179 4.2128015 0.65789735
14.415292 4.232697 0.66741359
14.410159 4.2494307 0.6681214
14.410452 4.2730975 0.65812433
14.40433 4.2895541 0.66938406
14.38975 4.3052955 0.65678805
14.394832 4.3392954 0.6572243
14.396327 4.3598223 0.6688534
14.38997 4.3647513 0.66046304
14.374594 4.3815808 0.65914452
14.359591 4.4164815 0.65224683
14.359582 4.4393644 0.6651175
14.349063 4.4430122 0.65460336
14.359222 4.472878 0.66764516
14.339358 4.4825749 0.65704119
14.330725 4.5036721 0.66208464
14.329468 4.5358615 0.66104245
14.328619 4.555584 0.66044998
14.319372 4.5750136 0.66471791
14.321706 4.5851607 0.66575539
14.302694 4.6064262 0.66164172
14.296756 4.6338325 0.66036808
14.471589 4.7179561 0.63180959
14.467867 4.7376475 0.62398905
14.477159 4.7437072 0.62584829
14.455817 4.7673941 0.6287967
14.459492 4.796113 0.62393492
14.442096 4.8102999 0.63880467
14.444079 4.8415837 0.63312215
14.430303 4.8615742 0.63761389
14.417536 4.8689528 0.62340665
14.420627 4.896821 0.63665068
-4.9057603 -4.2591271 1.9925274
-4.9088273 -4.2620282 1.9883813
-4.8997054 -4.2690229 1.9901044
-4.8887148 -4.2907157 1.995334
-4.8947659 -4.2820621 1.9891108
-4.8856697 -4.3041048 1.996912
-4.8816938 -4.2974362 1.9958441
-4.8633909 -4.3177886 1.9946229
-4.8605871 -4.3241239 1.980646
-4.8519807 -4.3205566 1.9944129
-4.850121 -4.3283596 1.9892942
-4.8518896 -4.3451934 1.9881459
-4.8377953 -4.3388786 1.9868665
-4.8419681 -4.3475566 1.9907496
-4.8209019 -4.368278 1.990133
-4.8260498 -4.3659048 1.9943123
-4.8233867 -4.3655677 1.99199
-4.8217821 -4.3729491 1.9961371
-4.8013892 -4.3835568 1.9807619
-4.7949643 -4.3915982 1.995759
-4.7947626 -4.4038296 1.9897494
-4.7796707 -4.4038887 1.9936938
-4.7857175 -4.4159222 1.9907321
-4.7730346 -4.4182062 1.9858636
-4.7764587 -4.4255114 1.9870359
-4.7604904 -4.4240613 1.997335
-4.7603335 -4.446054 1.9947165
-4.7424898 -4.452558 1.9914536
-4.7404895 -4.4447942 1.9843113
-4.7338552 -4.4567394 1.995847
-4.7322145 -4.474627 1.9818624
-4.7165742 -4.4635758 1.9945211
-4.7169805 -4.4847336 1.9818404
-4.7203388 -4.4793801 1.9935609
-4.7085567 -4.4836321 1.9846526
-4.6955929 -4.498106 1.9838625
-4.6923213 -4.4986229 1.9877388
-4.6916585 -4.5075049 1.9917619
-4.6742496 -4.5206051 1.9901906
-4.6839738 -4.533298 1.9833071
-4.6621532 -4.5305867 1.9851605
-4.6543078 -4.5384817 1.984681
-4.6537952 -4.5530372 1.9896507
-4.6459537 -4.5572162 1.9865721
-4.6463828 -4.5558863 1.985831
-4.6357112 -4.5678754 1.9971967
-4.6258206 -4.5628843 1.9946175
-4.6320448 -4.5835319 1.9897195
-4.6142368 -4.593081 1.998276
-4.617991 -4.5986733 1.9806849
-4.6086197 -4.5887733 1.9923414
-4.5973859 -4.5973663 1.9826311
-4.5866227 -4.6117926 1.984884
-4.5908809 -4.6247334 1.9894682
-4.5782084 -4.6244683 1.9818835
-4.5662684 -4.6199055 1.9888018
-4.5629539 -4.6318345 1.9871943
-4.5622091 -4.6363797 1.9914137
-4.5463538 -4.649518 1.9925497
-4.5419335 -4.6528206 1.9945499
-4.5350947 -4.6531706 1.9928972
-4.5365911 -4.6687145 1.9890904
-4.5277886 -4.6799326 1.9972868
-4.5167241 -4.6818547 1.9989629
-4.5210671 -4.6775594 1.9873157
-4.5129857 -4.6877875 1.9866339
-4.4979773 -4.7011738 1.9804162
-4.4845676 -4.7002974 1.9960376
-4.4869294 -4.7100558 1.9848963
-4.4881468 -4.7218928 1.9968189
-4.4673553 -4.7333999 1.9947486
-4.4682078 -4.7329202 1.9834822
-4.452858 -4.7301641 1.9873369
-4.4493036 -4.7428784 1.9955994
-4.4440641 -4.746479 1.9944777
-4.4504633 -4.7485509 1.9894395
-4.4375353 -4.7621751 1.9973172
-4.4308167 -4.76896 1.9923646
-4.4284673 -4.7646856 1.9839375
-4.4172511 -4.7882156 1.9899478
-4.414104 -4.7775512 1.9907166
-4.3930182 -4.7943435 1.9982215
-4.4031901 -4.8024001 1.9947298
-4.3894987 -4.8135242 1.9847615
-4.3875365 -4.8060398 1.997421
-4.3666873 -4.8115945 1.9942281
-4.3708677 -4.8308697 1.9836209
-4.3671618 -4.8300834 1.9924295
-4.3484001 -4.8336134 1.991704
-4.338057 -4.8326015 1.9936302
-4.3416953 -4.8551254 1.9923939
-4.3245559 -4.8632555 1.9805285
-4.3199034 -4.868257 1.9867605
-4.3187342 -4.8662763 1.988013
-4.3075252 -4.8690505 1.982885
-4.3036475 -4.8777013 1.9983282
-4.3029547 -4.8772669 1.9806128
-4.292861 -4.8798699 1.9897907
-4.2939496 -4.8904624 1.981536
-4.2757559 -4.8974714 1.9803811
-4.2756271 -4.9148874 1.9827809
-4.2567267 -4.9219408 1.9831203
-4.2496834 -4.9111266 1.9845177
-4.2563996 -4.9259377 1.9939461
-4.2418551 -4.9363408 1.9866408
-4.23243 -4.929678 1.996716
-4.2275538 -4.9491405 1.9932473
-4.2203846 -4.9453368 1.9931878
-4.2240291 -4.9494576 1.9885384
-4.21592 -4.9622288 1.9828728
-4.2089577 -4.9617238 1.985775
-4.1995873 -4.9691792 1.9875977
-4.1898694 -4.9764605 1.9861984
-4.1787462 -4.977335 1.9959431
15.591457 -0.98102337 0.57305527
15.583098 -0.95533049 0.56262422
15.583694 -0.92051631 0.56546247
15.592505 -0.91757077 0.56678182
15.590943 -0.8840614 0.5687021
15.589196 -0.86682719 0.57447755
15.606476 -0.83654523 0.55928266
15.606941 -0.82289416 0.57461017
15.590319 -0.80340588 0.57564253
15.592827 -0.76822931 0.57655376
15.605597 -0.75432998 0.57856798
15.600652 -0.73014522 0.56452191
15.605247 -0.70669132 0.56353503
15.612649 -0.69572109 0.5637368
15.60134 -0.66757756 0.57568932
15.611921 -0.64241534 0.5631156
15.608248 -0.62117755 0.55906183
15.609348 -0.6006487 0.56689531
15.605746 -0.57788521 0.57245165
15.603147 -0.55372703 0.57141763
15.601427 -0.53788233 0.56251448
15.601691 -0.50803411 0.57602608
15.60788 -0.49461353 0.57122016
15.61305 -0.47478238 0.57561165
15.618392 -0.44722137 0.56637245
15.615657 -0.43001026 0.56051993
15.620317 -0.39737365 0.57412839
15.620893 -0.38450643 0.56648767
15.609271 -0.35608119 0.55983114
15.623177 -0.35106558 0.57555246
15.616016 -0.3285484 0.565337
15.619924 -0.30651549 0.56318718
15.617311 -0.27901295 0.57267427
15.609863 -0.24702774 0.56020796
15.626776 -0.23035806 0.5735172
15.614419 -0.21705151 0.56225109
15.616179 -0.17968179 0.56183428
15.611518 -0.16230279 0.57249665
15.619184 -0.13708104 0.56979537
15.620165 -0.11846023 0.57032019
15.616836 -0.10747439 0.57157189
15.62326 -0.073026754 0.57306558
15.627505 -0.06160577 0.56027025
15.621207 -0.038017381 0.57766813
15.622412 -0.017870158 0.56994307
15.634318 0.012489365 0.68788129
15.637501 0.041447565 0.68724597
15.640237 0.04548125 0.68219578
15.633604 0.076949634 0.68057311
15.64424 0.08919616 0.67577672
15.63537 0.11794209 0.68017137
15.627722 0.13297191 0.67721868
15.641537 0.17213576 0.68389177
15.642526 0.18492068 0.6923579
15.640882 0.19886038 0.67917591
15.631482 0.22726397 0.69166529
15.645841 0.25886533 0.69129306
15.639534 0.2732476 0.69313478
15.628146 0.3010731 0.68462527
15.635105 0.31964058 0.68654275
15.637238 0.32947475 0.67538679
15.643734 0.35182723 0.67744154
15.627248 0.38819173 0.6768412
15.637403 0.40577286 0.68720722
15.635995 0.42196849 0.68969464
15.641375 0.44905347 0.67876786
15.639213 0.4708162 0.67762494
15.636648 0.48662132 0.68904734
15.635895 0.51141858 0.68647879
15.626601 0.52358526 0.68066186
15.619195 0.55832499 0.68286371
15.620603 0.58003229 0.68560338
15.624035 0.60575444 0.68289357
15.626836 0.62216449 0.6759516
15.619972 0.63772863 0.68339276
15.615565 0.6592648 0.67610723
15.620202 0.67926222 0.68877351
15.623665 0.71734881 0.67543501
15.61852 0.73536611 0.68508476
15.610775 0.74480462 0.68509316
15.617184 0.7675817 0.67803419
15.625764 0.79254144 0.6908766
15.617053 0.82173842 0.68763632
15.625602 0.83457237 0.6790024
15.607179 0.86140925 0.68413007
15.616166 0.88473642 0.68899262
15.617837 0.91362709 0.69205266
15.612144 0.92693824 0.69140059
15.613083 0.9560923 0.68696845
15.603641 0.97852063 0.69017887
15.614176 0.98840624 0.67437196
18.191704 2.8705199 0.26949403
18.181696 2.8934047 0.27811822
17.978884 2.8853095 0.29349506
17.777386 2.8979816 0.33170557
17.57262 2.8743775 0.35155126
17.580675 2.9061422 0.36853093
17.38201 2.8953316 0.39798424
17.181408 2.8921828 0.41125298
17.178368 2.9154329 0.41942963
16.974943 2.8973925 0.45718578
16.77561 2.8865266 0.47197205
16.780201 2.9229245 0.47481969
16.578524 2.9017997 0.5050146
16.382832 2.8979483 0.53442198
16.370728 2.9226692 0.53786325
16.174267 2.9045713 0.55799258
15.974851 2.8864591 0.59523141
15.970122 2.9217758 0.58833885
15.774609 2.9023743 0.63018161
15.76186 2.9340546 0.63382989
15.562914 2.9091556 0.64591449
15.369372 2.8923428 0.69099051
15.373117 2.9090364 0.67616546
15.16326 2.8918405 0.71816891
15.167692 2.9233749 0.71259469
14.961327 2.8996274 0.75042963
14.95987 2.9325249 0.73330277
14.752067 2.9065783 0.77866089
14.751499 2.9216349 0.76859438
14.569294 2.9092975 0.79765952
14.564762 2.9349849 0.80662858
14.348943 2.9063733 0.82304293
14.362663 2.9245088 0.82525575
14.34153 2.9511695 0.82590318
14.35292 2.9663091 0.83692575
14.338707 2.9933693 0.82065648
14.332848 3.0230262 0.83640802
14.329834 3.0430653 0.82349318
14.322698 3.0465939 0.82504058
14.325467 3.0660019 0.8323552
14.32782 3.0849373 0.82504523
14.319115 3.1060317 0.82805198
14.317342 3.124908 0.82916439
14.297754 3.1467409 0.83691305
14.298786 3.1640806 0.83978301
14.290813 3.1913531 0.82970053
14.286543 3.2169402 0.82926792
14.297997 3.2237148 0.82887334
14.469411 3.2914073 0.8025592
14.469379 3.3225698 0.80511695
14.476635 3.3403704 0.80662698
14.456553 3.3537776 0.80925411
14.459448 3.3697529 0.81078625
14.463428 3.3905091 0.79418617
14.455129 3.4166934 0.794967
14.449671 3.4393287 0.80306762
14.434102 3.4621453 0.79680866
14.438073 3.480895 0.79738402
14.421621 3.5026627 0.80189258
14.428281 3.5089958 0.79736656
14.41747 3.5472088 0.81045038
14.40814 3.5499918 0.79675734
14.40141 3.5803518 0.7988621
14.396184 3.5994008 0.801552
14.394329 3.6148875 0.81026191
14.393228 3.6296818 0.80144924
14.400199 3.6537011 0.79530221
14.380883 3.6865129 0.80776036
14.382114 3.7077227 0.80184865
14.367826 3.7204692 0.80213922
14.368984 3.7473104 0.80051893
14.363197 3.7497559 0.80156475
14.36369 3.7704329 0.79286027
14.34626 3.7908738 0.80310148
14.351491 3.8144784 0.80873322
14.345405 3.8420272 0.80907011
14.330478 3.8616209 0.79334432
14.329375 3.8870006 0.81035542
14.320704 3.8987415 0.80850846
14.326092 3.9213521 0.79934734
14.311743 3.9303067 0.796974
14.315745 3.9586885 0.79699999
14.300766 3.972805 0.7976644
14.297055 3.9947605 0.79873812
14.303556 4.027245 0.80339223
14.486046 4.0926962 0.76612538
14.478385 4.1151114 0.77789617
14.474971 4.1418056 0.77504498
14.468539 4.145237 0.76394063
14.460233 4.1794939 0.77546042
14.442737 4.1848664 0.77595574
14.44284 4.2197347 0.76486176
14.44294 4.2251444 0.76792061
14.423676 4.2523909 0.77297914
14.425459 4.2717152 0.77057409
14.411867 4.2887492 0.77995217
14.410434 4.3238301 0.77154738
14.400743 4.3412313 0.76964676
14.408174 4.3579645 0.77099544
14.40447 4.3721824 0.76642686
14.392261 4.3947239 0.76706499
14.380517 4.4232159 0.76241368
14.377651 4.4376841 0.76302236
14.377817 4.4587922 0.77073616
14.363013 4.4676151 0.7776413
14.365776 4.4888062 0.78145587
14.357889 4.5145521 0.78023475
14.341569 4.5366235 0.77630693
14.343321 4.5521684 0.76901275
14.326393 4.5700831 0.77584541
14.324869 4.6018877 0.76513708
14.323956 4.6080766 0.76284647
14.318362 4.6375566 0.77495843
14.31335 4.6533856 0.7681222
14.296024 4.6806231 0.7700606
14.473541 4.7585163 0.7436977
14.466793 4.7733998 0.73250294
14.478795 4.7982593 0.74335736
14.466841 4.8111939 0.74974382
14.447565 4.8335528 0.73404098
14.455093 4.8607669 0.7501471
14.451885 4.8734746 0.73245591
14.426358 4.9070244 0.74426717
-4.9156861 -4.5627642 2.0184238
-4.9027319 -4.5656047 2.0133739
-4.9078298 -4.5723572 2.0046139
-4.9098277 -4.5792074 2.010534
-4.9030108 -4.5873752 2.0011191
-4.8853302 -4.6007895 2.0044546
-4.8812532 -4.6067443 2.009973
-4.8728695 -4.6184068 2.0025399
-4.8683705 -4.6264849 2.0076575
-4.8615527 -4.6332698 2.0061779
-4.8629146 -4.6266494 1.9995611
-4.856595 -4.63346 2.0169811
-4.8353152 -4.6517625 2.0145175
-4.8427868 -4.6584678 2.0120637
-4.8243284 -4.6647696 2.0082927
-4.8152752 -4.6598139 2.0179491
-4.8228774 -4.6772141 2.0084836
-4.8049517 -4.6726732 2.0141797
-4.7944498 -4.6900854 1.9986124
-4.798821 -4.6871409 2.0030661
-4.7846622 -4.6920295 2.0009367
-4.7771111 -4.7170782 1.9987849
-4.7721305 -4.7073374 2.0051088
-4.7696042 -4.7315669 2.0114975
-4.7695227 -4.7238474 2.0183449
-4.7532024 -4.7335925 2.0168991
-4.7472167 -4.7374673 2.0047951
-4.7506871 -4.7499533 2.0039651
-4.7284522 -4.7584839 2.0124474
-4.7217751 -4.7579412 2.0105886
-4.7306352 -4.7698045 2.0105472
-4.7216158 -4.7806911 2.0121534
-4.7147384 -4.773181 2.0101874
-4.7015281 -4.7897372 2.0106697
-4.70192 -4.7928143 2.0055408
-4.6954556 -4.8061829 2.0173264
-4.6904278 -4.8001862 2.0118873
-4.6774945 -4.8242903 2.0006032
-4.6653824 -4.812799 2.0074205
-4.6647787 -4.821279 2.0014031
-4.6460247 -4.8252769 2.0101352
-4.6473031 -4.8469224 2.0145848
-4.646966 -4.8483672 2.013139
-4.6285858 -4.8632874 2.0017219
-4.6297145 -4.865294 2.013804
-4.615963 -4.8675394 1.999084
-4.6104164 -4.8714705 2.0169175
-4.6103005 -4.8891902 2.0171947
-4.6014595 -4.8815289 2.015502
-4.5857921 -4.9000039 2.0118577
-4.5961332 -4.9064746 2.010735
-4.577733 -4.9009819 2.0144768
-4.5748749 -4.9019203 2.0032742
-4.5734534 -4.9112549 2.003643
-4.5634398 -4.9285035 2.0084867
-4.5613356 -4.9387956 2.0175569
-4.5539422 -4.9303451 2.0091588
-4.5487065 -4.9485908 2.0094941
-4.5231843 -4.9448175 2.0039341
-4.5193467 -4.9522076 2.0063334
-4.5191441 -4.956778 2.0086863
-4.5200553 -4.9697976 2.0029466
-4.4972162 -4.9668159 2.0026741
-4.5055704 -4.9892793 1.9994626
-4.4935474 -4.9886045 2.0053885
15.606006 -0.97697294 0.67904693
15.602165 -0.95762205 0.68333179
15.605392 -0.9338851 0.67981601
15.6147 -0.91219908 0.68910998
15.60908 -0.89014232 0.67550373
15.614548 -0.8656798 0.67504525
15.617492 -0.85123867 0.6896978
15.606492 -0.82617164 0.68810004
15.620279 -0.80669093 0.68461502
15.609999 -0.77595514 0.68032128
15.622562 -0.7648713 0.68748301
15.629461 -0.7389847 0.6922183
15.620614 -0.71119809 0.67891115
15.628222 -0.69539988 0.68550897
15.625093 -0.66648835 0.69238055
15.628326 -0.65334481 0.68192995
15.631071 -0.61846304 0.68413413
15.628438 -0.59575588 0.68961734
15.624177 -0.58040655 0.69279152
15.636401 -0.55645216 0.68491024
15.6243 -0.54101843 0.68632001
15.61933 -0.51973945 0.69182217
15.639067 -0.48833033 0.68331516
15.625464 -0.4703069 0.68880916
15.63843 -0.45637524 0.68141627
15.638236 -0.42014167 0.68536705
15.627561 -0.40206471 0.6823985
15.63906 -0.38749179 0.68033475
15.636012 -0.35802078 0.69181675
15.636107 -0.33713672 0.68544847
15.628291 -0.32913342 0.69270808
15.641854 -0.30684909 0.67943984
15.640889 -0.2855486 0.67577279
15.631386 -0.25853905 0.68832028
15.627347 -0.23922271 0.69298959
15.635884 -0.22072805 0.69208175
15.628343 -0.19350569 0.68743932
15.637801 -0.17535149 0.67555732
15.645165 -0.14078231 0.69133317
15.643982 -0.126624 0.68617922
15.636399 -0.10075789 0.68721396
15.636045 -0.08177422 0.68871784
15.642394 -0.064170912 0.68970633
15.645044 -0.036455017 0.675888
15.640211 -0.013132544 0.67956913
15.656606 0.0012994919 0.79420155
15.655469 0.025023153 0.79996449
15.64966 0.05794258 0.80206341
15.651938 0.077993967 0.79691297
15.649962 0.096659265 0.804102
15.662802 0.1275702 0.79533798
15.656645 0.13798635 0.80373836
15.651962 0.15463939 0.7879225
15.648237 0.19386224 0.79800296
15.650663 0.20820238 0.78958613
15.65674 0.22232904 0.79088557
15.643145 0.25533435 0.79406577
15.655281 0.26257581 0.78832257
15.649487 0.29217142 0.80078787
15.658511 0.31989697 0.79007578
15.654695 0.34059843 0.78843212
15.642083 0.35531059 0.79536235
15.657842 0.38553721 0.79710352
15.657754 0.41226673 0.79622585
15.647716 0.42168084 0.78784686
15.64923 0.43746057 0.79175353
15.652014 0.45996425 0.80682492
15.637947 0.49495476 0.80729765
15.638107 0.50453097 0.79552633
15.650702 0.54354244 0.7896415
15.652554 0.55917811 0.8026197
15.652732 0.58267397 0.78847224
15.63981 0.60243028 0.80271417
15.648598 0.62263125 0.80184925
15.636477 0.63335717 0.78856277
15.635948 0.66619122 0.78922123
15.639296 0.68243277 0.79054928
15.637683 0.70526212 0.80503476
15.636513 0.7289359 0.80726433
15.643541 0.74591935 0.80667418
15.644654 0.76550043 0.7998895
15.638715 0.78603536 0.79477155
15.638597 0.81445444 0.78758198
15.632692 0.83249867 0.79876649
15.625891 0.85929036 0.79885125
15.625773 0.88645053 0.7899456
15.626283 0.8978858 0.7954585
15.628091 0.92866749 0.80197883
15.624353 0.93926829 0.79035246
15.622815 0.97791684 0.79389054
15.620656 0.99872822 0.79519206
18.204681 2.8740633 0.41365886
18.201406 2.9097509 0.41249421
17.991459 2.9028361 0.4348464
17.804661 2.8822365 0.4585425
17.595568 2.8846278 0.49112144
17.592787 2.9070427 0.49355432
17.387316 2.8959072 0.50990272
17.194357 2.8919981 0.54055387
16.994673 2.8769431 0.57529676
16.999247 2.9132323 0.57902241
16.798412 2.8960433 0.59286439
16.597523 2.8790507 0.63699681
16.590601 2.9052596 0.63220328
16.382971 2.8898094 0.66136414
16.386066 2.9188509 0.65200853
16.17878 2.9142051 0.68851846
15.993991 2.9029508 0.72182143
15.992437 2.9130187 0.71168834
15.77872 2.9069467 0.74353749
15.786535 2.9249451 0.73995411
15.583369 2.9050369 0.77704799
15.386109 2.9028544 0.78755957
15.379622 2.9140675 0.79311991
15.173788 2.8996246 0.82247537
15.183653 2.9291553 0.82999611
14.989715 2.9127493 0.85294437
14.978721 2.9278653 0.84924847
14.778682 2.9072762 0.88131857
14.782846 2.9297385 0.8727544
14.576621 2.9053338 0.90816987
14.581041 2.9349852 0.90994203
14.380424 2.9067886 0.93235892
14.376435 2.9351511 0.93651754
14.357979 2.9562745 0.94188017
14.360843 2.9713125 0.93559206
14.351199 2.9909098 0.92937082
14.35647 3.0235693 0.93736678
14.358016 3.0345876 0.94207215
14.343598 3.0538313 0.92862374
14.340589 3.0851431 0.92889434
14.344959 3.1049397 0.93848276
14.331075 3.122308 0.93882298
14.331572 3.1397531 0.94747472
14.3162 3.1628354 0.9372043
14.326162 3.1729033 0.94193226
14.30981 3.1974778 0.94622338
14.307207 3.2115006 0.94314599
14.312573 3.2312756 0.93106455
14.302617 3.2608662 0.93821049
14.299184 3.2717083 0.93665797
14.295994 3.2912107 0.93489742
14.475287 3.3658257 0.90250021
14.481907 3.3808722 0.91556233
14.477151 3.4049201 0.91172028
14.462096 3.4233315 0.91796613
14.451741 3.4498184 0.90881264
14.445649 3.4581597 0.91371405
14.456451 3.476351 0.91842902
14.455144 3.5090981 0.91277933
14.440955 3.5229521 0.91802287
14.445185 3.5381837 0.90282619
14.427626 3.5643814 0.91762811
14.425649 3.5818851 0.9072777
14.416705 3.5993469 0.90078264
14.423891 3.6264961 0.91251326
14.417295 3.6480606 0.91055167
14.401518 3.6683314 0.91675889
14.410614 3.6842313 0.9009918
14.404397 3.7036786 0.91781271
14.392502 3.7138195 0.90833545
14.385822 3.7531013 0.91394454
14.383919 3.7597632 0.90561283
14.376788 3.7894149 0.91465348
14.37928 3.7951181 0.90103126
14.355248 3.8330309 0.91444063
14.362919 3.8493993 0.90930396
14.3486 3.8550696 0.9043349
14.340462 3.8749433 0.91516942
14.336527 3.9137352 0.90536225
14.329386 3.9257956 0.90561402
14.332739 3.9363678 0.90507275
14.321673 3.9702554 0.91112608
14.322248 3.98226 0.90677088
14.311836 4.0020313 0.90806627
14.307775 4.0230746 0.9072293
14.297093 4.0371199 0.90272284
14.301248 4.0622053 0.90385622
14.49084 4.1388559 0.87683374
14.480728 4.1629357 0.87659436
14.480782 4.185317 0.88840753
14.461058 4.1965222 0.89079291
14.460765 4.2221608 0.8870734
14.446497 4.2339005 0.87537378
14.447846 4.2607827 0.88346857
14.450462 4.2891841 0.87263715
14.432214 4.2925148 0.87588948
14.42943 4.3256378 0.88427401
14.427752 4.3435841 0.87504637
14.42703 4.3571882 0.88969505
14.40604 4.3766427 0.88652962
14.396835 4.4021993 0.87438226
14.389988 4.4133172 0.8876943
14.399393 4.436049 0.87257528
14.397071 4.4660401 0.88417548
14.382814 4.4845853 0.88402283
14.3777 4.4908481 0.88705474
14.375809 4.5203214 0.88307196
14.362274 4.5341392 0.87690616
14.359485 4.5532851 0.88422346
14.351315 4.5775199 0.89088291
14.339952 4.5986567 0.88299519
14.336414 4.6190805 0.88612986
14.326161 4.6350727 0.87190974
14.320761 4.6549325 0.88760239
14.326932 4.6867557 0.88177097
14.312922 4.6997099 0.88214147
14.301918 4.7170477 0.87193346
14.494895 4.8093977 0.84749323
14.473599 4.8233066 0.85017133
14.479591 4.8354049 0.8570587
14.472216 4.8625269 0.84506631
14.456923 4.8925247 0.85349047
15.616881 -0.96685928 0.79332471
15.626305 -0.95039964 0.79185784
15.628098 -0.92605639 0.80034363
15.631929 -0.90067971 0.80218393
15.626384 -0.88842541 0.78761005
15.632677 -0.86362243 0.79461151
15.635276 -0.8394078 0.80166018
15.638984 -0.82356012 0.79184747
15.641492 -0.80890232 0.80404377
15.637636 -0.78296822 0.80472952
15.632752 -0.75754017 0.8030495
15.639656 -0.74404693 0.79602861
15.645063 -0.71008968 0.79154855
15.638925 -0.69359851 0.79064089
15.634596 -0.66392022 0.80018151
15.635664 -0.64918572 0.79271728
15.643702 -0.63305998 0.78765821
15.638758 -0.59440196 0.79663563
15.643971 -0.57438207 0.79845804
15.641351 -0.55933356 0.80440015
15.639385 -0.53025359 0.79395443
15.635709 -0.51532465 0.79518449
15.644981 -0.49601361 0.78855294
15.649743 -0.4638347 0.7965923
15.653567 -0.45694765 0.79248834
15.646901 -0.42992643 0.80129588
15.65274 -0.41576958 0.80440491
15.65349 -0.38742852 0.80434644
15.643187 -0.35471597 0.80248123
15.654675 -0.34543574 0.79383665
15.652075 -0.31890202 0.79244304
15.658998 -0.29679489 0.80414838
15.647122 -0.28613529 0.79333371
15.648583 -0.25140333 0.79286587
15.658054 -0.23350668 0.79745215
15.64339 -0.20290481 0.80722576
15.657503 -0.18706197 0.78932148
15.654695 -0.17103727 0.79792267
15.651796 -0.14585337 0.79740012
15.647003 -0.12968785 0.80432075
15.653535 -0.096598648 0.79593736
15.658643 -0.07703156 0.78782266
15.655425 -0.049756542 0.78852862
15.661363 -0.041405186 0.802127
15.646801 -0.02393817 0.79178196
15.672548 0.0014394626 0.90459049
15.672282 0.037759196 0.91700864
15.674081 0.051007047 0.90361011
15.664451 0.081124514 0.91355383
15.674267 0.1062463 0.91782105
15.670974 0.1177278 0.91333514
15.679266 0.13417538 0.90657389
15.659413 0.16729432 0.90524501
15.660236 0.18626992 0.91042465
15.674627 0.21063431 0.91122842
15.658643 0.22497369 0.91266787
15.661043 0.25906169 0.90856212
15.675832 0.27499393 0.91583937
15.677192 0.3013716 0.9113692
15.668465 0.3176721 0.91015625
15.663974 0.33081597 0.91856021
15.674967 0.35241979 0.92154747
15.659168 0.37436888 0.91578966
15.66201 0.39736912 0.90714371
15.670001 0.43501884 0.92099869
15.658765 0.45697293 0.9073301
15.668938 0.46164769 0.90588695
15.654975 0.4814612 0.91851383
15.668259 0.50301492 0.91565681
15.657042 0.5362525 0.90723926
15.664581 0.56544107 0.91010511
15.660494 0.58609474 0.91271496
15.659364 0.59145224 0.91541475
15.652445 0.6201846 0.91925639
15.65685 0.63747132 0.91889006
15.655079 0.66411626 0.918621
15.65961 0.68155879 0.92117077
15.662666 0.70569313 0.9216789
15.658319 0.72379643 0.90188664
15.651085 0.75139856 0.91347873
15.655402 0.76728648 0.91240734
15.642555 0.79986411 0.91013849
15.652287 0.81211871 0.91137719
15.644689 0.83829242 0.9194994
15.640901 0.86973917 0.90306073
15.636717 0.88031405 0.91142058
15.652233 0.8963483 0.91537786
15.650269 0.93639874 0.92162561
15.648782 0.95309222 0.90413433
15.647472 0.96357173 0.91240412
15.637725 0.99941957 0.91472226
18.222534 2.8860674 0.54999506
18.012709 2.8715565 0.56571651
18.008766 2.9077325 0.55663848
17.811226 2.8893375 0.60103762
17.614782 2.8771803 0.6141631
17.414007 2.8854167 0.64760411
17.407509 2.8970544 0.63921279
17.218666 2.8930938 0.66379827
17.011429 2.8896289 0.69782102
17.002468 2.903235 0.70490605
16.805445 2.9055715 0.72641617
16.606028 2.8973246 0.75913829
16.611099 2.9027514 0.75633371
16.411844 2.8959424 0.78824687
16.210495 2.8918197 0.8151086
16.210897 2.9209592 0.81130576
16.00308 2.8923795 0.8413974
16.001959 2.9294744 0.82945818
15.803863 2.9030414 0.84965235
15.613299 2.891129 0.87971342
15.604763 2.9173949 0.875422
15.396327 2.9070022 0.91986293
15.388896 2.9220412 0.91999549
15.203913 2.8999624 0.93112785
15.199023 2.9326215 0.94337946
14.999795 2.9120271 0.96871465
14.9914 2.9401634 0.97154087
14.792001 2.9129937 0.99568969
14.795196 2.9447336 1.0003046
14.597596 2.926116 1.0135738
14.577925 2.9415002 1.0247805
14.379642 2.9280202 1.0469888
14.373561 2.9302003 1.0361911
14.387583 2.9661913 1.0389775
14.366151 2.9813473 1.0532202
14.376943 2.9959714 1.0433577
14.366483 3.0262613 1.0407118
14.358821 3.0357494 1.0482121
14.348722 3.0524967 1.0468156
14.36321 3.0701385 1.0449433
14.344379 3.0921776 1.0381013
14.336729 3.1143222 1.036747
14.3447 3.1344545 1.0375013
14.341845 3.1527073 1.0541807
14.341748 3.1736543 1.0459564
14.335867 3.209547 1.0523022
14.320094 3.219162 1.0488894
14.321649 3.2453253 1.0349224
14.310675 3.2656269 1.037666
14.318277 3.2846823 1.038021
14.303979 3.3092012 1.0403903
14.302812 3.3103909 1.0448856
14.300261 3.3439009 1.0495011
14.298437 3.3589334 1.0523628
14.486194 3.4238088 1.0096127
14.472706 3.4419711 1.0093198
14.465535 3.4688222 1.018654
14.474924 3.4817164 1.0141698
14.470318 3.5081537 1.0100121
14.448426 3.5267375 1.0249407
14.446862 3.5555959 1.0244257
14.447639 3.5678864 1.0251443
14.432883 3.5822549 1.0194231
14.442715 3.5994556 1.0087913
14.435379 3.636168 1.0175642
14.431825 3.6441677 1.0242999
14.427949 3.6698003 1.017694
14.41338 3.6896532 1.0237961
14.414298 3.7097592 1.0161562
14.411031 3.7328618 1.0269278
14.402663 3.7393157 1.0263921
14.393754 3.7714908 1.0179883
14.385534 3.7938821 1.0238013
14.391565 3.811105 1.0266703
14.386937 3.8260212 1.0261139
14.371054 3.8424389 1.0134263
14.361877 3.8600659 1.0262477
14.366068 3.8882356 1.0188055
14.356332 3.9024642 1.0113598
14.358929 3.9185939 1.0269146
14.352268 3.9515531 1.0088285
14.345045 3.9608269 1.0228299
14.32939 3.9871337 1.0191424
14.33952 4.0047526 1.0126047
14.33249 4.0230517 1.0209177
14.324877 4.0508037 1.0255905
14.304547 4.0747437 1.0278395
14.297012 4.0882668 1.0182154
14.302007 4.1174746 1.0227844
14.299527 4.134727 1.0234549
14.482972 4.2059655 0.99050587
14.477829 4.2205806 0.99337655
14.46666 4.2450724 0.98254937
14.471773 4.2652535 0.98934394
14.450321 4.2839937 0.99444813
14.457154 4.3007355 0.98732269
14.448632 4.3227921 0.984164
14.442331 4.3429842 0.99456269
14.426378 4.3738699 0.99421126
14.434965 4.3880033 0.99116248
14.424195 4.4009399 0.98424071
14.407006 4.4345927 0.99173456
14.412661 4.4429631 0.98352891
14.407458 4.4623642 0.99532169
14.389024 4.4862576 0.98567969
14.395665 4.5029564 0.9926132
14.375153 4.5171332 1.0014451
14.371454 4.5510378 0.99031961
14.378126 4.5750451 0.98993868
14.364418 4.5937247 0.98355883
14.347633 4.6077466 0.98999113
14.3439 4.6307206 0.98996067
14.347631 4.6455178 0.99819392
14.343129 4.6613097 0.98572969
14.330393 4.6848922 0.99706918
14.327986 4.7013688 0.9850266
14.312484 4.7236137 0.98708898
14.305787 4.7484689 0.98299235
14.307937 4.7663326 0.9828487
14.477684 4.839685 0.97478032
14.472929 4.8600764 0.96725589
14.474578 4.8831544 0.96267784
15.639855 -0.96902269 0.92039007
15.633329 -0.95481098 0.91632187
15.649773 -0.94245428 0.92022389
15.647744 -0.91592765 0.91377115
15.638351 -0.89077222 0.92109478
15.636268 -0.85914588 0.90358442
15.648241 -0.84964693 0.90402544
15.653567 -0.8178944 0.90827376
15.640176 -0.7934587 0.90928352
15.650514 -0.77891403 0.90642017
15.652352 -0.7662102 0.90356874
15.651931 -0.74139297 0.91310656
15.647409 -0.72146237 0.9131766
15.646761 -0.68485886 0.91794717
15.659628 -0.67891729 0.90604514
15.659789 -0.65629804 0.9039396
15.662409 -0.62291288 0.90950161
15.665439 -0.60537922 0.90498298
15.652687 -0.58238411 0.90306532
15.660914 -0.57016808 0.91385597
15.666248 -0.53719938 0.91551256
15.668699 -0.52570856 0.920147
15.660659 -0.49976376 0.90287125
15.652657 -0.47546309 0.92035675
15.669395 -0.45925936 0.90194017
15.654202 -0.42382896 0.90429789
15.656871 -0.40668225 0.91819453
15.665072 -0.38737828 0.90777743
15.668725 -0.36166877 0.91850668
15.670429 -0.34854403 0.91960222
15.662893 -0.31086743 0.91181552
15.676983 -0.29149044 0.91366762
15.675677 -0.28087533 0.91961145
15.677065 -0.25895199 0.90800196
15.675908 -0.24095 0.91074121
15.676304 -0.21877141 0.90705502
15.659027 -0.1945218 0.91865879
15.675616 -0.16263917 0.907709
15.661757 -0.14764221 0.92061043
15.678597 -0.13144861 0.90477753
15.676502 -0.10326778 0.90476149
15.666591 -0.081443146 0.90226209
15.6785 -0.061340325 0.90851682
15.676323 -0.040235117 0.91483337
15.662506 -0.020642065 0.91728979
15.686313 0.0019241142 1.0345666
15.691483 0.024038071 1.0197258
15.688228 0.06247754 1.0349042
15.693992 0.066825338 1.023216
15.692626 0.087810703 1.0258573
15.675397 0.12652913 1.0348152
15.678122 0.13519385 1.0237333
15.678316 0.15565696 1.0308894
15.684734 0.19386224 1.0172861
15.677439 0.19820014 1.0214108
15.69257 0.23140986 1.023335
15.690442 0.24980518 1.0254873
15.673443 0.26498979 1.0241933
15.691592 0.28601393 1.0253615
15.678022 0.3257789 1.0256296
15.687063 0.32845181 1.0227308
15.685032 0.35401657 1.0266117
15.671887 0.37997374 1.0290707
15.685869 0.41257799 1.0278504
15.686216 0.41814581 1.0290838
15.670658 0.43913364 1.0216432
15.676993 0.47831392 1.0307144
15.685451 0.50084585 1.0330874
15.672583 0.52190775 1.0346019
15.680853 0.52981144 1.0339996
15.669361 0.547198 1.0341889
15.674939 0.58302546 1.0180624
15.664369 0.60621166 1.026013
15.676226 0.62391287 1.0246887
15.666832 0.64252561 1.0270537
15.678641 0.66617459 1.0285289
15.662979 0.69678402 1.0273076
15.676358 0.716506 1.0267423
15.67208 0.72404665 1.025364
15.669285 0.76057416 1.0300153
15.665857 0.76635653 1.0301803
15.662589 0.79849499 1.0243009
15.663163 0.82087022 1.0197369
15.671658 0.83594126 1.0310044
15.658796 0.86248785 1.0190161
15.668271 0.88174331 1.0288098
15.659189 0.90626699 1.0273468
15.648856 0.92513001 1.0237414
15.657928 0.94070524 1.0258133
15.64559 0.97450727 1.0225509
15.657873 0.98593372 1.0232105
18.232174 2.8792479 0.66957474
18.029261 2.8804934 0.69792652
18.035574 2.9000285 0.69586521
17.836327 2.9007528 0.72185081
17.63262 2.8856382 0.74398053
17.44121 2.8915365 0.77382982
17.439186 2.896862 0.77873617
17.221155 2.8963981 0.79204422
17.030376 2.8800797 0.81650054
17.018223 2.9145496 0.8218506
16.818087 2.9091723 0.85235733
16.623262 2.9003141 0.86983758
16.627195 2.9154193 0.87657595
16.43363 2.8967414 0.89570791
16.221006 2.8936729 0.92683804
16.220776 2.9134583 0.92642224
16.029995 2.8999684 0.95211625
16.019396 2.9231873 0.96073329
15.821806 2.9194918 0.96718961
15.623632 2.9071276 1.0043539
15.605937 2.9100547 1.0009109
15.418603 2.9010718 1.0241494
15.418667 2.9164181 1.0341852
15.210535 2.9004917 1.041913
15.211352 2.9282539 1.0532753
15.003362 2.922096 1.066896
15.009777 2.9419317 1.074559
14.802055 2.91695 1.1081979
14.797668 2.9316111 1.1065028
14.600014 2.9284573 1.1315739
14.609026 2.950187 1.1326724
14.40009 2.9243059 1.1447469
14.403786 2.9416206 1.1455519
14.39749 2.9697871 1.1461082
14.393785 2.9828289 1.1532034
14.381413 3.0067661 1.150646
14.377525 3.0211833 1.1469846
14.381272 3.046665 1.1556741
14.373521 3.0718284 1.158368
14.364046 3.0780206 1.1560674
14.354506 3.0972967 1.1551229
14.366036 3.1262136 1.1472831
14.364504 3.1429002 1.1566672
14.343748 3.157393 1.1541336
14.343521 3.1923099 1.1445622
14.350361 3.1990137 1.158855
14.334616 3.2260153 1.1474975
14.335181 3.240978 1.1615603
14.324409 3.2724314 1.160731
14.316301 3.2786803 1.1460443
14.325866 3.2996867 1.1505898
14.314458 3.3165488 1.1440146
14.315182 3.3362322 1.1540947
14.305263 3.3595417 1.1586419
14.292782 3.3870335 1.1580869
14.290702 3.4058027 1.1442225
14.282887 3.4132919 1.1573528
14.476605 3.4922256 1.1203361
14.471375 3.5187912 1.1198876
14.465287 3.5217984 1.1257
14.464484 3.5589468 1.1325371
14.468199 3.5692921 1.1362612
14.44531 3.5849938 1.1196998
14.452473 3.6154368 1.1264858
14.444156 3.6380868 1.1208078
14.435254 3.6433728 1.1339499
14.432461 3.6655874 1.1346389
14.42277 3.6933732 1.1279399
14.421143 3.7007926 1.1276081
14.419039 3.7270164 1.1300918
14.422719 3.7573583 1.1295391
14.413209 3.7763631 1.1191537
14.407394 3.797456 1.1242993
14.404991 3.8107169 1.1197237
14.389345 3.8406932 1.1176412
14.387994 3.8468294 1.1206949
14.379756 3.8752615 1.1258203
14.372179 3.8991196 1.1185957
14.377875 3.906496 1.1186621
14.363213 3.9369423 1.1248312
14.351005 3.9562709 1.1212279
14.358216 3.9713187 1.1365227
14.355014 3.9858098 1.1328111
14.336929 4.0031829 1.1222683
14.334242 4.0302238 1.1216171
14.329444 4.0612545 1.1270251
14.327672 4.0694175 1.1207956
14.310997 4.0954013 1.1183619
14.307069 4.1125069 1.1232501
14.303181 4.1404023 1.1185375
14.305432 4.1615715 1.1331141
14.304054 4.1754613 1.1227069
14.488365 4.2474413 1.1016576
14.478436 4.2714133 1.1030744
14.477936 4.2782912 1.111524
14.456756 4.3059916 1.1110038
14.460956 4.3375683 1.0986538
14.458899 4.3581471 1.0923026
14.454379 4.3605032 1.1030803
14.434719 4.3847022 1.1017846
14.43032 4.416914 1.1016973
14.420468 4.4335351 1.0955476
14.420181 4.4498601 1.1056788
14.423925 4.4621773 1.0995802
14.40906 4.4799438 1.1001654
14.402615 4.5025086 1.1082653
14.395621 4.5352802 1.107765
14.39625 4.5520282 1.1076746
14.3905 4.5703192 1.1097796
14.375499 4.5950408 1.0959321
14.379174 4.6014814 1.0941532
14.362735 4.624217 1.1088604
14.360118 4.6528401 1.0997664
14.347603 4.6714115 1.1028723
14.348963 4.6813469 1.1036359
14.330879 4.7110963 1.1068647
14.340867 4.720139 1.1027734
14.330328 4.7561259 1.0953475
14.31967 4.7727051 1.1061391
14.311089 4.7806544 1.1015878
14.308633 4.8186779 1.1034213
14.492379 4.8901052 1.0828344
15.66111 -0.97157633 1.0352879
15.651211 -0.95994473 1.0216423
15.665675 -0.93190509 1.0242175
15.655787 -0.90403181 1.0282179
15.662872 -0.89958096 1.0286196
15.657085 -0.87373191 1.0330632
15.655194 -0.83922696 1.0222644
15.653855 -0.83157212 1.0282468
15.654115 -0.79854304 1.0353754
15.665066 -0.78830862 1.0201373
15.674519 -0.74921495 1.0356715
15.674491 -0.74138212 1.0209939
15.660788 -0.72041655 1.032511
15.669628 -0.6906395 1.0300543
15.662439 -0.67504704 1.0301996
15.675621 -0.64648145 1.0343435
15.673217 -0.62101597 1.03114
15.679982 -0.5980683 1.0337374
15.6727 -0.57600898 1.0275084
15.672516 -0.5641163 1.0296565
15.677063 -0.54385847 1.0290397
15.677114 -0.52468497 1.0343957
15.682456 -0.5002414 1.0188555
15.679285 -0.46795267 1.0312293
15.673627 -0.44381836 1.0173311
15.688084 -0.4274368 1.0301328
15.686654 -0.41436455 1.0265329
15.68199 -0.3954004 1.0240123
15.679893 -0.36456203 1.0216818
15.671535 -0.33472094 1.0293732
15.685297 -0.32111517 1.0354507
15.678411 -0.30821061 1.0188289
15.676849 -0.27068475 1.0247767
15.679717 -0.25702068 1.0211384
15.674929 -0.2296751 1.0197587
15.676211 -0.20850277 1.0328839
15.690265 -0.18935987 1.0172038
15.680689 -0.17544995 1.0186095
15.68856 -0.14417565 1.0289744
15.694072 -0.121766 1.0273005
15.687243 -0.10607284 1.0173519
15.686462 -0.077712998 1.0184265
15.689029 -0.051330652 1.0351454
15.677513 -0.042466063 1.0236459
15.682328 -0.018745454 1.0176091
15.501216 0.0088376654 1.16913
15.497711 0.027017932 1.1596413
15.498496 0.055357743 1.1621783
15.500657 0.071336545 1.174105
15.493153 0.092623666 1.1665567
15.503943 0.12691045 1.1728164
15.504756 0.14027436 1.1655507
15.506614 0.15609352 1.1627818
15.505158 0.18031576 1.1669919
15.492175 0.20930281 1.1730369
15.493124 0.22167495 1.1618745
15.507295 0.25055727 1.1672643
15.491946 0.26026964 1.1593659
15.499105 0.2922177 1.1658182
15.49816 0.31676626 1.1719297
15.489637 0.33224145 1.1707004
15.487344 0.34869453 1.1612074
15.497754 0.38720027 1.1659064
15.505366 0.40447733 1.1732006
15.497157 0.42902619 1.1678554
15.693481 0.44035497 1.1495975
15.700088 0.46090308 1.1422546
15.692052 0.48644954 1.1429988
15.696088 0.51953131 1.1340661
15.686545 0.53207517 1.1480577
15.683084 0.55653274 1.1359007
15.698362 0.57916373 1.1385739
15.684118 0.59270227 1.1381303
15.694542 0.61437947 1.1333421
15.692228 0.64840537 1.1314819
15.68454 0.66082489 1.1337854
15.682221 0.68047571 1.1347406
15.69253 0.71274751 1.1393466
15.683551 0.72974187 1.1351398
15.685609 0.75791103 1.1415832
15.681628 0.78336644 1.1505916
15.68546 0.80487877 1.1403395
15.671935 0.81295502 1.1417354
15.677936 0.83229411 1.1429193
15.679117 0.8701902 1.136241
15.678408 0.88129801 1.1400954
15.679972 0.91101801 1.141715
15.66246 0.93200737 1.1337223
15.669524 0.94501007 1.140841
15.672351 0.98109353 1.1342473
15.661591 0.99424922 1.1312292
18.252415 2.8789876 0.81834453
18.045511 2.8722386 0.8323015
17.84947 2.8666124 0.85349745
17.85541 2.9009485 0.86246973
17.659376 2.895227 0.8902337
17.443899 2.8898683 0.90893275
17.451092 2.9141049 0.89912039
17.249779 2.8942406 0.92991155
17.038651 2.8830638 0.95918828
17.038679 2.9217224 0.95312703
16.835453 2.9002063 0.97934139
16.6343 2.8913977 1.0045403
16.639133 2.9203181 1.0067412
16.445892 2.9047039 1.0220253
16.24169 2.8925536 1.0387071
16.237139 2.9193978 1.0540438
16.032164 2.9021559 1.0729287
15.837444 2.8829751 1.100453
15.825259 2.9078314 1.1021987
15.623379 2.900629 1.1224784
15.63074 2.9258385 1.1074715
15.425445 2.9129543 1.1377542
15.416893 2.9253366 1.1500795
15.235434 2.9069161 1.1617197
15.220699 2.9408174 1.1693739
15.023986 2.9164491 1.1848743
14.822686 2.906064 1.2157855
14.811557 2.9181514 1.2170619
14.629451 2.9035139 1.2447591
14.623929 2.924644 1.2356292
14.420295 2.8980625 1.2535574
14.416386 2.9242871 1.2498059
14.419072 2.9460135 1.2569108
14.414057 2.9654422 1.261287
14.396995 2.9941993 1.2583221
14.407558 3.0053079 1.267509
14.389936 3.0341046 1.2633811
14.379539 3.035816 1.2506598
14.39039 3.0743077 1.2611989
14.385252 3.0913255 1.2524707
14.370955 3.1034906 1.255886
14.370901 3.1157959 1.2654117
14.367067 3.1548655 1.2565553
14.370311 3.1730251 1.267025
14.357902 3.1782563 1.2661546
14.3625 3.1982129 1.2563016
14.356257 3.2247374 1.25516
14.345859 3.2450821 1.25565
14.34271 3.2605236 1.2545583
14.330074 3.2951005 1.2504168
14.328682 3.2996829 1.2583785
14.330676 3.3285403 1.2585899
14.322168 3.3379219 1.2578214
14.324777 3.3749316 1.2551692
14.317826 3.3839462 1.2577107
14.309978 3.4020007 1.2601779
14.312249 3.4182816 1.2691445
14.29335 3.4486613 1.2584374
14.294914 3.4604185 1.2631595
14.295358 3.484092 1.2624524
14.484529 3.5581894 1.2426697
14.468671 3.571924 1.23541
14.472997 3.6017873 1.2375449
14.456525 3.6189234 1.2367096
14.457374 3.6338017 1.2449152
14.460735 3.6455517 1.2312082
14.446536 3.6643207 1.2338217
14.441276 3.6889665 1.2268612
14.44528 3.7199795 1.2317108
14.433978 3.736268 1.2402936
14.421941 3.7536902 1.2358046
14.413751 3.7802076 1.244854
14.418274 3.796032 1.2435778
14.404903 3.8203948 1.2392557
14.410669 3.8306434 1.2296367
14.404613 3.8493197 1.2315997
14.384821 3.8788905 1.2321707
14.387615 3.8883226 1.2372339
14.383421 3.906909 1.2331635
14.384048 3.9393713 1.2452421
14.37323 3.9650028 1.2346109
14.357895 3.9676788 1.2303724
14.371581 4.0001397 1.2418407
14.363963 4.0245204 1.2375617
14.351995 4.0399857 1.2434287
14.35038 4.0547414 1.2278768
14.330701 4.0750794 1.2418079
14.331564 4.1036143 1.2450912
14.337462 4.1133852 1.2268881
14.319263 4.1292419 1.2410823
14.313113 4.1597662 1.2408506
14.316305 4.1804705 1.2432454
14.295231 4.2004027 1.2380592
14.305596 4.2182875 1.2372196
14.482093 4.286139 1.2081605
14.473912 4.3019309 1.2174968
14.470152 4.3236966 1.2071607
14.460294 4.3520079 1.205357
14.453691 4.3719268 1.2133293
14.448856 4.3993835 1.2171713
14.438189 4.4064565 1.2115594
14.447261 4.4425144 1.2066808
14.4387 4.4433188 1.2217722
14.424924 4.4803381 1.214794
14.430281 4.4892936 1.2193849
14.410209 4.5160513 1.219564
14.419445 4.5250597 1.2213137
14.398317 4.5502496 1.2111875
14.395357 4.5749049 1.2208019
14.400342 4.600822 1.2177031
14.38914 4.6221952 1.2215159
14.372299 4.6387925 1.2212338
14.370551 4.6530094 1.2216121
14.363867 4.6796584 1.2188742
14.350176 4.6979008 1.2049645
14.361048 4.7223358 1.2176945
14.352071 4.7422996 1.2193235
14.344816 4.7474556 1.2060423
14.327407 4.776001 1.2173247
14.319585 4.795907 1.2144415
14.308636 4.8110166 1.2128576
14.321471 4.8357167 1.2078065
14.313996 4.84513 1.216916
15.667182 -0.96874505 1.1414434
15.664354 -0.9639225 1.1381323
15.67441 -0.93052137 1.1453028
15.66453 -0.91388887 1.1430436
15.667249 -0.88306057 1.1382093
15.679827 -0.8679105 1.1431388
15.674748 -0.85212505 1.1425942
15.673676 -0.83036542 1.1456851
15.672867 -0.80181819 1.1312778
15.680696 -0.77725768 1.1361146
15.6703 -0.76612347 1.1353666
15.681818 -0.73917896 1.1375784
15.689995 -0.72351164 1.1313263
15.685312 -0.69902617 1.1398402
15.678339 -0.6730926 1.1373141
15.686502 -0.65582216 1.1480677
15.679563 -0.62484002 1.132735
15.692049 -0.59610957 1.1372883
15.687595 -0.58933812 1.1485137
15.688704 -0.55585682 1.1424228
15.694619 -0.53385985 1.1455878
15.699755 -0.52140194 1.1338176
15.687073 -0.50179434 1.1358333
15.688107 -0.46786648 1.1404518
15.697626 -0.46187761 1.1491199
15.684587 -0.42866209 1.133173
15.503747 -0.39798588 1.1699799
15.486061 -0.38127995 1.169971
15.492898 -0.36987171 1.1548444
15.490931 -0.3381685 1.1713089
15.502842 -0.32133365 1.1678789
15.497888 -0.30011511 1.1550143
15.501134 -0.2723012 1.1598638
15.506365 -0.24414396 1.1567469
15.496184 -0.22712949 1.1577232
15.494641 -0.20378405 1.1700188
15.497122 -0.18335399 1.1657888
15.492721 -0.16117206 1.156644
15.50828 -0.15268503 1.1572857
15.508682 -0.12666753 1.1680084
15.50552 -0.1092105 1.173943
15.498897 -0.077148966 1.1594725
15.499378 -0.0622533 1.1711917
15.50468 -0.04250782 1.1694432
15.506834 -0.013294018 1.1630841
15.523007 0.016926596 1.2717028
15.518369 0.026484355 1.2858671
15.50947 0.051380005 1.2805868
