# .PCD v0.7 - Point Cloud Data file format
VERSION 0.7
FIELDS x y z
SIZE 4 4 4
TYPE F F F
COUNT 1 1 1
WIDTH 1535
HEIGHT 1
VIEWPOINT 0 0 0 1 0 0 0
POINTS 1535
DATA ascii
6.8607283 -3.069217 0.25423712
6.8652687 -3.0474343 0.2509672
6.8708153 -3.054013 0.23906985
6.873899 -3.0365441 0.25529349
6.8671832 -3.0209792 0.25057447
6.8905029 -3.0256181 0.24717852
6.8884187 -2.9991708 0.25489384
6.882 -3.0026858 0.2451847
7.0640721 -3.0650632 0.175404
7.0619984 -3.0596731 0.18116589
7.07161 -3.0391474 0.18616581
7.0715909 -3.0383613 0.18338111
7.0882883 -3.0162952 0.18444461
7.0930743 -3.015398 0.17339779
7.0940704 -3.0054562 0.1883309
7.0903339 -2.9964209 0.18903418
7.276113 -3.0466936 0.1175506
7.2767696 -3.0543323 0.10198642
7.287703 -3.0361841 0.109374
7.2778788 -3.0243862 0.11229694
7.2938023 -3.0072403 0.10588467
7.2947116 -3.0143628 0.11039168
7.2928219 -2.9890239 0.10709228
3.8092191 -4.9064445 0.77694583
3.8126984 -4.8943577 0.77773029
3.8270469 -4.8998966 0.77929157
3.8288863 -4.8790345 0.76812744
3.8320818 -4.8734121 0.76819777
3.8467944 -4.8783622 0.77038175
3.8528574 -4.8741541 0.77596307
3.8608637 -4.866683 0.77128083
3.8580892 -4.8669043 0.77384621
3.882972 -4.8507428 0.78576452
3.8773296 -4.8385687 0.77008188
3.8939507 -4.8497591 0.78117228
3.8913486 -4.8334365 0.7814005
3.9103003 -4.8221035 0.77715755
3.8980803 -4.8343959 0.77319461
3.9059229 -4.818789 0.77892971
3.915942 -4.8239255 0.78351122
3.9315348 -4.8078542 0.7701928
3.823509 -4.6554799 0.83893609
3.816766 -4.6510415 0.85078746
3.821934 -4.6390214 0.84941316
3.8314118 -4.6371498 0.85143965
3.8319726 -4.6446409 0.84437001
3.8527541 -4.6399345 0.84320575
3.8492854 -4.6341944 0.84431183
3.861846 -4.6273499 0.83557779
3.8601344 -4.6172171 0.83625126
3.8829966 -4.6182156 0.84753042
3.8725328 -4.5950265 0.83984017
3.8831413 -4.6050849 0.8512705
3.8855937 -4.5964723 0.84939319
3.9066641 -4.5848722 0.84405154
3.9097536 -4.5791931 0.84587306
3.9057658 -4.5792074 0.84704661
3.9206059 -4.5691576 0.84859699
3.9165447 -4.5730071 0.8516193
3.9237418 -4.565021 0.83939248
3.8088484 -4.4179549 0.90844047
3.8277838 -4.4106236 0.90761435
3.8190215 -4.3991137 0.91132122
3.841682 -4.3915744 0.91822278
3.8424578 -4.3893795 0.91129827
3.8378844 -4.3905025 0.90461725
3.855125 -4.3820128 0.91247755
3.8535318 -4.3850756 0.90493393
3.8734815 -4.3785844 0.90807843
3.8764458 -4.3712726 0.91373789
3.8671758 -4.3624673 0.91832101
3.8792827 -4.3608899 0.90491778
3.8905561 -4.3542295 0.91769803
3.8855286 -4.3510566 0.91268301
3.9073951 -4.3332481 0.90451962
3.9023297 -4.3261461 0.90988129
3.9105756 -4.3279285 0.91837174
3.9266741 -4.3174224 0.91843051
3.9352214 -4.3130765 0.91960323
3.9269056 -4.3118696 0.90270132
3.8175502 -4.1668487 0.97687346
3.8192673 -4.1551652 0.97955662
3.827574 -4.158289 0.98348832
3.8286533 -4.152513 0.98517287
3.8247104 -4.1509361 0.97923708
3.8325965 -4.1404824 0.97496635
3.8458369 -4.1278334 0.98346746
3.8475602 -4.1251287 0.9770208
3.8493347 -4.1199117 0.98945713
3.8722744 -4.1090379 0.97762942
3.8783047 -4.1068482 0.98616397
3.8708363 -4.1087594 0.98107141
3.8860433 -4.1081743 0.98753631
3.8851745 -4.0923128 0.97444999
3.8859828 -4.0861907 0.97760552
3.9008474 -4.0779705 0.98587132
3.9114339 -4.0822906 0.98143476
3.9105141 -4.0706611 0.97434366
3.9231398 -4.0630226 0.98710209
3.9281943 -4.0582032 0.98535872
3.9214137 -4.0531039 0.98042154
3.9231596 -4.0612168 0.98818183
3.9398055 -4.0398588 0.97112757
3.8118138 -3.9100578 1.0521904
3.8216348 -3.9003925 1.0462967
3.8146036 -3.9015758 1.0431995
3.8358307 -3.8978786 1.0503504
3.8326139 -3.8807998 1.0436913
3.8422987 -3.876786 1.039223
3.8447342 -3.8734007 1.0541188
3.8454189 -3.8624718 1.0486503
3.8611591 -3.8554647 1.0495974
3.8646522 -3.8574722 1.0464234
3.8710833 -3.8620291 1.0525235
3.8709061 -3.8422217 1.0429769
3.8848279 -3.8348947 1.0469273
3.8756447 -3.8317823 1.0492479
3.893605 -3.8373208 1.0433125
3.8848987 -3.8186018 1.0560488
3.8917165 -3.8228664 1.0468203
3.9134223 -3.8118582 1.0431633
3.9096522 -3.8105145 1.0411482
3.9068217 -3.8110747 1.0517532
3.9208095 -3.7905934 1.0524211
3.9208896 -3.795671 1.0475087
3.9314156 -3.7922015 1.044528
3.9258842 -3.783282 1.0392572
3.9426661 -3.7817616 1.0430374
3.8177769 -3.6439171 1.1077827
3.8211622 -3.6351712 1.1151747
3.8153117 -3.6300561 1.108142
3.8257968 -3.6340408 1.1170131
3.8342593 -3.626178 1.1198764
3.8333192 -3.6096416 1.1177661
3.8330398 -3.6183314 1.1251158
3.8478403 -3.6017945 1.110465
3.8596528 -3.5960801 1.1192566
3.8461869 -3.5988679 1.1240839
3.8564939 -3.5960929 1.1108813
3.8638749 -3.5750191 1.121115
3.8786404 -3.5848751 1.1111466
3.8663659 -3.5693176 1.1118697
3.8829548 -3.5703619 1.1151246
3.8823996 -3.5574028 1.1095779
3.8997264 -3.549773 1.1099961
3.9043953 -3.5523841 1.121599
3.8944058 -3.5482173 1.113557
3.9132004 -3.5425432 1.1173611
3.9168148 -3.5315819 1.1185668
3.9072189 -3.5182512 1.1154659
3.9278491 -3.5151594 1.1171218
3.918503 -3.5093393 1.108941
3.9298728 -3.5119197 1.1143144
3.9444897 -3.5000372 1.1072387
3.933552 -3.4958022 1.1223775
3.9430251 -3.4918652 1.1094831
3.9440935 -3.4828765 1.1153264
3.8162177 -3.3552635 1.1890712
3.8128586 -3.3539586 1.180671
3.8306978 -3.3471866 1.1801516
3.8254287 -3.3447134 1.1772671
3.8418081 -3.3365076 1.174739
3.8299992 -3.3418458 1.1841601
3.8435564 -3.3174736 1.1799862
3.8500299 -3.3289373 1.1745633
3.8516352 -3.3158193 1.1875862
3.8603387 -3.3065159 1.1840997
3.8548777 -3.3090696 1.1779399
3.8554904 -3.2996764 1.1877701
3.8676956 -3.2971303 1.1790514
3.8793738 -3.2845323 1.1874779
3.8881598 -3.2802267 1.178776
3.8744104 -3.2723939 1.1793948
3.8900743 -3.2756608 1.1790386
3.901557 -3.2771032 1.1818646
3.887609 -3.2615819 1.1924485
3.9066765 -3.2619917 1.1869686
3.9022498 -3.2524893 1.1735616
3.9116557 -3.2469933 1.1841681
3.9108844 -3.2339041 1.1919343
3.9213865 -3.2337408 1.1869059
3.9203076 -3.2293882 1.180784
3.9305193 -3.2233744 1.1770893
3.9413421 -3.2262783 1.1847157
3.9318011 -3.2222736 1.1854814
3.9450784 -3.2167835 1.1763436
3.9489317 -3.1967847 1.1813647
3.9472976 -3.2057643 1.1904507
3.8060873 -3.0713134 1.2472525
3.8214719 -3.0609424 1.2440296
3.8246155 -3.0645983 1.2555137
3.8227229 -3.0538542 1.2458873
3.8347011 -3.0574121 1.2568054
3.8229773 -3.0546532 1.2593442
3.8388724 -3.0459337 1.260406
3.8355258 -3.0284276 1.2414697
3.8430336 -3.0315514 1.2570379
3.8555553 -3.0207844 1.2581258
3.8571553 -3.0095341 1.2495896
3.8478863 -3.0071938 1.2461152
3.8553867 -3.0059974 1.2536701
3.8743639 -3.010973 1.2466482
3.8637071 -2.9882429 1.2507415
3.8639607 -3.0015018 1.2522608
4.0355196 -3.0983968 1.1894972
4.0395193 -3.0874069 1.1865585
4.0445757 -3.0931513 1.1751454
4.0451918 -3.0906091 1.1891425
4.0468879 -3.0706942 1.1890274
4.0400405 -3.0842686 1.1858841
4.0497103 -3.0745547 1.1785631
4.0669274 -3.0700688 1.180886
4.0571146 -3.0604374 1.180553
4.0713873 -3.0547421 1.1815692
4.0671711 -3.0504441 1.1755664
4.0678473 -3.0464818 1.174942
4.0855765 -3.0417912 1.1829556
4.0918851 -3.0208046 1.1878878
4.0921826 -3.022434 1.1871051
4.0923572 -3.0152152 1.1871126
4.0893807 -3.0026231 1.1911922
4.0990748 -2.9971025 1.1741099
4.111084 -3.0056753 1.1810057
4.1027527 -3.0042486 1.187937
4.2673631 -3.1023777 1.1058372
4.2741838 -3.0928006 1.1096916
4.2803717 -3.0897431 1.112559
4.2745647 -3.0846181 1.1107295
4.2736816 -3.0834286 1.1215814
4.2920079 -3.0662899 1.1139567
4.2903333 -3.0563447 1.113223
4.2927294 -3.0609148 1.1123028
4.2980356 -3.0576768 1.1170968
4.3102288 -3.0469637 1.1175987
4.3093448 -3.0477595 1.1253217
4.3140163 -3.0260673 1.1166792
4.3225341 -3.0225108 1.1251453
4.3139105 -3.0290768 1.1127816
4.3234496 -3.0208335 1.1156464
4.3238316 -3.0185628 1.1096832
4.3365808 -3.0022581 1.1076919
4.3285875 -3.0078392 1.1151518
4.3396659 -2.9923885 1.1198649
4.4903564 -3.0960162 1.0416366
4.5068631 -3.0775628 1.0442792
4.5110841 -3.0786867 1.0426114
4.5066533 -3.0755334 1.0384914
4.5106802 -3.0652356 1.0417905
4.5223346 -3.0696228 1.0473126
4.5168452 -3.057843 1.0490788
4.5253835 -3.0575209 1.0411177
4.5319214 -3.0493906 1.0415372
4.5459108 -3.0343716 1.0513632
4.5446048 -3.0276706 1.0385177
4.5527244 -3.0287857 1.0378534
4.5434785 -3.0099936 1.049787
4.5525556 -3.0199366 1.03859
4.5575037 -3.0101492 1.0514005
4.565742 -2.9929945 1.0535278
4.559494 -2.9856083 1.0411328
4.732326 -3.0972548 0.97508812
4.7400093 -3.0831029 0.97852349
4.7481027 -3.0792139 0.97065765
4.7460127 -3.0608742 0.98316681
4.7510681 -3.0586488 0.98822922
4.7554502 -3.0498953 0.98574603
4.7517567 -3.0562813 0.98697597
4.7568564 -3.0419269 0.97164387
4.7547579 -3.0435331 0.98711085
4.7747769 -3.0355773 0.98360282
4.782392 -3.0162938 0.98538238
4.7716165 -3.0136437 0.97472107
4.7842674 -3.0072074 0.98135006
4.7890429 -3.007159 0.97971392
4.7863183 -2.9863439 0.97369224
4.9480987 -3.0854104 0.92214376
4.9480743 -3.0922341 0.90525007
4.9692698 -3.0782189 0.91608202
4.9751239 -3.070554 0.91867328
4.9764352 -3.0671124 0.90257949
4.9742289 -3.0602889 0.91912264
4.9737921 -3.0484645 0.91166347
4.9826846 -3.0482042 0.90398228
4.9781966 -3.0273736 0.90968531
4.9920626 -3.0334635 0.90953338
4.999897 -3.0214119 0.90362287
5.0038371 -3.0137014 0.90398395
5.0108733 -3.0091026 0.91144967
5.0087323 -3.0029473 0.91966355
5.0091724 -2.9997687 0.90439653
5.1750197 -3.0796974 0.84136087
5.1760244 -3.0674829 0.85087854
5.1895599 -3.0706351 0.85371602
5.1954041 -3.0625241 0.8504377
5.1869416 -3.0447869 0.85411698
5.1983166 -3.0434446 0.84288973
5.2037711 -3.0423825 0.85240859
5.2095766 -3.0384941 0.83955622
5.2028379 -3.0209477 0.84588313
5.2243028 -3.0071518 0.84840679
5.2304902 -3.0132005 0.84063661
5.2212954 -3.0025504 0.83786172
5.2216082 -3.0026608 0.84470969
5.3879862 -3.074888 0.78477377
5.4079685 -3.0659506 0.78300154
5.4116197 -3.0699039 0.77532834
5.4040332 -3.0526578 0.78146821
5.4059548 -3.0538516 0.78424132
5.4150133 -3.0460198 0.7773
5.4303885 -3.0409482 0.77688766
5.4282765 -3.0339038 0.78315395
5.4383841 -3.0202591 0.77279168
5.4257064 -3.0104961 0.77503455
5.4398656 -3.0017774 0.77143502
5.4417419 -2.9973814 0.7692486
5.4418359 -2.993629 0.77557886
5.6191568 -3.0724444 0.70395529
5.6178222 -3.0626841 0.71125919
5.6192498 -3.0481277 0.7188468
5.6337256 -3.0424485 0.7039519
5.6277776 -3.0431228 0.7085411
5.6480851 -3.037921 0.71920919
5.6380196 -3.0296175 0.71206826
5.6501856 -3.0113649 0.70606816
5.6587415 -3.0154352 0.71688032
5.6650996 -3.0036008 0.70385545
5.6577768 -3.003535 0.71511704
5.832768 -3.0772517 0.64064378
5.8288903 -3.0654376 0.64055282
5.8325887 -3.0634203 0.63829744
5.8413811 -3.0516121 0.64751828
5.8547511 -3.0437467 0.63408554
5.858778 -3.0301864 0.6410948
5.8556523 -3.0286882 0.63848943
5.8665152 -3.0228519 0.64394039
5.8681788 -3.0148637 0.63334662
5.8768063 -2.9983935 0.63493371
5.8766842 -2.9974012 0.64306718
6.0373592 -3.0701728 0.56722206
6.0504327 -3.0577071 0.57292283
6.0612388 -3.0607226 0.58229083
6.0612545 -3.05463 0.57137734
6.0678253 -3.0287619 0.56587136
6.0613933 -3.0302584 0.57370472
6.0723443 -3.02512 0.57920974
6.0687346 -3.0025344 0.56453234
6.0745192 -2.9955266 0.57814866
6.0818791 -2.9928353 0.56457484
6.2461581 -3.0645108 0.50796741
6.2535625 -3.0639265 0.50306106
6.266655 -3.0568144 0.50670499
6.2691035 -3.0339537 0.50800121
6.2806268 -3.0287769 0.50671971
6.2866311 -3.0342751 0.51548958
6.280457 -3.0130534 0.50093991
6.2797756 -2.9996612 0.50051183
6.2844048 -3.0046918 0.4986217
6.3026381 -2.9865587 0.51094741
6.4772282 -3.0580044 0.43869352
6.4730315 -3.0452206 0.44596437
6.4839163 -3.0436201 0.43161827
6.4784322 -3.0438347 0.43139791
6.4942322 -3.0367782 0.44761324
6.4887376 -3.0279562 0.42958349
6.4920001 -3.0095358 0.44402242
6.5007005 -2.996012 0.44309488
6.5089602 -2.9820616 0.44837186
6.6862631 -3.0528033 0.37534794
6.6850429 -3.0441034 0.3706418
6.6792192 -3.0438783 0.3696999
6.6806536 -3.037035 0.36133304
6.6877289 -3.0199292 0.36371994
6.6945705 -3.0112646 0.364126
6.6976142 -3.0123229 0.3643105
6.7026157 -2.9943342 0.3738662
6.8738575 -3.0686686 0.30022725
6.8924508 -3.0618734 0.29914105
6.8963079 -3.0528994 0.29698065
6.8947916 -3.0294201 0.29420885
6.9085555 -3.0160265 0.30234456
6.9013638 -3.0054476 0.30800033
6.9057918 -3.0120294 0.3014327
6.9125934 -2.9959924 0.2941944
7.0924497 -3.0560174 0.22889304
7.0999198 -3.0601006 0.23989686
7.096931 -3.0489402 0.24403372
7.1079535 -3.0234642 0.24536693
7.0978756 -3.0183952 0.22606975
7.1056237 -3.0190938 0.24064107
7.1105862 -3.0102658 0.2389895
7.1236706 -2.9928536 0.23829445
7.2958846 -3.048187 0.17372575
7.3081312 -3.0477107 0.16322348
7.3131251 -3.0242236 0.17795239
7.300467 -3.0175416 0.15871108
7.3187985 -3.0181088 0.16073699
7.3212523 -3.0119007 0.15834008
7.3250256 -3.0000036 0.17110729
7.5036798 -3.0558417 0.10560159
7.5027981 -3.0394156 0.10667054
3.8128922 -4.9247279 0.81927717
3.8187931 -4.917429 0.81274945
3.8281791 -4.9154963 0.81348914
3.8345921 -4.9090204 0.82994443
3.8526506 -4.8937516 0.83212352
3.8468537 -4.8832889 0.82810903
3.8648601 -4.8930197 0.81319374
3.8620975 -4.8864331 0.82792044
3.8608167 -4.8669543 0.81715679
3.874706 -4.8715277 0.83009458
3.8795125 -4.8586874 0.81421852
3.8930402 -4.8668151 0.82032299
3.9000325 -4.8524175 0.8230328
3.9077568 -4.8584604 0.82688123
3.9119289 -4.853291 0.82065153
3.9182727 -4.8407578 0.81952834
3.9205942 -4.8370495 0.82330847
3.8091636 -4.6763473 0.89458567
3.8110766 -4.6704884 0.89367044
3.8222187 -4.6775494 0.88278717
3.8262911 -4.6666055 0.87934011
3.8344798 -4.6689277 0.88235205
3.8487659 -4.6510444 0.89433855
3.8457539 -4.6522155 0.89484936
3.8665831 -4.6359854 0.8950873
3.8611751 -4.6401758 0.88240713
3.8746362 -4.6288009 0.8879745
3.87187 -4.636776 0.88219357
3.8940873 -4.629374 0.89695764
3.8953817 -4.6173587 0.87933791
3.9057853 -4.6077929 0.88733017
3.9127343 -4.5965524 0.88765895
3.9026875 -4.5975323 0.88052088
3.9246197 -4.5880232 0.88685238
3.9270551 -4.5841765 0.8840453
3.9297209 -4.5922222 0.89167041
3.8170233 -4.4299068 0.95157033
3.812361 -4.4203744 0.95181346
3.8219101 -4.4150872 0.95405394
3.826216 -4.4149594 0.96289569
3.8328946 -4.4108753 0.9558807
3.847558 -4.406281 0.95467472
3.8425426 -4.3981652 0.94704801
3.8503819 -4.3945413 0.96348077
3.8645451 -4.3948979 0.95830137
3.8758938 -4.3789983 0.95960873
3.87486 -4.3795218 0.95437843
3.8874323 -4.3709011 0.95336622
3.8802402 -4.3789177 0.95231885
3.8952811 -4.3688068 0.94606763
3.8991561 -4.3581882 0.95856088
3.8960085 -4.3590703 0.95029962
3.9116473 -4.3511238 0.96479696
3.9196517 -4.3414869 0.95755243
3.9240816 -4.3438282 0.96457642
3.9233241 -4.3409548 0.96211725
3.9438665 -4.3252411 0.95374298
3.8123448 -4.1833558 1.0148754
3.8264344 -4.1746693 1.0162966
3.8194692 -4.1770463 1.0224115
3.8262453 -4.1616445 1.0137188
3.8455074 -4.155479 1.0187099
3.8365006 -4.1597562 1.0262047
3.8419836 -4.1421022 1.0178851
3.8602147 -4.1460848 1.0217644
3.8654623 -4.1368833 1.023049
3.8682432 -4.1331902 1.0145702
3.8826423 -4.1202359 1.0227734
3.8718798 -4.1190329 1.0143464
3.8825314 -4.1106277 1.018218
3.8992898 -4.1212721 1.0121589
3.8873484 -4.0984731 1.026924
3.9003904 -4.1104918 1.0120631
3.9009197 -4.1028309 1.0294991
3.9131215 -4.0827346 1.0175869
3.9091952 -4.083179 1.0295032
3.9265459 -4.0866237 1.019731
3.93541 -4.0814424 1.0175239
3.9324696 -4.0727892 1.0311224
3.8100376 -3.9234858 1.0940067
3.8223374 -3.9191151 1.0945464
3.8285704 -3.9124293 1.0924635
3.8295612 -3.9184377 1.0929322
3.8356838 -3.9096451 1.0956244
3.8392346 -3.8943713 1.0929673
3.8508661 -3.8887372 1.0844117
3.8544061 -3.891458 1.0869501
3.8481667 -3.8910127 1.0891998
3.8597124 -3.8791978 1.0946248
3.8648493 -3.8644407 1.0881103
3.8665767 -3.8628693 1.0806561
3.8688362 -3.8605433 1.0945694
3.8890052 -3.8626969 1.0971489
3.8896356 -3.8441916 1.0831875
3.8929505 -3.8475912 1.0791588
3.8936007 -3.8448079 1.0954157
3.9056878 -3.8439255 1.0835954
3.9003057 -3.8347161 1.0868567
3.9171655 -3.819387 1.0965614
3.9194429 -3.8243394 1.0956445
3.9151981 -3.8129756 1.0909121
3.9234915 -3.8047557 1.0831118
3.9256907 -3.8017628 1.087756
3.9304616 -3.8035281 1.0854963
3.8055484 -3.6562581 1.1607066
3.8121309 -3.6650019 1.1469896
3.8149629 -3.6470249 1.1487231
3.8259673 -3.6397884 1.1542269
3.8402255 -3.6410427 1.149613
3.8441811 -3.6253631 1.1545925
3.8472121 -3.6192641 1.1454742
3.8455033 -3.6301997 1.1591064
3.8559866 -3.6242564 1.150255
3.8511066 -3.618855 1.1541543
3.8639598 -3.6079569 1.148731
3.8657291 -3.5955906 1.1492544
3.8737741 -3.6054997 1.1624386
3.8835449 -3.589504 1.1575358
3.8788123 -3.5843425 1.1460477
3.8894579 -3.5803101 1.1449016
3.8850758 -3.5783243 1.1445097
3.8915675 -3.5631173 1.1478304
3.8916838 -3.5624893 1.1517352
3.9029412 -3.551796 1.1556752
3.9180903 -3.5532975 1.1451402
3.9078085 -3.5380695 1.1615911
3.9180427 -3.539829 1.1627458
3.9214532 -3.5368426 1.1545018
3.9399533 -3.5236065 1.146018
3.9269578 -3.5247347 1.1561581
3.9328086 -3.5152473 1.1628687
3.9382596 -3.5242634 1.1593641
3.9470239 -3.5181499 1.1510582
3.8187742 -3.3802588 1.2142955
3.8151927 -3.3778877 1.2243018
3.8210688 -3.3707631 1.2240859
3.8233881 -3.3583615 1.2166535
3.8268549 -3.3474989 1.2267432
3.8420703 -3.3430781 1.2245982
3.8487942 -3.3365872 1.2158471
3.8456509 -3.3491724 1.2110986
3.8492107 -3.3412251 1.2118425
3.8492587 -3.3294253 1.2132013
3.8609929 -3.3298681 1.2214457
3.8696706 -3.3186131 1.226746
3.8683472 -3.3061955 1.2138488
3.8668005 -3.3161647 1.2280247
3.8778136 -3.3073654 1.227728
3.8789091 -3.3080423 1.2265104
3.8978519 -3.2866788 1.2264355
3.888036 -3.2931349 1.2284207
3.8934641 -3.2806997 1.2129918
3.8996286 -3.2728784 1.223995
3.9071441 -3.2779763 1.2291811
3.9028966 -3.259043 1.2202412
3.9239416 -3.2660718 1.2183316
3.912082 -3.2592785 1.2210591
3.9343905 -3.2460961 1.2271854
3.9363949 -3.2364345 1.2272282
3.9371738 -3.2324386 1.2232213
3.9378705 -3.2228599 1.2273388
3.9405444 -3.2324464 1.2184653
3.947782 -3.2204549 1.2119807
3.9460149 -3.2255261 1.2149593
3.8032169 -3.1001301 1.2777122
3.8175144 -3.0777421 1.2816983
3.8298945 -3.0717697 1.2870197
3.824995 -3.0680368 1.2800591
3.8262143 -3.0668404 1.2772895
3.8274689 -3.0693979 1.2930386
3.8447094 -3.0557842 1.2928832
3.8460596 -3.0640144 1.2776511
3.8385291 -3.0495169 1.2889147
3.8445063 -3.0412891 1.2896048
3.8534546 -3.0341449 1.2908967
3.8588622 -3.0370238 1.2892659
3.8682485 -3.0318356 1.2882907
3.8629484 -3.0158527 1.2857258
3.8706803 -3.022949 1.2790285
3.8756351 -3.0130816 1.2844391
3.8763313 -3.0102575 1.2781224
3.8768647 -2.9903588 1.2782289
3.8821585 -3.0022595 1.28748
4.0480299 -3.1078093 1.2133141
4.0454235 -3.0930905 1.2272141
4.0441003 -3.0972102 1.2128648
4.0611391 -3.0961821 1.2183272
4.0571947 -3.0846848 1.2143898
4.0706773 -3.0696793 1.2179679
4.0774546 -3.0739348 1.2260191
4.0696349 -3.0617023 1.2114946
4.0754905 -3.0531373 1.2114624
4.0814447 -3.063472 1.2141178
4.076642 -3.0414426 1.2211709
4.0839515 -3.0463593 1.2173107
4.0851536 -3.0369298 1.2236925
4.0919981 -3.0347853 1.2254583
4.1042972 -3.020901 1.2130708
4.1126504 -3.0178413 1.2300326
4.1045742 -3.0123041 1.2170765
4.1045413 -2.9988785 1.2106847
4.1099753 -3.0038815 1.2271832
4.1153698 -2.9872062 1.2276669
4.1234112 -2.9996018 1.2244935
4.2911377 -3.0998859 1.1444252
4.2825108 -3.0920691 1.1543741
4.3002577 -3.0816519 1.1607635
4.2997613 -3.0831721 1.1553272
4.3068695 -3.0805666 1.1472343
4.3109312 -3.0702579 1.1589569
4.3020287 -3.0641942 1.1583771
4.3067255 -3.0569005 1.1470608
4.3279128 -3.0484087 1.14668
4.3295751 -3.0360637 1.1481583
4.3280559 -3.0328121 1.1545392
4.3327456 -3.0225143 1.1627666
4.3273764 -3.0187886 1.1554346
4.3483882 -3.0198691 1.1606003
4.343955 -3.0181434 1.1623828
4.3514204 -2.9966497 1.1484798
4.3506002 -3.0083437 1.15464
4.3491917 -2.9996178 1.1620873
4.5118375 -3.1010406 1.0857278
4.5188642 -3.0977767 1.0819813
4.52736 -3.0802834 1.095462
4.5222282 -3.0823431 1.09321
4.5253153 -3.0740068 1.0886477
4.5410614 -3.0688851 1.0969627
4.5419641 -3.0524144 1.0809555
4.544641 -3.0526876 1.0803881
4.5534058 -3.037982 1.0820668
4.5483217 -3.0288775 1.0864058
4.5506763 -3.0366905 1.0903178
4.5629487 -3.0218017 1.0911996
4.5714655 -3.0227327 1.083274
4.5734544 -3.013103 1.0869823
4.5731826 -3.0046849 1.0927143
4.5883393 -3.0048103 1.0972495
4.5918021 -2.9883137 1.091931
4.7371254 -3.0967622 1.0137225
4.7441401 -3.0771389 1.0301695
4.7528243 -3.0868542 1.0293785
4.7658381 -3.07846 1.0144264
4.7627544 -3.0620298 1.0280087
4.7605438 -3.0613103 1.0142998
4.7703981 -3.0428207 1.0238546
4.7839513 -3.0488131 1.0154557
4.783227 -3.0438497 1.0205535
4.7870288 -3.0396154 1.0157641
4.7855029 -3.0321176 1.0194863
4.7920456 -3.0219235 1.0162156
4.7950258 -3.0073547 1.0166078
4.7972054 -3.004072 1.018766
4.8044238 -2.9881632 1.0307206
4.8052154 -2.9987471 1.0167545
4.972434 -3.0835457 0.94834584
4.969192 -3.0790336 0.95357913
4.977541 -3.0794988 0.95711809
4.9909782 -3.0604064 0.95822746
4.9996166 -3.0470748 0.9601649
4.9919672 -3.0514264 0.94562066
5.0010371 -3.037014 0.95896369
5.0104899 -3.0446289 0.94890201
5.0020909 -3.0292227 0.94805562
5.0056367 -3.0172136 0.94992632
5.0152068 -3.0223103 0.96009022
5.022645 -3.0149579 0.94783187
5.0353065 -3.0035555 0.94816762
5.031497 -3.0030053 0.96064913
5.1908531 -3.0747445 0.89322335
5.210206 -3.0815291 0.8807736
5.1950045 -3.0635035 0.89577174
5.2131357 -3.0602758 0.89618474
5.2211952 -3.0496876 0.88502735
5.2083979 -3.0397847 0.87889683
5.2174616 -3.0445325 0.88068134
5.2166786 -3.0260539 0.88282394
5.2236271 -3.0191157 0.88936895
5.2309017 -3.0201786 0.88945824
5.2306471 -3.0081334 0.88744438
5.2492428 -3.0010428 0.89140207
5.2553792 -2.9934509 0.88613534
5.4202962 -3.085705 0.83055395
5.4219532 -3.0802574 0.82458508
5.4324427 -3.0718737 0.82125139
5.4367909 -3.0586827 0.82589585
5.4229131 -3.0505207 0.82173896
5.4311676 -3.0396461 0.81723464
5.4459562 -3.0457234 0.82437569
5.4408236 -3.0362709 0.81626433
5.4536667 -3.0124278 0.82794011
5.4504566 -3.0066445 0.81989843
5.4619694 -3.0039225 0.82597774
5.4641762 -3.0038488 0.8299548
5.4604039 -2.9975808 0.81475997
5.6387534 -3.0819514 0.75890797
5.6363969 -3.0735407 0.7499364
5.6498723 -3.0611389 0.76426548
5.6388326 -3.0582011 0.76493758
5.654923 -3.0446379 0.74747664
5.6628909 -3.0424635 0.7462669
5.6625237 -3.0277202 0.76324302
5.6741037 -3.0256746 0.75533783
5.671752 -3.0056219 0.75989699
5.6733665 -2.9935308 0.76310891
5.6797748 -2.9927351 0.7650314
5.8434467 -3.066741 0.68122047
5.851419 -3.0631714 0.68823373
5.8537087 -3.0549138 0.69031483
5.8566589 -3.0548272 0.69808298
5.8621368 -3.051023 0.68014365
5.866394 -3.0318258 0.68905997
5.8676152 -3.0252767 0.69212812
5.8809204 -3.0252967 0.6873495
5.8787732 -3.0079086 0.68675631
5.8798261 -3.0083075 0.69904739
5.8827901 -2.9960587 0.69756567
6.0563927 -3.065712 0.6252113
6.0689416 -3.0715477 0.61923862
6.0635605 -3.0587063 0.62518436
6.0859351 -3.0446486 0.62676013
6.0903587 -3.0305846 0.61935335
6.0836868 -3.0195382 0.63030964
6.080071 -3.0194142 0.63305414
6.0916653 -3.0056539 0.62498885
6.102654 -2.9950449 0.62832105
6.1059222 -2.9856656 0.61569238
6.2770495 -3.0782609 0.5644865
6.2728601 -3.0591393 0.56527495
6.2826853 -3.0496769 0.55044281
6.2984447 -3.0421057 0.56120008
6.2957673 -3.0343649 0.55754739
6.3056712 -3.0175385 0.55646133
6.3065186 -3.0085583 0.5670132
6.3100986 -3.0122027 0.56283373
6.3056011 -2.9890649 0.56076527
6.3044233 -2.9868543 0.55957282
6.4811029 -3.0679009 0.49421045
6.5024648 -3.0563374 0.48550427
6.5046029 -3.0392232 0.49750265
6.4918962 -3.0306127 0.48830852
6.5099339 -3.0289297 0.49808532
6.5043063 -3.0215816 0.49591294
6.51758 -3.0176117 0.49393931
6.5213928 -2.9942756 0.49953377
6.6924043 -3.078578 0.43318623
6.6900539 -3.0690687 0.42653647
6.7064977 -3.0575547 0.43088377
6.7038527 -3.0489562 0.41774553
6.7124887 -3.0224841 0.43266645
6.7131095 -3.0129709 0.42713705
6.7245235 -3.0096593 0.43422356
6.7257013 -2.996202 0.41958553
6.7246933 -2.9936852 0.41983867
6.9140677 -3.068336 0.36805704
6.9167614 -3.050535 0.36810812
6.9193807 -3.0393703 0.36833283
6.9153366 -3.0360343 0.35072973
6.915626 -3.0196033 0.35237765
6.9227643 -3.0187833 0.35114402
6.9248095 -3.0015762 0.35006401
6.9413118 -2.9971759 0.36293021
7.1181035 -3.0506551 0.29359612
7.1071315 -3.0542457 0.28368804
7.1163993 -3.0450122 0.28652534
7.1201577 -3.0373602 0.29753417
7.1239533 -3.0113513 0.29007217
7.1279597 -3.0136349 0.29630464
7.1343493 -2.9998639 0.28932068
7.3163118 -3.0563293 0.22721694
7.3231897 -3.0615616 0.2189474
7.3289733 -3.0344861 0.22541291
7.3276091 -3.0280159 0.22357754
7.3231826 -3.0167894 0.22823292
7.3288336 -3.0205534 0.23219706
7.3373079 -3.0048029 0.23388244
7.3367767 -2.9894874 0.23164025
7.5235143 -3.0455875 0.1508857
7.5218244 -3.0480511 0.16024007
7.5331354 -3.02668 0.15632762
7.5286145 -3.0227075 0.15697975
7.5358095 -3.0172141 0.1544985
7.5494552 -2.997333 0.16827242
3.8098712 -4.9492941 0.87235975
3.818187 -4.9320879 0.86513352
3.825222 -4.9241314 0.87174118
3.8245909 -4.9330859 0.85877579
3.8378313 -4.9289217 0.87808323
3.8442354 -4.9217167 0.87203044
3.8585443 -4.9044309 0.86926317
3.8535132 -4.9097037 0.8589763
3.8568804 -4.9073167 0.86928159
3.8762341 -4.8956437 0.87456965
3.8718779 -4.8816843 0.87728357
3.8929539 -4.8863101 0.8718918
3.8867958 -4.8707943 0.86913449
3.9072378 -4.8627958 0.87209076
3.9147069 -4.8684354 0.87387037
3.9214759 -4.8545418 0.87750417
3.9221842 -4.8532033 0.87306315
3.9201179 -4.8437519 0.87797946
3.8088312 -4.6906629 0.92480868
3.8265626 -4.692347 0.93301636
3.8295748 -4.6852207 0.92978454
3.8352933 -4.683845 0.93651855
3.8356128 -4.675446 0.93335062
3.8531673 -4.6734166 0.93275392
3.8536706 -4.6707215 0.94108081
3.8559461 -4.6680541 0.93785471
3.8618479 -4.6514664 0.93051147
3.883301 -4.6437259 0.92715436
3.889663 -4.6351199 0.92429245
3.8779411 -4.6353426 0.93442863
3.8944194 -4.6391058 0.92636389
3.9076583 -4.6236963 0.93433839
3.9076238 -4.6145058 0.9253661
3.9044135 -4.6142907 0.93306869
3.920599 -4.6200957 0.93810236
3.9251039 -4.6101408 0.94043082
3.8037896 -4.4567089 0.99887037
3.8175087 -4.452579 0.99475366
3.8278632 -4.4485807 0.99384296
3.8353486 -4.44279 1.0073003
3.8329625 -4.4269991 0.99157566
3.8425043 -4.4244404 1.0058333
3.840013 -4.4283795 1.0038451
3.848542 -4.4219842 0.99662632
3.8647661 -4.4058514 0.99814802
3.8660164 -4.411654 1.0041611
3.8695877 -4.4026184 0.99405009
3.8866854 -4.4060879 1.0027586
3.8796589 -4.3854198 0.99014664
3.8917141 -4.3834753 0.9979977
3.8972192 -4.3901186 0.99630326
3.9069922 -4.3734145 0.99182278
3.911015 -4.3653889 0.9980498
3.9130421 -4.3750134 1.0053098
3.9278429 -4.3545856 1.0033318
3.9241576 -4.3590722 0.99017149
3.9264777 -4.3461442 1.0006586
3.8119226 -4.2018399 1.0671849
3.8126292 -4.1913095 1.064069
3.8207161 -4.1948581 1.0574837
3.8366468 -4.1790285 1.0588324
3.8308756 -4.1795459 1.0714542
3.8406167 -4.1821523 1.0666623
3.8565772 -4.1688356 1.0667979
3.8597901 -4.1668153 1.0619044
3.8610175 -4.1545691 1.0670594
3.8690772 -4.1460843 1.0596685
3.8676164 -4.1514721 1.0706717
3.867769 -4.1420231 1.0668919
3.884798 -4.1303501 1.0542419
3.8952343 -4.128602 1.0720913
3.8870118 -4.1184731 1.0640855
3.8914032 -4.1244435 1.068127
3.9109955 -4.1202865 1.0601305
3.9107156 -4.1187425 1.0687919
3.9255347 -4.101789 1.0643286
3.9255011 -4.1025863 1.0629712
3.9380691 -4.0906477 1.0708394
3.9416325 -4.084352 1.0627613
3.9414086 -4.0868154 1.0609529
3.817327 -3.9483371 1.1203868
3.8220968 -3.9403236 1.1196252
3.8188536 -3.9336841 1.1274655
3.8396444 -3.9332106 1.1340272
3.8324311 -3.9187675 1.1366897
3.8338718 -3.9152482 1.130854
3.8508418 -3.9174976 1.1187614
3.8464468 -3.9129071 1.13314
3.8499126 -3.8904731 1.1283386
3.8652928 -3.8939755 1.1355903
3.8788571 -3.896064 1.1195428
3.8669424 -3.8788898 1.1261928
3.8742583 -3.8704586 1.1341583
3.8894072 -3.8667285 1.1372657
3.8911102 -3.8756964 1.129477
3.895468 -3.8687007 1.1198608
3.8939826 -3.8502052 1.1226404
3.9003971 -3.8415666 1.1246483
3.9211824 -3.854917 1.1237206
3.9171588 -3.8383346 1.133913
3.9203794 -3.8336277 1.1366316
3.9275446 -3.826268 1.1311318
3.9413524 -3.8170171 1.1286629
3.9431179 -3.8180346 1.1245165
3.947983 -3.8027587 1.1259866
3.8091757 -3.6769032 1.1939348
3.816437 -3.6697414 1.1900427
3.8264706 -3.6615524 1.1893512
3.8385048 -3.6579578 1.1898637
3.8296037 -3.663759 1.2015055
3.8308876 -3.6517041 1.1923934
3.8548825 -3.6378405 1.185173
3.85337 -3.6355186 1.201728
3.8493814 -3.6367726 1.1917825
3.8612387 -3.6184955 1.1916221
3.8745589 -3.6284757 1.2001953
3.870914 -3.6163297 1.1906147
3.8833697 -3.6192775 1.1839002
3.8751264 -3.6153111 1.1954504
3.8873878 -3.6053588 1.1958625
3.8912835 -3.5992277 1.1829854
3.8860598 -3.5941997 1.1986203
3.8936079 -3.575774 1.1912189
3.8977034 -3.5864198 1.1971976
3.9118459 -3.5702837 1.1960808
3.9258204 -3.5658956 1.1996042
3.9283605 -3.5702124 1.1898868
3.9213121 -3.5471263 1.1918278
3.9275417 -3.5573292 1.1923338
3.9453142 -3.5403082 1.1973844
3.9434907 -3.5444217 1.1831508
3.9487827 -3.5387816 1.1885234
3.8089614 -3.4041989 1.251798
3.822295 -3.3971345 1.2540851
3.8216 -3.4009278 1.2670652
3.8197808 -3.3957391 1.2589835
3.8214774 -3.3729954 1.2611278
3.8334494 -3.3822775 1.2608941
3.8473547 -3.3702993 1.2649866
3.8417587 -3.3655114 1.2606223
3.8412056 -3.367501 1.2666595
3.8464117 -3.3491454 1.252845
3.8569827 -3.35481 1.2617049
3.8659155 -3.351896 1.2523203
3.8571277 -3.3344247 1.2538269
3.8813126 -3.343513 1.2551998
3.8774083 -3.3356376 1.2539874
3.8756406 -3.3205156 1.2581577
3.8936319 -3.3162065 1.248964
3.8957081 -3.3022037 1.2592096
3.8934124 -3.3134573 1.2621105
3.8971462 -3.3042002 1.2580049
3.907058 -3.2890604 1.2628665
3.9058223 -3.2896683 1.2652673
3.9151943 -3.2837372 1.2597576
3.926065 -3.2782867 1.2597718
3.9183013 -3.2813988 1.2622669
3.9293175 -3.2709291 1.254483
3.9244964 -3.2671113 1.2656007
3.930474 -3.2658529 1.2653071
3.9466894 -3.251518 1.2483395
3.9457982 -3.2380698 1.2552021
3.9407935 -3.2393224 1.2517711
3.9606431 -3.2264163 1.2622923
3.8166392 -3.1087387 1.3182038
3.8131969 -3.1049817 1.3292075
3.8297613 -3.0935714 1.33164
3.8288136 -3.0957198 1.3190767
3.8200741 -3.0872567 1.3248593
3.8424451 -3.0773759 1.3264221
3.8445151 -3.0758319 1.316835
3.8496101 -3.0797238 1.3152052
3.8415601 -3.0731568 1.3268254
3.8500714 -3.07127 1.3258479
3.8490968 -3.0516622 1.3170408
3.8591206 -3.0598431 1.3266785
3.8601406 -3.0357985 1.3224087
3.8635855 -3.0370336 1.3306662
3.8744595 -3.031332 1.3220565
3.8711088 -3.0275762 1.3179914
3.8893132 -3.0260599 1.330128
3.877923 -3.0237503 1.3130244
3.8848956 -3.0137851 1.3171333
3.9034805 -2.9995956 1.3177689
3.9010806 -3.0106599 1.312646
3.9098659 -2.9959729 1.31397
3.9082816 -2.98453 1.3139601
4.052443 -3.109139 1.2624257
4.0549917 -3.0916741 1.2561079
4.068923 -3.0818014 1.24815
4.0787807 -3.0779586 1.2563064
4.0807676 -3.0697324 1.2613643
4.0856428 -3.078753 1.2509737
4.0946188 -3.0734 1.2493529
4.0842228 -3.054651 1.251242
4.088696 -3.0513129 1.2623869
4.0944848 -3.0537484 1.2595373
4.100256 -3.046227 1.2618754
4.0993905 -3.0404911 1.2560197
4.1121988 -3.025151 1.254372
4.1170416 -3.0242712 1.2508965
4.1300325 -3.0257154 1.2499702
4.1280732 -3.0065873 1.2543406
4.1357155 -3.0027776 1.2583754
4.1417289 -3.0136511 1.2554644
4.1296234 -3.0043304 1.2501906
4.1486549 -2.9934919 1.2567748
4.2980113 -3.0921514 1.2002621
4.29667 -3.0847116 1.1886719
4.3094645 -3.0887101 1.1866975
4.3206029 -3.0721049 1.1998723
4.3082571 -3.0667396 1.1858664
4.3149772 -3.0675564 1.1852462
4.3260589 -3.0649459 1.1826874
4.321167 -3.0605288 1.183501
4.3333559 -3.0524161 1.1878752
4.3402624 -3.0494628 1.197322
4.3337445 -3.0345185 1.1933438
4.3556113 -3.0252452 1.1908138
4.3458796 -3.0274987 1.1982877
4.3541646 -3.0229268 1.1963632
4.3556161 -3.0150046 1.1937941
4.3630528 -3.0046589 1.1843926
4.3698616 -3.007519 1.1915799
4.3741026 -2.9995501 1.1971567
4.5350723 -3.090785 1.1199069
4.5446339 -3.0920365 1.1244764
4.543633 -3.0840592 1.1179446
4.5386453 -3.0784609 1.1346344
4.5511189 -3.0668316 1.1230131
4.5510573 -3.0711458 1.1299007
4.5490623 -3.0582283 1.1186409
4.5644894 -3.0620856 1.1316519
4.5705061 -3.0433373 1.1357216
4.5637012 -3.0445428 1.1216733
4.5824642 -3.0248883 1.137419
4.5888743 -3.0199993 1.1255969
4.5798445 -3.0204296 1.1354294
4.5842743 -3.0101571 1.1245316
4.5853848 -3.0117116 1.1189287
4.5948653 -2.9976194 1.1226711
4.5912242 -2.9898052 1.1329845
4.7547369 -3.094229 1.0681826
4.7729735 -3.0932889 1.0606757
4.7752705 -3.0834098 1.0655992
4.7835097 -3.0790148 1.0638068
4.7874856 -3.0724485 1.0605268
4.7796302 -3.0591412 1.0704345
4.7815976 -3.0456245 1.0642265
4.7926583 -3.0352092 1.0700699
4.7981062 -3.039516 1.0636054
4.8072877 -3.0316577 1.0585495
4.8067732 -3.0228939 1.0660491
4.8063526 -3.0202136 1.06785
4.8184161 -3.0195475 1.0528852
4.8153934 -3.0149434 1.0556644
4.8305693 -2.9906559 1.0583531
4.8224554 -2.998507 1.0676863
4.9849324 -3.0884907 0.99896181
5.000639 -3.0716276 0.99888343
5.0021791 -3.0735712 1.0078175
4.9972448 -3.0705791 0.99792314
5.0072451 -3.0523376 0.99009997
5.0047355 -3.058744 0.99825829
5.0240169 -3.0373044 1.0003785
5.0283232 -3.0430956 1.0003922
5.0353994 -3.0379102 0.99797732
5.0251546 -3.0250278 1.0009892
5.0242333 -3.0145411 1.0071158
5.0394826 -3.0126581 1.0031474
5.0346441 -2.993535 0.99027115
5.0387301 -3.0036366 0.99341685
5.2155242 -3.0846853 0.942922
5.2220078 -3.0756216 0.92394418
5.216639 -3.0715375 0.93941778
5.2333808 -3.0673983 0.94210595
5.2301259 -3.0604248 0.94297951
5.2444458 -3.0479279 0.92972934
5.2417679 -3.0405748 0.93995398
5.2452059 -3.0421844 0.92504394
5.2446656 -3.032835 0.94223315
5.2512383 -3.0235929 0.9422912
5.2609472 -3.0043523 0.93093151
5.2650561 -3.0029361 0.94136733
5.2701769 -2.9911864 0.92861265
5.4351015 -3.080682 0.86781132
5.4384942 -3.0837812 0.87160271
5.4427505 -3.0768278 0.86059844
5.4537454 -3.0568097 0.86964899
5.4549546 -3.0576 0.86978561
5.4612427 -3.0431676 0.8719613
5.4647098 -3.0463886 0.87606305
5.4682245 -3.0241172 0.87208349
5.4603686 -3.0219431 0.86219203
5.4629378 -3.0188437 0.87671649
5.4727421 -2.9993458 0.86810482
5.4866395 -3.0007613 0.86881882
5.4843178 -2.9822161 0.86890531
5.6569948 -3.0676618 0.79651755
5.6528244 -3.0652401 0.80065173
5.6687799 -3.0607934 0.81161928
5.6668997 -3.0571325 0.8117609
5.6691103 -3.0341995 0.80656302
5.6673303 -3.043354 0.79592246
5.6756482 -3.0341604 0.80075842
5.6784787 -3.0193732 0.7974636
5.692687 -3.0148883 0.80511904
5.6875982 -2.9969144 0.80367905
5.7025847 -2.9964557 0.79984808
5.8774652 -3.0726023 0.74564952
5.8692045 -3.0687027 0.7329132
5.8718996 -3.0509553 0.73594177
5.8747253 -3.0552585 0.73400146
5.8923416 -3.0455916 0.7349987
5.8993053 -3.0318465 0.7372759
5.8910942 -3.0194986 0.74642062
5.8995767 -3.0171592 0.73212463
5.8957028 -3.0041149 0.74787104
5.9103775 -3.0002787 0.73613882
5.9012098 -2.9931335 0.72845727
6.0914588 -3.0641041 0.67158711
6.080358 -3.0708685 0.66918093
6.0922742 -3.0590801 0.67427677
6.1022377 -3.053937 0.68083864
6.0931869 -3.0460794 0.67293888
6.1064014 -3.0306716 0.66917449
6.1087489 -3.0110083 0.67953074
6.1167879 -3.0194342 0.67470682
6.1205621 -2.9973893 0.66548866
6.1125917 -2.9887047 0.67517954
6.2868276 -3.0658686 0.60631174
6.2993035 -3.0549893 0.60710132
6.3093605 -3.0564711 0.61118966
6.3045015 -3.032254 0.61192566
6.3061919 -3.0413408 0.61201775
6.3199701 -3.0214543 0.59901011
6.3299718 -3.0234501 0.61715233
6.3303175 -3.0016239 0.61834937
6.3258271 -3.0002294 0.6130662
6.5030375 -3.072053 0.54303122
6.5191078 -3.0624292 0.5353964
6.5112033 -3.0446155 0.54986072
6.5240755 -3.041018 0.53405732
6.5210238 -3.026541 0.53367913
6.5186949 -3.0346227 0.53541613
6.5364456 -3.0131626 0.54823571
6.5411763 -3.0059254 0.55024976
6.5440359 -3.0025547 0.54527426
6.7200165 -3.0667741 0.48796621
6.7188749 -3.0497622 0.47596669
6.7325907 -3.0409682 0.48451895
6.7186584 -3.0443542 0.48180687
6.7391772 -3.0391304 0.47360829
6.7438798 -3.0212088 0.47079679
6.7481909 -3.0098534 0.47080785
6.7542262 -3.004972 0.48317721
6.7530675 -2.999572 0.4736762
6.9268241 -3.0522449 0.41352692
6.9227848 -3.0480857 0.40384397
6.9263296 -3.0493519 0.42180738
6.9378614 -3.0211732 0.41919354
6.9379315 -3.0111845 0.40381649
6.9552765 -3.0049212 0.40427989
6.9444094 -2.9981871 0.41327566
6.950717 -2.9913602 0.40423185
7.1307826 -3.0575004 0.345763
7.1295476 -3.0539517 0.34819245
7.1387982 -3.0337396 0.34526944
7.152791 -3.0218394 0.35684565
7.1570868 -3.0106537 0.35748959
7.1593318 -3.0121825 0.35664028
7.1589494 -2.9978728 0.35610187
7.3376589 -3.0635326 0.28723738
7.3424368 -3.050926 0.28032285
7.3561964 -3.0362036 0.29053965
7.3608975 -3.0193541 0.27971178
7.3520212 -3.028008 0.28248265
7.3655596 -3.0116668 0.27550983
7.3561611 -3.005574 0.29047534
7.5335135 -3.0507989 0.22175318
7.556406 -3.046361 0.22643423
7.558434 -3.0465047 0.21544521
7.5599093 -3.0266075 0.22190623
7.5574107 -3.0262055 0.21073884
7.5679827 -3.0163033 0.22405308
7.5687571 -3.0059447 0.22397004
7.7545676 -3.0583639 0.16007473
7.7473521 -3.051544 0.14716752
7.7531495 -3.0383246 0.15008858
7.7538967 -3.0271294 0.1489006
7.7708125 -3.0173147 0.16162966
7.7723937 -3.0097294 0.16368803
7.7829714 -2.9849124 0.15511091
3.8163109 -4.9538803 0.91747475
3.8240099 -4.9542599 0.9067471
3.8270552 -4.9436941 0.91181213
3.841116 -4.9419537 0.91274863
3.848603 -4.9391313 0.92169261
3.8513896 -4.9239674 0.91666436
3.8514123 -4.929081 0.91015422
3.8643916 -4.924747 0.92366922
3.8607361 -4.9247384 0.91659051
3.8663568 -4.91366 0.91021794
3.8926859 -4.9157524 0.90594614
3.8932199 -4.8970714 0.91597909
3.9030187 -4.9022627 0.91125238
3.8978751 -4.8803039 0.92293096
3.91366 -4.8777609 0.91208708
3.9183817 -4.8793273 0.91105276
3.9180675 -4.8677592 0.91954064
3.8124268 -4.7222762 0.97051007
3.8188958 -4.7153039 0.97258329
3.8182788 -4.7095771 0.98034221
3.8312817 -4.7043796 0.9806062
3.8400052 -4.7054987 0.97413921
3.8387542 -4.6836624 0.97705913
3.8527691 -4.6938057 0.97650671
3.8584552 -4.6749921 0.97305626
3.8732898 -4.6782775 0.98258919
3.8670826 -4.6686902 0.9782306
3.8693557 -4.6727405 0.9860695
3.8790696 -4.6569128 0.9755677
3.8908491 -4.6482863 0.98547071
3.8903799 -4.653234 0.97523999
3.9101672 -4.6360269 0.97854948
3.9034798 -4.6466327 0.97834545
3.9197049 -4.6297779 0.98263931
3.91537 -4.6337838 0.98037887
3.9275768 -4.6294942 0.96945596
3.8066213 -4.4733315 1.0462554
3.8237855 -4.4662032 1.0500882
3.8287811 -4.4558787 1.0443438
3.8232675 -4.4602842 1.0418123
3.8476496 -4.4516606 1.0489105
3.8417933 -4.4497442 1.0477837
3.8592391 -4.4410019 1.0506105
3.8564734 -4.4425135 1.0448422
3.8579941 -4.4348321 1.0496092
3.8772466 -4.4214077 1.0331974
3.8655689 -4.4127073 1.0428591
3.8871617 -4.4130898 1.0343338
3.89258 -4.4147158 1.0508099
3.8922462 -4.4080877 1.0375484
3.9093733 -4.4033027 1.0475698
3.9135911 -4.3905907 1.0341581
3.9166746 -4.3866425 1.0441306
3.9225771 -4.3716621 1.0472244
3.922704 -4.3813562 1.0326242
3.9275899 -4.377985 1.0460645
3.8093791 -4.2313404 1.1063334
3.8073027 -4.2105827 1.0972972
3.8166938 -4.2105718 1.1012247
3.8225534 -4.217052 1.1063614
3.8351443 -4.2125554 1.1108563
3.837749 -4.1899829 1.1026273
3.8469343 -4.1904612 1.1129019
3.8460848 -4.1911645 1.1127034
3.8483217 -4.1778603 1.0973494
3.8559508 -4.185782 1.0998967
3.8770127 -4.1713414 1.102479
3.8748147 -4.1648769 1.1005088
3.8835731 -4.1549134 1.1132309
3.8962514 -4.1449752 1.1141461
3.8940589 -4.1483235 1.1142234
3.8963537 -4.1349368 1.1115299
3.9104121 -4.1382275 1.1030065
3.9147372 -4.1282225 1.1084204
3.9188564 -4.1218286 1.1017708
3.927614 -4.1136451 1.1018234
3.918911 -4.1102324 1.1109328
3.9327829 -4.1148429 1.1011146
3.9446769 -4.0965123 1.0958595
3.8181419 -3.9543228 1.1586555
3.8234668 -3.9573023 1.1691655
3.8288615 -3.9437819 1.1676372
3.8315554 -3.9419909 1.1773857
3.8257184 -3.9416547 1.1716981
3.8452878 -3.9429715 1.1669557
3.8381999 -3.9212956 1.1649396
3.8511574 -3.9340799 1.1608711
3.8532169 -3.9187419 1.1667192
3.8654504 -3.9172516 1.1654166
3.8724215 -3.9168873 1.1638237
3.87866 -3.8967333 1.1739374
3.8754008 -3.896713 1.1722499
3.8906057 -3.8995192 1.1670239
3.8955517 -3.8936758 1.1767972
3.8948023 -3.8737688 1.1599087
3.9093029 -3.8864479 1.1593434
3.9017801 -3.87166 1.1606338
3.9101813 -3.8602965 1.1718944
3.9244227 -3.8621747 1.1592697
3.9173539 -3.8625505 1.1616263
3.9286847 -3.8421488 1.158746
3.9301214 -3.8504593 1.1704876
3.929863 -3.829011 1.1740168
3.944371 -3.8280547 1.1579759
3.8128002 -3.700948 1.2399418
3.8199928 -3.6972842 1.2402788
3.8266129 -3.6865587 1.2299671
3.834516 -3.6728406 1.2255751
3.833672 -3.6702819 1.2338531
3.8401961 -3.6601846 1.2362963
3.8490694 -3.6641421 1.2336746
3.8550546 -3.6520407 1.2372682
3.8527741 -3.6455677 1.2368286
3.8540156 -3.6499493 1.231856
3.8592083 -3.6354122 1.2361629
3.8628383 -3.6388447 1.2388194
3.8667979 -3.6408124 1.2268796
3.8804381 -3.6200249 1.2233292
3.889679 -3.6252215 1.2370018
3.8871901 -3.6090267 1.2354285
3.8871367 -3.6090841 1.2245473
3.9044542 -3.6082742 1.2404101
3.9053578 -3.5948551 1.2373812
3.9058142 -3.5852976 1.224599
3.9212904 -3.5956428 1.2409751
3.9210656 -3.587446 1.2285327
3.92349 -3.5803699 1.2287292
3.9339669 -3.5647264 1.2243133
3.9408855 -3.5649076 1.2292933
3.9414694 -3.5526354 1.2250539
3.9404721 -3.5454669 1.2353355
3.948586 -3.5460234 1.2409985
3.8116424 -3.4237916 1.2981664
3.8123977 -3.4132478 1.295928
3.8203635 -3.4122481 1.2978948
3.824698 -3.3964856 1.3026019
3.8365824 -3.4033039 1.2889215
3.8286562 -3.3846426 1.2854137
3.8363063 -3.3840523 1.2962474
3.8489292 -3.3878603 1.2938685
3.857305 -3.3776398 1.2931668
3.8559551 -3.3642724 1.2864101
3.8602607 -3.3718951 1.2894597
3.8582053 -3.3635366 1.2977377
3.8739042 -3.3519795 1.3016932
3.8715622 -3.3408473 1.2960825
3.8739197 -3.3425827 1.2983179
3.8825893 -3.3369889 1.2938726
3.8877439 -3.3284824 1.3046689
3.9037242 -3.3320825 1.2863021
3.8973184 -3.3120291 1.2927936
3.910203 -3.3180406 1.2872841
3.9163234 -3.3044536 1.2887768
3.9054859 -3.2976217 1.2932462
3.9229188 -3.2997832 1.3038845
3.9242995 -3.2889717 1.3002602
3.9200618 -3.2804794 1.289499
3.9380519 -3.2879875 1.2989237
3.9315891 -3.2750032 1.2914407
3.935915 -3.2706931 1.2949364
3.9418664 -3.2574358 1.2930583
3.9543016 -3.2559333 1.2997347
3.9612195 -3.2529423 1.2945577
3.9496226 -3.2454133 1.2907658
3.9624872 -3.2450681 1.2993588
3.9659824 -3.247951 1.2933038
3.9658458 -3.2396731 1.2902747
3.9749403 -3.217999 1.294265
3.9734516 -3.2273738 1.2857605
3.9844723 -3.2170014 1.2960807
3.9989808 -3.2052486 1.2941662
3.9916034 -3.2056239 1.2882559
3.9908948 -3.2036364 1.2998319
4.0050015 -3.1977942 1.293426
4.0153079 -3.1836271 1.3018481
4.0142002 -3.1904974 1.3018634
4.0270295 -3.1820295 1.3046265
4.0168219 -3.1689839 1.3035275
4.0305967 -3.1619363 1.2875108
4.0358591 -3.1683698 1.2963177
4.0314341 -3.1447885 1.2913222
4.0450869 -3.1530709 1.3003901
4.0528212 -3.1465404 1.2858773
4.0521235 -3.1303737 1.2916331
4.0450125 -3.1283631 1.2859753
4.0663152 -3.1319156 1.2878609
4.0676255 -3.1270859 1.2926216
4.071691 -3.1169033 1.304829
4.0746498 -3.1173775 1.2984788
4.0815835 -3.097013 1.3000838
4.0773168 -3.1054897 1.2996523
4.0880461 -3.0847218 1.2853149
4.0878358 -3.0806201 1.2918782
4.0931044 -3.0816083 1.2889723
4.1041212 -3.0740924 1.3024346
4.1094718 -3.0696502 1.2866962
4.0967002 -3.0682666 1.2901331
4.1086817 -3.0671785 1.2980922
4.1128621 -3.0474849 1.2999104
4.1106844 -3.0452025 1.2964206
4.1301041 -3.0315242 1.2987753
4.1290836 -3.0314457 1.2962132
4.133718 -3.0358994 1.2920619
4.144908 -3.0193975 1.3012255
4.1331835 -3.0161843 1.2922022
4.1349134 -3.0119181 1.3019122
4.1408973 -3.0047131 1.2872907
4.1503096 -3.0098083 1.2880366
4.1476731 -2.9949968 1.302749
4.3205643 -3.0976954 1.2304901
4.3163948 -3.0939505 1.2296916
4.3145719 -3.0954752 1.2232269
4.3301783 -3.076607 1.226558
4.3216248 -3.0707824 1.2406343
4.3422265 -3.0609074 1.232161
4.333797 -3.0735199 1.2221857
4.3350682 -3.064358 1.2336411
4.3417101 -3.0499849 1.234221
4.3490891 -3.0424416 1.2238265
4.3511724 -3.0399096 1.2360085
4.3645091 -3.0258791 1.2259228
4.357039 -3.0179954 1.2282938
4.3630958 -3.0188205 1.2235084
4.3724751 -3.0125058 1.238517
4.3759222 -3.0098875 1.2373641
4.3908873 -2.9999888 1.2375559
4.3958688 -2.9931002 1.2408611
4.3922973 -2.9838428 1.2324846
4.5459065 -3.0984218 1.1620698
4.5526524 -3.0880041 1.1716413
4.5515714 -3.0884972 1.169171
4.5603957 -3.0806994 1.1685059
4.5715823 -3.0710754 1.1609316
4.5779743 -3.0562944 1.1735817
4.5793667 -3.0622797 1.1627541
4.5795965 -3.0375047 1.1757228
4.5800095 -3.0319448 1.1694723
4.5837188 -3.0341446 1.1663655
4.5990424 -3.023524 1.1695107
4.6074638 -3.030478 1.1767293
4.6054478 -3.022824 1.1771045
4.6009521 -3.0106483 1.1589212
4.6157827 -3.0115798 1.1639997
4.6230302 -2.9904034 1.1774909
4.7818785 -3.0955367 1.0951014
4.7910743 -3.0810592 1.0946277
4.7932296 -3.0704265 1.1133277
4.7891254 -3.0803335 1.103436
4.8019047 -3.0591564 1.0977665
4.7978201 -3.0537894 1.0987393
4.8009448 -3.0546603 1.100956
4.8044357 -3.04424 1.1089326
4.8097334 -3.0431933 1.1095562
4.8201003 -3.0390949 1.1049284
4.8239493 -3.0192943 1.1121595
4.8289204 -3.0146191 1.1072068
4.8334084 -3.0121009 1.1062196
4.836587 -2.9979899 1.108652
4.8298645 -2.9953933 1.105582
4.8374629 -3.0011654 1.1011938
5.0072556 -3.0879369 1.0457219
5.0181637 -3.0754094 1.0374942
5.0170393 -3.0618403 1.0436099
5.0165281 -3.062151 1.0471148
5.0313797 -3.0628505 1.0437053
5.033453 -3.0428069 1.0382497
5.0305634 -3.0424941 1.0485854
5.0466766 -3.0432117 1.0462991
5.0452127 -3.034852 1.0398709
5.040669 -3.0230842 1.0409259
5.0517273 -3.0069356 1.0483077
5.0508251 -3.0041895 1.0412356
5.0616856 -3.0068693 1.0407449
5.0586514 -2.9943514 1.03295
5.2222638 -3.0879424 0.97393507
5.23944 -3.0668256 0.9714793
5.2311511 -3.0728607 0.9823249
5.2531872 -3.0670345 0.98543525
5.2529268 -3.0469146 0.96988201
5.2462282 -3.0555711 0.97906727
5.2605743 -3.0373921 0.97736597
5.2622919 -3.0243285 0.97136968
5.2569275 -3.0246079 0.97564656
5.2710619 -3.0121148 0.9853884
5.2773914 -3.0033441 0.97115922
5.2682166 -3.0017052 0.97075403
5.2765756 -2.9926541 0.97701538
5.4606495 -3.0795562 0.91827726
5.4630747 -3.077065 0.91586971
5.4499359 -3.0655398 0.91748935
5.4659719 -3.063926 0.90996546
5.4602962 -3.0448418 0.9081769
5.4686131 -3.0353594 0.91877466
5.4811969 -3.035969 0.91452545
5.4835114 -3.0344658 0.91170084
5.4915862 -3.0263438 0.923163
5.4992452 -3.0140584 0.91631842
5.4931545 -3.0067644 0.90890938
5.4918365 -3.0013511 0.91639185
5.5081005 -2.993372 0.90779346
5.6725254 -3.0643353 0.84967577
5.6829901 -3.0743227 0.84654564
5.6716547 -3.0602562 0.84527421
5.6909065 -3.0578592 0.85576326
5.6858978 -3.03739 0.86011976
5.6980534 -3.0330775 0.84495664
5.7016602 -3.025327 0.85443133
5.698411 -3.0278771 0.84354669
5.7077422 -3.015945 0.85041589
5.7045445 -3.0119381 0.85759896
5.7127371 -2.9942367 0.85684127
5.894248 -3.0784898 0.79466552
5.8848147 -3.0700016 0.78216183
5.8940988 -3.0665333 0.78413361
5.8938599 -3.0523345 0.7786473
5.8979664 -3.0502295 0.78954011
5.9068985 -3.0287566 0.78024405
5.9052935 -3.0347602 0.78045255
5.9127922 -3.0156491 0.78464192
5.9271488 -3.0039413 0.78488123
5.9286771 -3.0082347 0.79485887
5.9294357 -2.9831262 0.78073961
6.1007881 -3.0772815 0.7233783
6.1104851 -3.0606642 0.72479129
6.1021414 -3.0485573 0.73218191
6.1083002 -3.0366044 0.71345025
6.1253395 -3.0399685 0.72795856
6.1330709 -3.0291748 0.7282244
6.1209989 -3.0151083 0.7193563
6.1331043 -3.0108995 0.71394539
6.1454372 -3.0093656 0.71598423
6.1477361 -2.9912641 0.71486902
6.3063402 -3.0584137 0.65334463
6.3207717 -3.056752 0.66344792
6.3166032 -3.047709 0.65714139
6.3198137 -3.0367713 0.65426528
6.3242798 -3.0330458 0.65949649
6.3432422 -3.0258288 0.66698682
6.3424578 -3.0149117 0.66000324
6.3527927 -2.9961052 0.66868216
6.3577046 -2.9891701 0.65034276
6.5161119 -3.0651445 0.59802562
6.5220361 -3.0558767 0.5966801
6.5299439 -3.0564616 0.58818859
6.5479422 -3.0454867 0.59992617
6.5396214 -3.0355611 0.59378177
6.5484118 -3.0254166 0.6025371
6.5424209 -3.0205448 0.58967787
6.5639071 -3.00068 0.59889811
6.5583973 -2.9946902 0.59808129
6.7340264 -3.0668411 0.53182912
6.7389407 -3.0571437 0.52528441
6.7350454 -3.0458083 0.53890705
6.7497916 -3.0308385 0.52283818
6.7560334 -3.022131 0.52863181
6.7539997 -3.0259919 0.5352326
6.7658081 -3.0052979 0.52285367
6.7663589 -2.9948177 0.52621621
6.7740369 -2.9870608 0.54030746
