# .PCD v0.7 - Point Cloud Data file format
VERSION 0.7
FIELDS x y z
SIZE 4 4 4
TYPE F F F
COUNT 1 1 1
WIDTH 1491
HEIGHT 1
VIEWPOINT 0 0 0 1 0 0 0
POINTS 1491
DATA ascii
-1.2669344 -3.0471973 1.5965449
-1.2701839 -3.0536985 1.6023371
-1.2483839 -3.0585032 1.5928149
-1.2556927 -3.0505064 1.5927584
-1.254961 -3.0455289 1.6029829
-1.2516495 -3.0560601 1.590676
-1.2382361 -3.0494721 1.5923927
-1.2285533 -3.0625587 1.5988832
-1.232527 -3.0666909 1.587114
-1.2188686 -3.067323 1.5941441
-1.2213645 -3.0611491 1.6024208
-1.2267089 -3.0624864 1.6059731
-1.2062587 -3.0662875 1.5864919
-1.2153282 -3.0616636 1.5967727
-1.2044519 -3.0605772 1.5937898
-1.2033488 -3.0804501 1.6020291
-1.1945503 -3.0711832 1.5986032
-1.1840327 -3.0765095 1.6038321
-1.1870222 -3.0700884 1.5866637
-1.1817788 -3.0742896 1.5905926
-1.1695027 -3.0852699 1.6024185
-1.1689476 -3.0858805 1.5946244
-1.164838 -3.0903289 1.6047404
-1.1602072 -3.0881374 1.6011853
-1.1652932 -3.0793626 1.6004163
-1.15336 -3.0937798 1.6014675
-1.1531852 -3.0836961 1.5934727
-1.1564341 -3.0873947 1.6018326
-1.1344519 -3.0983853 1.5982891
-1.1496356 -3.0884368 1.5922135
-1.1408882 -3.0905194 1.5968207
-1.1403128 -3.0963562 1.6024745
-1.1275291 -3.1023948 1.6053308
-1.1246275 -3.1081164 1.5920237
-1.1252785 -3.1032403 1.5891305
-1.1066964 -3.1107495 1.5934532
-1.1070609 -3.1024046 1.5894865
-1.0954181 -3.1016314 1.6034421
-1.0954131 -3.1032012 1.5880219
-1.0989494 -3.1042824 1.604159
-1.0885592 -3.1209457 1.5998163
-1.0935596 -3.1213655 1.5912337
-1.0929042 -3.1133361 1.5982032
-1.0693903 -3.1067412 1.6010356
-1.0791813 -3.1251359 1.5903226
-1.0718634 -3.1292892 1.5936729
-1.0602208 -3.1181502 1.5869346
-1.0525428 -3.1197135 1.6025295
-1.0509071 -3.1256189 1.598109
-1.0446894 -3.1194103 1.5941556
-1.0423326 -3.1271629 1.5950809
-1.0443164 -3.12427 1.5971223
-1.0348808 -3.1250775 1.5887231
-1.0384737 -3.1267292 1.5884427
-1.0392321 -3.1425321 1.5912852
-1.0307015 -3.1353793 1.591486
-1.0188186 -3.1409483 1.6043313
-1.013672 -3.1432056 1.5971128
-1.0129284 -3.148196 1.6054821
-1.0166034 -3.1313393 1.6015472
-1.0042297 -3.1364987 1.5913408
-0.99092877 -3.1480165 1.6055022
-0.99558455 -3.1344755 1.6003251
-0.98863751 -3.1489062 1.5949591
-0.981969 -3.1484764 1.5952468
-0.99245596 -3.1438987 1.6041378
-0.98274028 -3.151823 1.5889041
-0.98017734 -3.158988 1.5928514
-0.96483094 -3.1497982 1.5932403
-0.96111339 -3.1486742 1.5919118
-0.96132874 -3.1595697 1.5868437
-0.95174867 -3.1615591 1.5916717
-0.94800526 -3.152601 1.5914481
-0.94943702 -3.1610949 1.5981952
-0.93623298 -3.167321 1.5867673
-0.94273937 -3.1684368 1.6013061
-0.94035286 -3.1642416 1.5893033
-0.93319821 -3.16189 1.5915123
-0.92209452 -3.1686006 1.6042819
-0.87889218 -2.9994907 1.6780852
-0.86897099 -2.9914498 1.6838059
-0.86411601 -2.9982433 1.6688893
-0.85443145 -2.9857097 1.6842766
-0.8449688 -2.9990263 1.6725098
-0.84875745 -3.0035591 1.6758505
-0.84397227 -2.9990201 1.6794027
-0.84464663 -2.9965186 1.6684713
-0.83732212 -2.9912879 1.6812065
-0.82778686 -2.9993813 1.66854
-0.82548052 -3.0004096 1.6697726
-0.82791466 -2.9957013 1.6802708
-0.82462645 -3.0103245 1.6651939
-0.81625324 -2.9994512 1.6838633
-0.81249112 -3.003305 1.6704229
-0.80049419 -3.0151386 1.6736509
-0.80515504 -3.0063803 1.6826128
-0.80626208 -3.0024912 1.6752656
-0.79829895 -3.0154741 1.6743323
-0.84460682 -3.1809423 1.5879377
-0.83632356 -3.1905465 1.600232
-0.82680595 -3.1867859 1.5984004
-0.8267886 -3.2039399 1.6031054
-0.82184654 -3.1969247 1.5998379
-0.81823349 -3.1903532 1.5938647
-0.80805916 -3.1959922 1.5971999
-0.81465536 -3.1905012 1.5904299
-0.79228795 -3.1903276 1.5886794
-0.79726619 -3.2064033 1.595071
-0.78317612 -3.2059925 1.5949355
-0.82120484 -3.3802857 1.5078286
-0.8224172 -3.3910649 1.5241996
-0.82545954 -3.3862929 1.5245826
-0.8237952 -3.3810472 1.5131404
-0.80539685 -3.3766582 1.5094229
-0.81297004 -3.3865662 1.5212134
-0.7972064 -3.3875432 1.5196358
-0.78821129 -3.3906274 1.5193663
-0.80096489 -3.3831661 1.5241494
-0.82934999 -3.5651581 1.4319198
-0.81559443 -3.5663795 1.4435817
-0.83039868 -3.5735431 1.4456358
-0.80883026 -3.5684803 1.4336262
-0.80687714 -3.5664861 1.4480202
-0.79636472 -3.5708284 1.4479547
-0.80956829 -3.5874801 1.4391257
-0.79097968 -3.5731058 1.4304577
-0.79396713 -3.5744758 1.4398369
-0.81699365 -3.7529199 1.3592567
-0.81521356 -3.762943 1.355414
-0.80711603 -3.7642043 1.3515198
-0.80735493 -3.7652652 1.3616252
-0.80553824 -3.7697546 1.3579493
-0.79572952 -3.7572896 1.3574166
-0.79152524 -3.7593126 1.3536837
-0.82539898 -3.9395006 1.2758889
-0.82983476 -3.9461963 1.2721419
-0.82293689 -3.9608843 1.288146
-0.80665827 -3.9438338 1.2863997
-0.81241274 -3.9502618 1.2757927
-0.80200827 -3.9538524 1.2850795
-0.79549646 -3.9629436 1.2744532
-0.77887768 -3.9554813 1.2804778
-0.78593326 -3.9634752 1.2801002
-0.77351999 -3.9525311 1.2788256
-0.76483804 -3.9627149 1.2784411
-0.77540386 -3.9628553 1.2725245
-0.76971519 -3.9616206 1.2730759
-0.74802089 -3.969631 1.2918262
-0.74807149 -3.9689217 1.2852893
-0.73872757 -3.9633353 1.2762947
-0.74009538 -3.9767659 1.2793342
-0.73208803 -3.9591081 1.2909535
-0.71805471 -3.9740379 1.2756885
-0.72439742 -3.9620879 1.2724695
-0.71201336 -3.9669909 1.280161
-0.70001245 -3.9679964 1.2887986
-0.71392673 -3.9688513 1.2797498
-0.70728809 -3.9735515 1.2837615
-0.70189774 -3.9838433 1.2895458
-0.68304306 -3.9703338 1.2819721
-0.67318153 -3.983736 1.2820156
-0.68027914 -3.9746766 1.280757
-0.67575622 -3.9771304 1.2856008
-0.66649687 -3.9714756 1.2834191
-0.66045517 -3.9789863 1.2773511
-0.64672077 -3.9800475 1.2912867
-0.64434749 -3.9805753 1.2853684
-0.65102172 -3.9800184 1.2757436
-0.63368297 -3.9796267 1.2768126
-0.63055867 -3.9859369 1.272369
-0.63500684 -3.9879436 1.2754933
-0.61941022 -3.9826076 1.2886395
-0.62507105 -3.9783092 1.2802866
-0.60588682 -3.9903135 1.2785352
-0.60888308 -3.9818399 1.2902123
-0.59794605 -3.9851961 1.2817595
-0.59307235 -3.9917452 1.2737024
-0.59411561 -3.990536 1.2871177
-0.5847826 -3.9975564 1.2818328
-0.5743795 -3.9870224 1.2911378
-0.5684188 -3.9865077 1.2793285
-0.55933267 -3.9959686 1.2737397
-0.55709916 -3.9966638 1.2733262
-0.56321758 -4.0037494 1.2817771
-0.55108619 -3.9994075 1.2795632
-0.54727674 -3.9897056 1.2748462
-0.53191894 -4.0007086 1.2844257
-0.5246172 -3.9983339 1.2760524
-0.52389896 -3.9922071 1.2814885
-0.52846467 -4.0012589 1.2782809
-0.52372432 -4.009933 1.2764025
-0.51079232 -3.9951053 1.2858697
-0.50344807 -4.0036292 1.2754405
-0.49651638 -4.0038576 1.2787163
-0.50113273 -3.9975424 1.2871175
-0.48796204 -4.0130062 1.2859957
-0.47950733 -3.9987013 1.2746388
-0.48147219 -4.0026855 1.2864161
-0.47180948 -4.0115438 1.285072
-0.45670965 -4.0105596 1.2754201
-0.46481654 -4.0104294 1.2778302
-0.45480093 -4.0029621 1.2757967
-0.45531717 -4.0137458 1.28596
-0.44626176 -4.0031953 1.2766074
-0.43392956 -4.0028586 1.2742752
-0.43319544 -4.0149498 1.2771765
-0.43358213 -4.0041862 1.2750716
-0.42532492 -4.0209885 1.2896639
-0.40528965 -4.0137291 1.276072
-0.40659761 -4.016973 1.2841297
-0.39755663 -4.013927 1.2729757
-0.40610468 -4.0064697 1.2899393
-0.39668551 -4.0251341 1.2767612
-0.37710232 -4.020349 1.2747682
-0.38687092 -4.0088391 1.2737387
-0.37897095 -4.022203 1.2812366
-0.36816895 -4.0215626 1.280109
-0.35947108 -4.0182743 1.2827826
-0.35618013 -4.0205612 1.2733103
-0.34648037 -4.0297675 1.2811819
-0.34872222 -4.0155449 1.2726791
-0.3421174 -4.0154834 1.2722051
-0.3385483 -4.0316167 1.2736305
-0.32815671 -4.0137811 1.2803968
-0.31975725 -4.0313292 1.2792213
-0.31238672 -4.0265932 1.2852222
-0.31751764 -4.0166721 1.2723961
-0.30377555 -4.0236707 1.2833828
-0.30735934 -4.0329967 1.2725992
-0.30041468 -4.0182419 1.2731183
-0.28559786 -4.0313487 1.288361
-0.27928331 -4.0234709 1.2841582
-0.27344221 -4.0176449 1.284308
-0.26617506 -4.0270491 1.2827708
-0.27214107 -4.0336761 1.2841551
-0.25928208 -4.0185561 1.2907369
-0.26042175 -4.0341902 1.2876935
-0.25438693 -4.0217066 1.2780975
-0.23736487 -4.0384316 1.2796137
-0.23112588 -4.0338373 1.2763151
-0.22436735 -4.0200529 1.2803323
-0.22236571 -4.0255799 1.2726418
-0.22456627 -4.0308938 1.2911838
-0.20661667 -4.0345678 1.2807206
-0.2102038 -4.0298362 1.284021
-0.21240622 -4.0378747 1.2828249
-0.20802642 -4.0326824 1.2863698
-0.18668959 -4.0270853 1.2827656
-0.19494833 -4.0300961 1.2827959
-0.18169047 -4.0324993 1.2877718
-0.17173085 -4.0337753 1.2868762
-0.1777537 -4.0386815 1.2807891
-0.17146669 -4.0314207 1.2897165
-0.16663727 -4.0318432 1.2752897
-0.15227085 -4.0414863 1.2859067
-0.15460366 -4.0389652 1.2887894
-0.13813224 -4.0376983 1.2771611
-0.13811563 -4.040729 1.2914187
-0.14170285 -4.0376539 1.2829458
-0.12525955 -4.0269561 1.2723427
-0.12384009 -4.0319343 1.2807286
-0.12331596 -4.0285711 1.2844652
-0.10887871 -4.0445576 1.2757119
-0.10551389 -4.0413513 1.2867774
-0.096575588 -4.0294161 1.2884334
-0.097020164 -4.0254507 1.2728361
-0.09458176 -4.0306516 1.2787231
-0.08377149 -4.0414739 1.2817889
-0.078703478 -4.0415215 1.2881321
-0.062108152 -4.0307651 1.285367
-0.056115773 -4.0442276 1.27781
-0.061737396 -4.0428047 1.2737942
-0.043622233 -4.0325842 1.2739621
-0.054260306 -4.0446386 1.2774988
-0.03383277 -4.0333943 1.2731256
-0.031749055 -4.0282345 1.2728646
-0.025262579 -4.046277 1.2875414
-0.032888994 -4.0391493 1.2915267
-0.017449504 -4.0325937 1.2755872
-0.015666882 -4.0350838 1.2905198
-0.016649218 -4.0372229 1.2720972
-0.0051885592 -4.0306239 1.2751966
0.0022562542 -4.0315514 1.2886078
0.0098691033 -4.028758 1.2900484
0.02101866 -4.0311785 1.282809
0.027795052 -4.0371566 1.2807971
0.034310315 -4.0422902 1.280803
0.0355023 -4.0406919 1.2879888
0.040679596 -4.0292954 1.2817739
0.049917392 -4.0417581 1.2731051
0.054087717 -4.0408454 1.2823261
0.059835341 -4.0341134 1.2781663
0.068682179 -4.045579 1.2730917
0.070940197 -4.0350733 1.2908152
0.074638717 -4.0390601 1.2861151
0.071097694 -4.0419121 1.2754256
0.085544616 -4.043891 1.2795837
0.079997309 -4.0303197 1.2853135
0.1016356 -4.0372128 1.2824049
0.097058862 -4.0405097 1.2869909
0.10381321 -4.0452785 1.2724392
0.11978834 -4.0299406 1.284561
0.11160343 -4.0313978 1.2851512
0.11834378 -4.0362382 1.276173
0.12280742 -4.0430217 1.2831259
0.14257066 -4.0389872 1.2871368
0.13164414 -4.0261469 1.289071
0.14487553 -4.0244946 1.2844708
0.14383648 -4.026845 1.2728639
0.15988857 -4.0394125 1.2778383
0.16052631 -4.0308661 1.2779151
0.16661216 -4.0319853 1.2731922
0.16481949 -4.0269289 1.2868669
0.18361671 -4.040772 1.2755482
0.19343528 -4.0357914 1.2772853
0.19020647 -4.0366869 1.2828882
0.19098812 -4.0341477 1.2811548
0.19370361 -4.0240164 1.2808888
0.21181856 -4.0405626 1.2780802
-3.7315767 -2.9962218 0.99911267
-3.7194026 -3.0008633 1.0111295
-3.72962 -3.0025966 0.99508691
-3.7268574 -3.0131221 0.99490762
-3.7084765 -3.004313 1.0022169
-3.7083025 -3.0188942 0.9937886
-3.7175255 -3.0269794 1.0025543
-3.6980379 -3.0354631 1.0046742
-3.7035673 -3.0302713 0.99388099
-3.6888769 -3.0416901 0.99410957
-3.6829426 -3.0354195 0.99806368
-3.6923862 -3.0411613 1.0025994
-3.6898057 -3.0613146 1.0106189
-3.6832607 -3.0629065 0.99332452
-3.6768878 -3.0703259 1.0100449
-3.6631985 -3.0617869 0.99738371
-3.6579301 -3.0666938 1.0018309
-3.6638892 -3.0763433 1.0029825
-3.6477208 -3.0757596 0.99450785
-3.6423388 -3.0847299 0.99979031
-3.6567209 -3.0920179 0.99651355
-3.6471419 -3.0930085 1.0126591
-3.6330202 -3.095685 0.99380934
-3.6308715 -3.1160898 0.99851996
-3.4859948 -2.9942524 1.0781565
-3.4845741 -3.0029678 1.074273
-3.4758074 -3.0107102 1.0706168
-3.4825871 -3.008714 1.0824394
-3.4682081 -3.0148587 1.0799679
-3.4622972 -3.019938 1.073642
-3.4710968 -3.0237231 1.0851384
-3.4631667 -3.0222602 1.0807483
-3.459084 -3.0310133 1.0787797
-3.4538445 -3.0419631 1.0814983
-3.4438875 -3.0324035 1.0709902
-3.4514866 -3.0456145 1.0766511
-3.4429624 -3.0542574 1.0794482
-3.4380875 -3.0538845 1.0891143
-3.4213834 -3.0633445 1.0775023
-3.4271441 -3.0711122 1.0856719
-3.419224 -3.0719049 1.0749111
-3.4198008 -3.0689993 1.0704626
-3.4047608 -3.0862501 1.082104
-3.4116831 -3.0825069 1.0876329
-3.39588 -3.0930591 1.0875525
-3.4105783 -3.0954692 1.0790864
-3.3996091 -3.0936208 1.086797
-3.3858361 -3.1111701 1.0796938
-3.3823903 -3.1162946 1.0879378
-3.3905499 -3.1114657 1.0732157
-3.234971 -2.9978569 1.1596955
-3.2458835 -2.9940872 1.1566712
-3.2412381 -2.999584 1.1611793
-3.2249451 -3.0163157 1.1542081
-3.2231169 -3.021564 1.1614561
-3.2213626 -3.0258365 1.1510592
-3.2280681 -3.0234725 1.1472698
-3.207057 -3.0316751 1.1506844
-3.2131426 -3.0207782 1.1537216
-3.210978 -3.0423934 1.1663287
-3.2035291 -3.0483515 1.1521271
-3.2067933 -3.049413 1.1662351
-3.1930759 -3.0500264 1.15938
-3.1948438 -3.0585506 1.1603211
-3.1835768 -3.0494564 1.1605361
-3.1850555 -3.0628242 1.1609946
-3.1769249 -3.0671201 1.1483275
-3.1725776 -3.0746336 1.1519619
-3.1648095 -3.0724678 1.1509919
-3.1539979 -3.0723789 1.1528991
-3.150573 -3.0890887 1.153335
-3.1613436 -3.0933166 1.15719
-3.158 -3.0880871 1.164906
-3.1415055 -3.088892 1.1485668
-3.1440635 -3.1027024 1.1657845
-3.1464005 -3.1022704 1.1540911
-3.1282728 -3.1179926 1.1625526
-3.1228061 -3.1136589 1.1479454
-3.1136987 -3.1258543 1.1599427
-2.9951701 -3.0010047 1.2336611
-2.9852958 -2.9873953 1.2378972
-2.9749799 -3.0088725 1.2423261
-2.980803 -3.0113285 1.2363993
-2.9789042 -3.0016186 1.2340763
-2.9733391 -3.0188012 1.2423453
-2.9705503 -3.0226619 1.235443
-2.9594493 -3.0127416 1.2372087
-2.9598808 -3.0217075 1.2276926
-2.9549139 -3.0259254 1.2303593
-2.9379437 -3.026365 1.2317107
-2.9444487 -3.0411196 1.2308556
-2.9467118 -3.0497527 1.2327015
-2.92454 -3.0484097 1.2362638
-2.9282894 -3.0493743 1.2337027
-2.9343562 -3.048986 1.2381194
-2.9121482 -3.0500269 1.2428304
-2.9168367 -3.0641904 1.2416105
-2.919754 -3.063015 1.2355677
-2.9121816 -3.0611081 1.2294439
-2.901937 -3.0664723 1.2270116
-2.8903351 -3.0825882 1.23395
-2.8995829 -3.0852196 1.2363745
-2.8869789 -3.0899379 1.2442553
-2.8908069 -3.0826697 1.2352787
-2.8771904 -3.0857382 1.2307919
-2.8791516 -3.0908742 1.2293596
-2.8763962 -3.10498 1.2378532
-2.874855 -3.1062899 1.2316053
-2.8593509 -3.10432 1.231342
-2.8699651 -3.1164038 1.2297859
-2.8630061 -3.1211896 1.2361794
-2.8491032 -3.1195328 1.2440006
-2.7285354 -2.9931831 1.308356
-2.7245064 -2.9912133 1.3068277
-2.7094488 -2.9999537 1.3062723
-2.7188725 -2.994988 1.304616
-2.7097232 -3.011605 1.3128831
-2.7120752 -3.0110242 1.3038635
-2.7006698 -3.019289 1.3208307
-2.6895223 -3.0225229 1.309725
-2.6799257 -3.0231583 1.3178383
-2.6839304 -3.0342567 1.3116072
-2.6801085 -3.0333936 1.3193142
-2.6691253 -3.0326881 1.3128043
-2.6796651 -3.041117 1.3213612
-2.6707551 -3.0431666 1.3186853
-2.663496 -3.0402699 1.3031881
-2.6679647 -3.0439327 1.3120612
-2.6614478 -3.0604033 1.3164533
-2.6579585 -3.0499449 1.3213896
-2.6455696 -3.0541134 1.3094623
-2.6450622 -3.0665157 1.310203
-2.6307809 -3.0593302 1.3155668
-2.6287873 -3.0654011 1.3053904
-2.6332984 -3.066256 1.3105335
-2.6292477 -3.0824511 1.3173693
-2.6278675 -3.0756421 1.3108385
-2.6219795 -3.0775619 1.3043752
-2.6072133 -3.0972302 1.3051658
-2.6080499 -3.0976801 1.3201334
-2.603945 -3.0900168 1.3146451
-2.5917625 -3.1061273 1.320461
-2.598834 -3.1122427 1.317163
-2.6005368 -3.1006558 1.3114889
-2.5924108 -3.1178765 1.3086482
-2.5791366 -3.1153481 1.3132954
-2.5790217 -3.1157463 1.3084282
-2.5654323 -3.1145682 1.3053116
-2.5783014 -3.122941 1.3061911
-2.570375 -3.1364725 1.3102793
-2.5674758 -3.1302264 1.3056831
-2.4334335 -2.9931664 1.3858222
-2.4303963 -2.9903162 1.386287
-2.4306526 -2.9935114 1.381973
-2.4165781 -2.9929285 1.3840665
-2.4253395 -3.0034242 1.3923105
-2.4094489 -3.0181627 1.3837724
-2.4184208 -3.0036747 1.380022
-2.4105048 -3.0064242 1.3915029
-2.4017043 -3.0256197 1.3930498
-2.4088111 -3.0262942 1.3844346
-2.4005094 -3.0339358 1.3935013
-2.3892629 -3.0227284 1.3888348
-2.397547 -3.0359702 1.3843839
-2.3901405 -3.0393355 1.3839209
-2.3806357 -3.0356646 1.3963612
-2.3828824 -3.0403104 1.3974563
-2.3736625 -3.0381401 1.3964263
-2.3681884 -3.0522704 1.3960285
-2.3712287 -3.0618217 1.3798106
-2.3527174 -3.062706 1.3862877
-2.3628168 -3.0595191 1.3884871
-2.3438449 -3.0693212 1.3852514
-2.3495347 -3.0716476 1.3921256
-2.3396709 -3.0708125 1.3789806
-2.3302655 -3.0647221 1.3928465
-2.3284154 -3.0851324 1.3854007
-2.3254654 -3.0805817 1.383453
-2.3235412 -3.0748203 1.3906972
-2.3220098 -3.0763669 1.3917061
-2.3166921 -3.0836751 1.3951411
-2.3048925 -3.0853601 1.3850671
-2.3108892 -3.092355 1.3884892
-2.300117 -3.0893261 1.392877
-2.3024659 -3.1007247 1.3813862
-2.2979555 -3.1070135 1.3792659
-2.2995749 -3.1157522 1.3800097
-2.2886353 -3.1058459 1.3885721
-2.279639 -3.1183245 1.3861585
-2.2833941 -3.1135857 1.3854541
-2.2661357 -3.1278477 1.3806915
-2.2654381 -3.1146328 1.3974882
-2.2548096 -3.131742 1.3905281
-2.2607551 -3.1224113 1.3898287
-2.2623081 -3.1397657 1.3809565
-2.2553475 -3.1369507 1.3890156
-2.1430831 -2.9900963 1.4687486
-2.1376998 -2.9865067 1.4643965
-2.12375 -2.9982755 1.4707674
-2.1322095 -2.9981585 1.4650726
-2.1213694 -3.0051467 1.4683055
-2.1152873 -2.9958053 1.4679364
-2.1124048 -3.0002081 1.4736352
-2.1164782 -3.0149329 1.4718361
-2.1012468 -3.0155923 1.4758474
-2.0948834 -3.0136769 1.4658322
-2.100457 -3.0113068 1.4758202
-2.0834925 -3.0277383 1.4723943
-2.0908761 -3.0344093 1.4601907
-2.0918846 -3.0337331 1.4710889
-2.0785837 -3.0264142 1.457978
-2.082046 -3.037215 1.4571819
-2.0658734 -3.0293388 1.4749504
-2.063998 -3.049746 1.4609556
-2.0639174 -3.0391359 1.469257
-2.0598216 -3.0463805 1.4624237
-2.045737 -3.043421 1.4609041
-2.0416603 -3.0477233 1.4658909
-2.0410054 -3.0636394 1.4671388
-2.0325503 -3.0647988 1.4719889
-2.0331929 -3.056896 1.4670782
-2.0269425 -3.0566983 1.4742808
-2.0214839 -3.0645745 1.4722679
-2.0182531 -3.0748258 1.4727501
-2.0290132 -3.0692515 1.4667388
-2.0114677 -3.0838404 1.4563733
-2.020752 -3.0686076 1.4718521
-2.0115514 -3.0735648 1.465907
-1.9973603 -3.0821381 1.4669181
-2.0019176 -3.0865312 1.4696366
-2.0016208 -3.0958457 1.4631184
-1.9862306 -3.0831926 1.4596528
-1.983634 -3.0893681 1.4711596
-1.9830464 -3.0966034 1.4752575
-1.9819727 -3.0988936 1.4677664
-1.9669064 -3.1079371 1.4685169
-1.9622017 -3.1105676 1.4673251
-1.9620146 -3.108304 1.4639946
-1.9677685 -3.1161599 1.4749033
-1.9525075 -3.1128876 1.4642256
-1.9545243 -3.1136367 1.4670339
-1.9430553 -3.123318 1.4652896
-1.9350482 -3.1147289 1.4601583
-1.9355305 -3.1298821 1.470574
-1.9319111 -3.1282957 1.4614758
-1.935779 -3.1359806 1.4661044
-1.9188926 -3.1233027 1.4708668
-1.9231942 -3.134783 1.4606508
-1.9108226 -3.1363666 1.4653308
-1.9075384 -3.1470423 1.4560292
-1.9149282 -3.1440918 1.4687182
-1.8995061 -3.1540332 1.4744598
-1.8104495 -2.9823956 1.5487173
-1.802116 -2.993412 1.533344
-1.8033633 -3.0051818 1.5422726
-1.7937053 -3.0051956 1.5462254
-1.7794152 -2.9927032 1.5455595
-1.7803594 -3.0088961 1.5361105
-1.7715158 -2.9971051 1.5477688
-1.7779889 -3.0064211 1.5514362
-1.7737602 -3.0075221 1.5407326
-1.7568389 -3.0175998 1.5427604
-1.7541727 -3.0183985 1.5411557
-1.7544446 -3.0150492 1.5510617
-1.7500864 -3.0171366 1.5517193
-1.7567961 -3.0137584 1.5348786
-1.7395495 -3.0202863 1.55304
-1.7429655 -3.0319581 1.5375122
-1.7358271 -3.0389895 1.5362734
-1.7370269 -3.0367007 1.5482104
-1.7345561 -3.0343933 1.5415325
-1.7227852 -3.0393782 1.5472572
-1.7089834 -3.0459137 1.5346576
-1.7167828 -3.0369418 1.5478756
-1.7146729 -3.0478354 1.541469
-1.711902 -3.0496662 1.540897
-1.7059684 -3.058481 1.5362478
-1.7018702 -3.0549459 1.5423716
-1.6932964 -3.0485101 1.5439029
-1.6859581 -3.0475152 1.5501559
-1.6866796 -3.0682936 1.5411433
-1.6740756 -3.0615489 1.549567
-1.6757437 -3.0652535 1.5338702
-1.6700081 -3.061012 1.5495547
-1.671051 -3.0589185 1.5367488
-1.6584975 -3.0783153 1.5445093
-1.6665126 -3.0760429 1.5458463
-1.6591736 -3.07394 1.5531037
-1.6457076 -3.0875347 1.5491762
-1.6507072 -3.0780656 1.5486174
-1.6494505 -3.0735955 1.5496473
-1.6372032 -3.0808029 1.5397835
-1.636529 -3.0939624 1.5485703
-1.6315483 -3.085674 1.5439482
-1.6308799 -3.0827196 1.5437632
-1.6230143 -3.0915058 1.5465188
-1.607385 -3.0926044 1.5338783
-1.6104156 -3.0906649 1.5456661
-1.6061856 -3.0995634 1.5461787
-1.6058799 -3.0977683 1.5384738
-1.6061299 -3.0990272 1.5375463
-1.5853468 -3.1123521 1.5517129
-1.5944245 -3.1093197 1.5350152
-1.5747122 -3.1056266 1.5488952
-1.5796188 -3.1055884 1.5480129
-1.5847075 -3.1220109 1.5406215
-1.5670373 -3.1271336 1.5344027
-1.5620047 -3.1196196 1.5523887
-1.565181 -3.1322114 1.5437351
-1.5478419 -3.1288364 1.5391296
-1.5582044 -3.1300535 1.5355121
-1.5494915 -3.1348329 1.5408105
-1.546609 -3.1330383 1.5513759
-1.5404211 -3.1358829 1.5478631
-1.5403502 -3.1279888 1.5466112
-1.5411587 -3.1295409 1.5511533
-1.5293554 -3.1377838 1.5527831
-1.5237679 -3.1453576 1.5441313
-1.5201916 -3.140475 1.5450858
-1.5052657 -3.1426229 1.5516075
-1.5149425 -3.1395068 1.5390978
-1.5082338 -3.1520536 1.5439887
-1.4962238 -3.1460969 1.552848
-1.4936454 -3.1583347 1.5410302
-1.4155337 -2.9881759 1.6164672
-1.4179468 -2.9898143 1.6153083
-1.3958153 -3.0040407 1.6280557
-1.392051 -2.9970744 1.6153723
-1.3969359 -2.9909291 1.6297085
-1.4008635 -2.9942584 1.6240275
-1.3782668 -3.0116677 1.6235873
-1.3881769 -3.0067749 1.6127187
-1.3731935 -3.0142813 1.6299191
-1.369348 -3.0036213 1.6169878
-1.3773177 -3.0183084 1.6296047
-1.3670468 -3.0195937 1.6225667
-1.3579321 -3.0229354 1.6232799
-1.3560674 -3.0067039 1.6129316
-1.3468834 -3.0195506 1.6106945
-1.3433605 -3.0205212 1.6270883
-1.3455161 -3.0230942 1.628027
-1.3481091 -3.019779 1.6158069
-1.3415681 -3.0256846 1.6180232
-1.3378241 -3.0319521 1.6128356
-1.3270088 -3.0303991 1.6148921
-1.3235741 -3.0227876 1.617588
-1.3271747 -3.0302768 1.6188613
-1.3100593 -3.0401189 1.6182792
-1.3032899 -3.0449977 1.6267575
-1.2987549 -3.0305769 1.6161665
-1.2978237 -3.0425375 1.624898
-1.2959511 -3.0413194 1.6188341
-1.286296 -3.0377915 1.6287481
-1.2944221 -3.0547533 1.6142722
-1.2877333 -3.0451362 1.623221
-1.2789854 -3.0563233 1.6216471
-1.267539 -3.0553524 1.6144439
-1.274817 -3.0615106 1.6192524
-1.2626746 -3.045146 1.6210302
-1.2620512 -3.0484955 1.619071
-1.2520165 -3.0551658 1.6269873
-1.2532479 -3.0642178 1.6179518
-1.2605405 -3.0678716 1.6142684
-1.2379168 -3.0639112 1.6154413
-1.2497665 -3.057524 1.6280438
-1.2326648 -3.0666533 1.6112654
-1.2371347 -3.0686033 1.6172583
-1.2288054 -3.0621009 1.6188875
-1.2356651 -3.0677283 1.61867
-1.2207446 -3.0770066 1.6168852
-1.207781 -3.0805275 1.6302067
-1.2068986 -3.0695591 1.6162467
-1.2150494 -3.0701652 1.6203972
-1.2068813 -3.0724323 1.6302668
-1.1975378 -3.0908358 1.6282762
-1.1955895 -3.076427 1.6189028
-1.1904172 -3.09078 1.6293198
-1.1792496 -3.0810976 1.6279738
-1.1864506 -3.0825715 1.6227291
-1.1738667 -3.0934241 1.6299284
-1.1830654 -3.0956142 1.6153235
-1.1789403 -3.1012261 1.6133975
-1.1687728 -3.0992947 1.6125698
-1.1544524 -3.0935037 1.6111735
-1.1502602 -3.10268 1.6130662
-1.1480564 -3.0942214 1.6110539
-1.1552237 -3.1049061 1.6163692
-1.1519717 -3.1087413 1.6130412
-1.1300635 -3.1040976 1.6299074
-1.1333978 -3.1111927 1.6175835
-1.1295304 -3.1118112 1.6247255
-1.1202658 -3.112632 1.627906
-1.1129249 -3.1076148 1.6146619
-1.1264096 -3.1126089 1.6288469
-1.1212884 -3.1177449 1.6154875
-1.1142722 -3.1250134 1.6122125
-1.1092662 -3.1237879 1.6198728
-1.0989428 -3.1236513 1.6253119
-1.0919451 -3.1259494 1.6170022
-1.0880791 -3.1159272 1.6231992
-1.0965348 -3.1263852 1.6303731
-1.0778465 -3.1319287 1.6183158
-1.0759755 -3.1344831 1.6128592
-1.0673466 -3.1348763 1.6239858
-1.0645305 -3.1345048 1.6115476
-1.0550716 -3.1314757 1.6134059
-1.0688856 -3.1278014 1.6180489
-1.0550373 -3.1381664 1.6243815
-1.0557477 -3.1458991 1.6299628
-1.0447659 -3.1341329 1.627107
-1.0475849 -3.1351917 1.6153278
-1.043228 -3.1419339 1.6195338
-1.0309263 -3.1511788 1.6227078
-1.0240792 -3.1361704 1.6270047
-1.0261034 -3.142724 1.6131835
-1.020564 -3.1441987 1.6238953
-1.013164 -3.1438692 1.6197795
-1.0211192 -3.1540756 1.6267903
-1.0027398 -3.149379 1.6275542
-0.99877697 -3.1580887 1.6215639
-0.99766803 -3.1540077 1.615988
-0.98833638 -3.1499624 1.6251372
-0.99479675 -3.1580098 1.6265026
-0.97808117 -3.1636064 1.6243314
-0.9770667 -3.1556258 1.6170555
-0.96987158 -3.1665065 1.6297477
-0.97196269 -3.1543896 1.6242057
-0.95816779 -3.1546326 1.6298876
-0.95736015 -3.1609025 1.6216905
-0.95578665 -3.1676183 1.6262016
-0.90660566 -3.0010917 1.6934048
-0.89684111 -2.986115 1.6888598
-0.89792562 -3.0020134 1.6976671
-0.89764291 -2.9856131 1.702271
-0.87952971 -2.9926169 1.6962426
-0.88869065 -2.9968462 1.7007147
-0.88515764 -3.0075891 1.6986784
-0.86716497 -3.0089614 1.6977679
-0.86348861 -2.9939523 1.6919497
-0.86800772 -3.0017982 1.7007722
-0.86801398 -2.9984889 1.7009274
-0.85801452 -3.0096004 1.6973284
-0.85255837 -3.0059836 1.6990943
-0.83829331 -3.0062733 1.6985182
-0.83942264 -3.0126402 1.6921898
-0.84657872 -3.0123608 1.702878
-0.829261 -3.0127423 1.7040633
-0.83397794 -3.0193272 1.7051103
-0.81960386 -3.006433 1.7023945
-0.83104628 -3.0222576 1.6930553
-0.81366462 -3.0222893 1.6882418
-0.81612611 -3.0165243 1.6935273
-0.80218494 -3.0095077 1.7036341
-0.80647629 -3.0124319 1.6946503
-0.79134226 -3.0206931 1.7004924
-0.80253494 -3.0203199 1.687801
-0.7830379 -3.02684 1.6959093
-0.82925808 -3.2007282 1.6214088
-0.82727641 -3.2060835 1.618171
-0.82800889 -3.2070968 1.620272
-0.81807894 -3.2149458 1.623499
-0.81296086 -3.209475 1.6136427
-0.80255568 -3.2142835 1.6119488
-0.80204201 -3.2076054 1.6284707
-0.81051058 -3.2100167 1.6178652
-0.79313552 -3.2078459 1.6287611
-0.7884503 -3.2104049 1.6142589
-0.84006339 -3.3955843 1.5482241
-0.82431793 -3.3842468 1.5352089
-0.83180875 -3.3981223 1.5423497
-0.81719685 -3.3865497 1.5428048
-0.81935632 -3.3943427 1.5498877
-0.81137061 -3.3962157 1.5333126
-0.80507702 -3.4020617 1.54456
-0.80226004 -3.4008646 1.5345341
-0.79004699 -3.4067826 1.5478106
-0.78693652 -3.4125068 1.5396535
-0.82023031 -3.5896075 1.4693133
-0.82020354 -3.5760875 1.4686842
-0.8131904 -3.594804 1.4753479
-0.81903481 -3.5836565 1.4747456
-0.80442244 -3.5794177 1.4675052
-0.80272567 -3.591944 1.4595402
-0.79760247 -3.5829291 1.4668707
-0.80123025 -3.5958512 1.456533
-0.83477658 -3.7814515 1.3842064
-0.81489909 -3.7686183 1.3844765
-0.82317704 -3.7719338 1.3884393
-0.80459446 -3.7802336 1.3870888
-0.80663931 -3.7865324 1.3881813
-0.80201894 -3.78369 1.381574
-0.79799926 -3.7712507 1.3803512
-0.78121829 -3.7821321 1.3877406
-0.83028048 -3.9534788 1.3080775
-0.81387895 -3.9729567 1.3138157
-0.80781341 -3.9711084 1.3152068
-0.79687369 -3.9746575 1.3105968
-0.80566227 -3.9717607 1.30383
-0.79048651 -3.9755597 1.3099148
-0.79665971 -3.9666829 1.3108447
-0.78173876 -3.9784667 1.3157535
-0.77342361 -3.971514 1.3142307
-0.76632977 -3.9730644 1.3029482
-0.77184486 -3.9710834 1.3020033
-0.75982255 -3.9782403 1.30274
-0.76206046 -3.9848728 1.3064768
-0.7429058 -3.9861085 1.3078088
-0.74835962 -3.9816771 1.3131738
-0.74057871 -3.9876161 1.3158687
-0.72671151 -3.9852757 1.3085614
-0.73191309 -3.9735634 1.3105832
-0.73220438 -3.9790866 1.3206633
-0.71401697 -3.9830682 1.3102907
-0.70711064 -3.9781184 1.302989
-0.70114791 -3.9867017 1.3096124
-0.6944471 -3.9830797 1.3106775
-0.70400804 -3.9858611 1.3115736
-0.69223565 -3.979656 1.3179599
-0.67509681 -3.9912312 1.3194582
-0.67526168 -3.9945018 1.3043402
-0.68273252 -3.988538 1.30197
-0.66818023 -3.9884312 1.3151042
-0.6635465 -3.9957037 1.3052768
-0.64928412 -4.0016384 1.3214111
-0.64232218 -3.98718 1.3099664
-0.64873552 -3.9915919 1.3031405
-0.63408244 -3.9911375 1.3145219
-0.63853198 -4.0044847 1.3130894
-0.63659406 -4.006268 1.3210547
-0.6131565 -3.9937928 1.3067149
-0.62483573 -3.9943666 1.3192964
-0.61888397 -4.0059671 1.3129346
-0.59979677 -3.9985149 1.3202422
-0.59053582 -4.0023823 1.3025492
-0.58513939 -4.0048709 1.3202411
-0.5911864 -3.999357 1.3144394
-0.58405817 -4.004776 1.310003
-0.58554745 -4.0002317 1.3131227
-0.56846809 -3.9993377 1.315354
-0.5634222 -4.0005956 1.3109477
-0.55271506 -3.9991236 1.3068471
-0.5494253 -4.017292 1.3120173
-0.55249625 -4.001966 1.3055038
-0.54825854 -4.0029736 1.3159792
-0.54171264 -4.0041804 1.3048142
-0.53747386 -4.0170312 1.3200034
-0.51903564 -4.0083518 1.310606
-0.5250327 -4.0067601 1.3065778
-0.50790912 -4.01369 1.3042605
-0.50855327 -4.0211749 1.3214942
-0.51360267 -4.0235553 1.3210013
-0.50275171 -4.0082498 1.3031335
-0.48672944 -4.0216198 1.3213772
-0.49721965 -4.0163574 1.3193908
-0.47723359 -4.0101566 1.3169675
-0.46841148 -4.0253248 1.3024555
-0.46439934 -4.0276637 1.3173774
-0.4697836 -4.0216098 1.3146371
-0.4591952 -4.0240431 1.3057057
-0.45092317 -4.012733 1.3100197
-0.44541645 -4.0320854 1.3126763
-0.44040182 -4.0262008 1.3113536
-0.43325403 -4.0299091 1.317368
-0.42786181 -4.0297241 1.3093437
-0.42445511 -4.0351696 1.3082118
-0.42347085 -4.0174112 1.3125954
-0.41699767 -4.0212598 1.3153157
-0.41560173 -4.0361123 1.304758
-0.39694533 -4.0259972 1.3124266
-0.40721959 -4.0332322 1.3120575
-0.39317891 -4.0205827 1.3129804
-0.39648092 -4.0285425 1.3204241
-0.38110492 -4.0349784 1.3047881
-0.37971374 -4.0216479 1.3099581
-0.36634609 -4.0305367 1.3102952
-0.35410956 -4.0240684 1.3089957
-0.35748869 -4.0367546 1.3044449
-0.35814676 -4.0336733 1.3056307
-0.34936193 -4.0375652 1.3175128
-0.3329078 -4.0373621 1.3027337
-0.33682206 -4.028749 1.3211694
-0.33981276 -4.0290699 1.3122033
-0.31535906 -4.0396471 1.3173507
-0.32654071 -4.0344672 1.316371
-0.31255177 -4.0415535 1.3070365
-0.29822508 -4.042038 1.3046967
-0.30519724 -4.0315371 1.310189
-0.29671964 -4.0473309 1.319273
-0.28705564 -4.0399771 1.3049674
-0.28550899 -4.0418067 1.31136
-0.27874088 -4.0331888 1.3068525
-0.27353644 -4.0332012 1.302503
-0.27729756 -4.0343995 1.3080471
-0.25591063 -4.0324197 1.3192345
-0.255503 -4.0420918 1.303791
-0.24442932 -4.0430794 1.3083103
-0.23569493 -4.0366812 1.3037697
-0.24146767 -4.0474482 1.303867
-0.23815602 -4.0341949 1.3117419
-0.22914942 -4.0450392 1.3182031
-0.21374972 -4.0347595 1.3136898
-0.22285713 -4.0449209 1.3095646
-0.21631359 -4.0444894 1.3046334
-0.20422557 -4.048317 1.3020661
-0.20094967 -4.037384 1.3102028
-0.19311684 -4.0410247 1.3177207
-0.18076433 -4.0415788 1.3119972
-0.19295201 -4.0535541 1.3158594
-0.18504208 -4.0478668 1.3133197
-0.16925682 -4.0388217 1.3202728
-0.16701007 -4.0400271 1.3178341
-0.16927618 -4.0359902 1.3055552
-0.15566722 -4.0510602 1.3140211
-0.14698921 -4.0396938 1.3189646
-0.14087819 -4.0507026 1.3151385
-0.14663012 -4.0395308 1.3079611
-0.12486392 -4.0416584 1.3205112
-0.12882084 -4.0416269 1.3213596
-0.12891534 -4.0393386 1.3081615
-0.11154929 -4.0469184 1.3042659
-0.10722992 -4.0379052 1.3194149
-0.10534889 -4.0568123 1.318843
-0.095746592 -4.0477653 1.3034351
-0.097678199 -4.0556946 1.31962
-0.094666176 -4.0431685 1.3050145
-0.075480111 -4.0420494 1.3017912
-0.083471186 -4.0448198 1.3166426
-0.078911997 -4.0572038 1.3117203
-0.07350415 -4.0553379 1.309273
-0.061294388 -4.0417628 1.3194247
-0.052980077 -4.0495248 1.3187606
-0.049516603 -4.0410633 1.3193521
-0.04662494 -4.0486565 1.3091462
-0.039141122 -4.0438385 1.3111577
-0.035472199 -4.0416665 1.3058348
-0.026408784 -4.0459657 1.3017621
-0.020568533 -4.0439143 1.3150424
-0.01987686 -4.0429621 1.3160545
-0.0041075209 -4.0422602 1.3190399
-0.01078537 -4.0550075 1.3157003
0.012688592 -4.0450983 1.3046901
0.015498367 -4.057385 1.3022257
0.018899756 -4.0524383 1.3122441
0.012095084 -4.0456672 1.3071482
0.02730193 -4.0408859 1.3042847
0.037185848 -4.0527005 1.3171738
0.042997088 -4.0443339 1.3121586
0.04208846 -4.040935 1.3081322
0.042191926 -4.0474262 1.304836
0.045280755 -4.0462542 1.3088135
0.065029807 -4.0472679 1.3027126
0.073768646 -4.0511308 1.3043299
0.080042914 -4.0572519 1.3108904
0.076335408 -4.0558372 1.3042111
0.087531976 -4.0448747 1.302294
0.095864899 -4.0496879 1.3085355
0.097086817 -4.0543489 1.3031085
0.093293339 -4.0455775 1.3210378
0.10547319 -4.0423622 1.3124255
0.11435669 -4.0417166 1.3049264
0.10721752 -4.0469813 1.3163474
0.11397716 -4.0491662 1.3038307
0.12235392 -4.050735 1.3051107
0.137291 -4.0416703 1.3077154
0.14554855 -4.0470676 1.3211844
0.15188871 -4.0497904 1.3097343
0.14447002 -4.0369492 1.3135095
0.15162414 -4.0535598 1.3059338
0.15670729 -4.0436482 1.321444
0.17317779 -4.0505109 1.3174618
0.18214892 -4.0501704 1.3080695
0.18254064 -4.0487275 1.3163389
0.19041543 -4.0445647 1.3028779
0.19956988 -4.0511217 1.3183122
0.19132867 -4.035078 1.3081721
0.19655608 -4.0383501 1.3151242
0.21033309 -4.0346971 1.3147243
-3.7483559 -3.0000196 1.0355519
-3.7425971 -2.9923298 1.030215
-3.7486134 -2.9993451 1.0390314
-3.7393591 -3.0108128 1.0302196
-3.7383063 -3.0239034 1.0319774
-3.7199962 -3.0270369 1.029048
-3.7176294 -3.0291939 1.038136
-3.7289143 -3.0372622 1.0314456
-3.7247322 -3.0286856 1.0298829
-3.7007036 -3.0481284 1.0333736
-3.697839 -3.0431147 1.0373795
-3.7059491 -3.0565343 1.03432
-3.699389 -3.0601692 1.0294839
-3.6840053 -3.0587566 1.0384134
-3.6974261 -3.0605052 1.0394796
-3.6890817 -3.0681646 1.0426335
-3.6836598 -3.0776858 1.0288459
-3.6691425 -3.0827277 1.0321995
-3.6813085 -3.0878303 1.0293334
-3.67503 -3.0931547 1.0322219
-3.6652536 -3.0998719 1.045316
-3.6514642 -3.0989637 1.0301762
-3.660727 -3.1157677 1.0365813
-3.5140431 -3.0013454 1.1054213
-3.499366 -3.0045555 1.1218319
-3.5036163 -3.003715 1.1157448
-3.5047054 -3.0017533 1.1052923
-3.4995754 -3.0095828 1.1149478
-3.4910851 -3.0138934 1.1046443
-3.4854541 -3.0162482 1.1141542
-3.4769275 -3.0331562 1.1220788
-3.4753003 -3.0406115 1.1160368
-3.468806 -3.0416739 1.1183106
-3.4758999 -3.0411792 1.1199986
-3.4699957 -3.0501981 1.1233876
-3.467674 -3.0476639 1.1125221
-3.4514327 -3.0504234 1.1085174
-3.4456372 -3.0522635 1.1215767
-3.4501796 -3.0698311 1.1152127
-3.4450185 -3.0659921 1.1113756
-3.430341 -3.077858 1.1155059
-3.427732 -3.0723345 1.1170505
-3.4311583 -3.0845618 1.1223966
-3.4323044 -3.0881348 1.1130952
-3.4117556 -3.0900617 1.1196269
-3.4078109 -3.0939324 1.1135384
-3.4147253 -3.1058338 1.1095306
-3.4056375 -3.1162183 1.1085165
-3.4034839 -3.1154306 1.1147629
-3.2713642 -2.9886227 1.185519
-3.2595732 -2.996397 1.1933765
-3.2436457 -3.0058684 1.1915673
-3.2461669 -3.0030789 1.1823347
-3.243336 -3.0057545 1.1943272
-3.2498 -3.012207 1.1891844
-3.2297258 -3.0190477 1.1849568
-3.235734 -3.0171418 1.1936076
-3.2257435 -3.0304945 1.1966473
-3.2167611 -3.0260458 1.1852424
-3.2215257 -3.0301602 1.1802555
-3.2113769 -3.0466745 1.1920593
-3.2133641 -3.0514586 1.198951
-3.1971543 -3.0429678 1.1931858
-3.2101707 -3.055856 1.1892927
-3.1911886 -3.0594244 1.1834886
-3.1973429 -3.0671418 1.1953796
-3.1877184 -3.0650959 1.1937063
-3.1894372 -3.0772953 1.1832044
-3.1881099 -3.0847535 1.1816691
-3.1781812 -3.0812247 1.1805315
-3.1732333 -3.0918009 1.1873857
-3.1764753 -3.088625 1.1939559
-3.1728194 -3.0935061 1.1935111
-3.1549225 -3.0956767 1.1846665
-3.1609128 -3.1031442 1.1967356
-3.1527007 -3.1010516 1.1855639
-3.1525915 -3.1136265 1.1809082
-3.1341493 -3.1122179 1.1885175
-3.0150576 -2.9832191 1.2689753
-3.0088229 -2.9989865 1.2615657
-3.00372 -2.9941227 1.2680261
-2.9917572 -2.996824 1.2621025
-2.9932182 -3.0001988 1.2557321
-2.9951179 -3.0100121 1.2716192
-2.9858568 -3.0101571 1.2644606
-2.9845204 -3.026438 1.2638105
-2.97435 -3.0269637 1.2749954
-2.9688294 -3.0334074 1.2719927
-2.955694 -3.0362711 1.271819
-2.9579434 -3.0370901 1.2600868
-2.9475968 -3.0370018 1.2574209
-2.950784 -3.0491524 1.2562506
-2.939889 -3.0469713 1.2558966
-2.9353585 -3.0509036 1.2699142
-2.9349353 -3.0497937 1.2679658
-2.9416649 -3.0715725 1.2739099
-2.929039 -3.0674117 1.2634958
-2.9252222 -3.0819669 1.2707993
-2.9244025 -3.0676291 1.2593948
-2.9237509 -3.0797889 1.2713208
-2.9148257 -3.085856 1.2674786
-2.9085605 -3.0793703 1.2556236
-2.9034603 -3.0862548 1.2700813
-2.8987083 -3.0928802 1.2647324
-2.8999331 -3.1033595 1.2646132
-2.8831003 -3.104851 1.266829
-2.8803179 -3.118005 1.2573136
-2.8879442 -3.1116366 1.2573446
-2.8682611 -3.1087484 1.2558093
-2.879977 -3.1295142 1.266204
-2.8597612 -3.1256661 1.2746152
-2.7383895 -2.9834011 1.3494388
-2.7340503 -2.9966528 1.3456007
-2.7352481 -3.0094814 1.3392029
-2.7217896 -3.0078688 1.3463854
-2.7284448 -3.0137637 1.3361297
-2.7128789 -3.0212219 1.3367674
-2.7068231 -3.0206575 1.3478149
-2.7007308 -3.0247669 1.3457859
-2.6961687 -3.0249548 1.3470203
-2.7012067 -3.029295 1.3361259
-2.6978281 -3.0216296 1.3350445
-2.6954691 -3.0338137 1.3445476
-2.6969433 -3.03139 1.345053
-2.6848099 -3.0397067 1.3509955
-2.6854887 -3.0388834 1.334862
-2.6764181 -3.0467041 1.3350832
-2.6667044 -3.0526843 1.339676
-2.6659381 -3.0567932 1.3439605
-2.6671956 -3.0605655 1.3318526
-2.6672134 -3.073607 1.3391938
-2.6581204 -3.0675063 1.3379838
-2.6501036 -3.0632887 1.3483671
-2.6525786 -3.0847921 1.3449459
-2.6345429 -3.0784144 1.3369735
-2.6305594 -3.076973 1.3335842
-2.6427045 -3.0907238 1.3461277
-2.6346231 -3.0990288 1.3364389
-2.621944 -3.0908406 1.3463831
-2.624975 -3.0881884 1.3362907
-2.6201088 -3.1098375 1.3368866
-2.6078966 -3.1066825 1.3473071
-2.616889 -3.0998049 1.345663
-2.5954928 -3.1197011 1.3462273
-2.597513 -3.105866 1.3368752
-2.5875003 -3.1123571 1.3326643
-2.5808721 -3.1153078 1.3383964
-2.5816951 -3.1344972 1.3395113
-2.572202 -3.1253321 1.3324959
-2.4551799 -3.0006225 1.4076573
-2.4460244 -2.9981236 1.4089903
-2.4562683 -3.0077531 1.4171419
-2.4560869 -3.0107205 1.4158286
-2.4375451 -2.9966428 1.4182705
-2.4384339 -3.0089409 1.4181927
-2.4286699 -3.0155876 1.4152629
-2.4231124 -3.0199718 1.4130156
-2.4318178 -3.0095501 1.415206
-2.4194036 -3.0140114 1.4101821
-2.4139998 -3.0234115 1.4105771
-2.4092789 -3.0278428 1.4169154
-2.4032202 -3.0267091 1.4170631
-2.4090054 -3.0295904 1.4176762
-2.3960989 -3.0381308 1.415794
-2.4007459 -3.0517654 1.4250348
-2.3854661 -3.0398469 1.4110441
-2.3931112 -3.0465858 1.4160786
-2.3829989 -3.0462501 1.4149382
-2.370692 -3.0577252 1.4127342
-2.3834038 -3.0680258 1.4245216
-2.3757162 -3.0578401 1.4152634
-2.3616858 -3.0658343 1.4105188
-2.3675029 -3.0638573 1.4262666
-2.3527024 -3.0732222 1.4168421
-2.3597794 -3.0714869 1.4171449
-2.3576109 -3.0787296 1.4127223
-2.3494287 -3.0778799 1.4249108
-2.3362072 -3.0911849 1.420779
-2.3441215 -3.0964546 1.4085104
-2.3342354 -3.0987127 1.4092733
-2.3325572 -3.097564 1.4235482
-2.3201327 -3.1066704 1.4131491
-2.3124485 -3.1058843 1.4080411
-2.3090117 -3.1145923 1.4168766
-2.3149948 -3.114677 1.4107493
-2.3006706 -3.1168971 1.4206756
-2.3107646 -3.1152437 1.4147419
-2.2886655 -3.1246819 1.4187871
-2.2906938 -3.1263525 1.4208407
-2.284986 -3.1224594 1.4239086
-2.278511 -3.1212151 1.4113909
-2.2777565 -3.1318779 1.4130268
-2.2673967 -3.1391921 1.4187027
-2.2621405 -3.1274104 1.4189184
-2.1596696 -2.9959505 1.4981401
-2.1519058 -2.9843712 1.5025284
-2.1542115 -2.9872401 1.4917998
-2.142447 -2.9923689 1.4948564
-2.1466329 -3.0038893 1.4994597
-2.1287608 -3.01407 1.4911675
-2.1278167 -3.0021479 1.4873248
-2.1193862 -3.0138483 1.4960185
-2.1293156 -3.0195701 1.5005908
-2.113565 -3.0244215 1.5001317
-2.1175945 -3.0195668 1.4843071
-2.1182468 -3.0311334 1.483085
-2.1145067 -3.0291951 1.5020115
-2.1014912 -3.0196855 1.4988209
-2.1054151 -3.0385594 1.4871155
-2.0847313 -3.0437632 1.4882295
-2.0923357 -3.0322289 1.4842595
-2.0837789 -3.0364745 1.4915774
-2.086524 -3.0348637 1.4961557
-2.084693 -3.0417206 1.4988592
-2.0633166 -3.0568299 1.4893876
-2.0777612 -3.0568182 1.4913141
-2.0734236 -3.0572975 1.4981376
-2.0501554 -3.0489962 1.4974233
-2.0500741 -3.0688579 1.5007819
-2.0416939 -3.0722792 1.5018777
-2.0521958 -3.0675523 1.4974425
-2.0466635 -3.0785196 1.491691
-2.0338094 -3.076488 1.4904734
-2.0363731 -3.0768845 1.4853157
-2.0362294 -3.0801687 1.4879601
-2.025553 -3.082165 1.4935212
-2.0129464 -3.0840957 1.5015023
-2.0135121 -3.087034 1.5006779
-2.0147884 -3.0941706 1.5028791
-2.0127022 -3.0972106 1.4845403
-2.009516 -3.0950408 1.4938039
-1.9907613 -3.0916305 1.4949691
-1.997754 -3.0996621 1.5010295
-1.9859606 -3.0945568 1.4895505
-1.9793208 -3.1136119 1.4976385
-1.9900328 -3.1062984 1.4865754
-1.9751798 -3.1106901 1.496421
-1.9723418 -3.1199632 1.4861616
-1.9703243 -3.1148324 1.4915926
-1.9661018 -3.1119387 1.4968046
-1.9602141 -3.1301868 1.4870015
-1.9650593 -3.1340113 1.4834177
-1.9487351 -3.129164 1.4946054
-1.9463469 -3.1368623 1.493695
-1.9354339 -3.1422644 1.4965204
-1.936429 -3.1427252 1.489444
-1.9284835 -3.132684 1.5007547
-1.9306885 -3.1441598 1.4855647
-1.9231492 -3.1379766 1.4982721
-1.9301751 -3.1519334 1.4966334
-1.8156585 -2.986356 1.5753498
-1.8074886 -2.9878726 1.5771412
-1.802899 -2.9974394 1.5665218
-1.8071182 -3.008996 1.5709399
-1.8122442 -2.9940217 1.5726858
-1.7945412 -3.0044281 1.5766947
-1.8039112 -3.0112786 1.5734621
-1.7819669 -3.0047276 1.5614654
-1.7952091 -3.0150344 1.5783571
-1.7757404 -3.016768 1.563991
-1.7779069 -3.0247161 1.5598823
-1.7772022 -3.0286825 1.5768094
-1.7747028 -3.0322502 1.5667164
-1.7628193 -3.0242319 1.5676075
-1.7665142 -3.0255382 1.5660077
-1.7484597 -3.0333433 1.5765305
-1.7463928 -3.0347235 1.5627257
-1.7475551 -3.0383685 1.5779892
-1.7407107 -3.0394681 1.5654573
-1.7369713 -3.0453148 1.5736976
-1.7275944 -3.0375473 1.5764889
-1.7223229 -3.0532982 1.5778078
-1.7201209 -3.050776 1.5780466
-1.7280084 -3.0406001 1.5687853
-1.7150016 -3.0583522 1.5606939
-1.7235911 -3.0622866 1.5672674
-1.7016546 -3.0483942 1.5749247
-1.7135193 -3.0599077 1.561395
-1.7101173 -3.0688238 1.5692182
-1.6992438 -3.0582509 1.5736408
-1.7001268 -3.0625551 1.5682712
-1.6982151 -3.0658448 1.569585
-1.6749812 -3.0711932 1.5758495
-1.6715053 -3.0686932 1.5747125
-1.6772873 -3.0774536 1.5782397
-1.6711574 -3.0790741 1.5602431
-1.6584507 -3.0830324 1.5785433
-1.6580836 -3.083133 1.5677286
-1.6512426 -3.0841122 1.5703903
-1.6565754 -3.0785019 1.5660117
-1.6574823 -3.098062 1.5597095
-1.6437557 -3.1000013 1.5724921
-1.6487119 -3.1030009 1.562295
-1.6274004 -3.0868218 1.5769604
-1.6272228 -3.1007252 1.5652221
-1.6235148 -3.0928028 1.5742137
-1.6178001 -3.0964808 1.5615917
-1.6137819 -3.1041021 1.5712078
-1.6205754 -3.1091964 1.5621771
-1.6047039 -3.1039402 1.5610832
-1.6132079 -3.1039114 1.5627494
-1.608011 -3.1144793 1.5647908
-1.5900283 -3.1143301 1.5661411
-1.6022396 -3.1171992 1.5659727
-1.5797824 -3.1242237 1.5741971
-1.5890603 -3.1318765 1.572634
-1.5893434 -3.118154 1.5696769
-1.5822456 -3.1247561 1.5613766
-1.5655285 -3.1224976 1.570254
-1.557839 -3.1287165 1.5666534
-1.5712405 -3.1277914 1.5653416
-1.5629727 -3.1460249 1.5757157
-1.5526602 -3.1306338 1.5684866
-1.5409946 -3.1318159 1.56063
-1.5494944 -3.1349053 1.5679841
-1.5497667 -3.1516404 1.5699147
-1.531599 -3.1530297 1.5677911
-1.5363855 -3.1516948 1.5612823
-1.5294693 -3.1580203 1.5592432
-1.5136726 -3.1610363 1.5731901
-1.5214735 -3.1618369 1.5702606
-1.4303678 -2.9919853 1.6471392
-1.4293334 -3.0028696 1.6457464
-1.4155253 -2.986481 1.6453518
-1.4295712 -3.0029876 1.644042
-1.41626 -3.0041656 1.6481652
-1.4210154 -3.0115776 1.6530612
-1.4078916 -3.0081809 1.6414475
-1.401274 -3.0022757 1.6456581
-1.3966926 -3.0049849 1.6489961
-1.3981616 -2.9999084 1.6536707
-1.3825574 -3.0083587 1.6435572
-1.3859205 -3.0199611 1.6445725
-1.3906739 -3.0219452 1.6439837
-1.375819 -3.0221674 1.6488894
-1.3822712 -3.0132737 1.6546128
-1.3645973 -3.0133333 1.6349137
-1.362025 -3.0244701 1.6405951
-1.3710637 -3.0331924 1.6541593
-1.355889 -3.0215397 1.6469866
-1.3573736 -3.0355651 1.6468563
-1.3541811 -3.038198 1.6402361
-1.3410994 -3.0284083 1.6439675
-1.3469998 -3.0275893 1.6476634
-1.3334862 -3.0361352 1.6530795
-1.3350644 -3.0353558 1.6493258
-1.3309165 -3.0411282 1.6474434
-1.3264651 -3.0485561 1.6363491
-1.3163298 -3.0492532 1.6384513
-1.3126277 -3.0390089 1.6541191
-1.3160956 -3.0544853 1.6376687
-1.2996912 -3.051008 1.6404865
-1.3099046 -3.0586901 1.6349891
-1.2963839 -3.0565164 1.6522001
-1.2991648 -3.0650759 1.6427484
-1.2965271 -3.0594628 1.6359534
-1.2776405 -3.0539534 1.6452577
-1.2806338 -3.0682473 1.6489997
-1.2747189 -3.0566626 1.6539041
-1.2666992 -3.0656354 1.6509062
-1.2630093 -3.0623386 1.6542795
-1.2557673 -3.0669019 1.642972
-1.265705 -3.0659459 1.645818
-1.2611376 -3.0757389 1.6526674
-1.2593569 -3.0725856 1.6527811
-1.2470253 -3.0710692 1.6403258
-1.2414861 -3.0749438 1.6351917
-1.2466403 -3.0860918 1.6375695
-1.2280501 -3.0756071 1.6533319
-1.2245531 -3.081388 1.6419152
-1.2240516 -3.0877664 1.6355834
-1.2201744 -3.091193 1.6464701
-1.2076023 -3.0888495 1.6400887
-1.2121817 -3.0862339 1.645684
-1.2099093 -3.0861347 1.6361967
-1.207521 -3.0980036 1.6499834
-1.1975855 -3.0886359 1.6416475
-1.1927817 -3.0887272 1.6439095
-1.1855978 -3.0945356 1.6383958
-1.1826493 -3.1011565 1.6488351
-1.191115 -3.0915878 1.6546236
-1.1859103 -3.1024563 1.6387075
-1.1698165 -3.1050696 1.6468503
-1.1601019 -3.0965815 1.6393187
-1.1647896 -3.1101427 1.6535897
-1.1589622 -3.1056395 1.6376894
-1.159346 -3.1155269 1.652848
-1.1480633 -3.1049395 1.649601
-1.1545165 -3.1114993 1.6422251
-1.1464809 -3.1194437 1.6499017
-1.1480039 -3.1201897 1.6488143
-1.1437361 -3.1200688 1.6385195
-1.1353823 -3.1281946 1.6472666
-1.1188834 -3.1309483 1.6461508
-1.1299138 -3.1227345 1.6531168
-1.1066711 -3.1330409 1.6462232
-1.1193266 -3.1280804 1.6510727
-1.1168212 -3.136189 1.6481346
-1.0975605 -3.1351047 1.6402555
-1.1056737 -3.1303411 1.6460445
-1.086108 -3.131459 1.6526941
-1.0876275 -3.1326699 1.641065
-1.0794398 -3.12989 1.6429043
-1.0825028 -3.1349764 1.6435782
-1.0866796 -3.1354606 1.6540478
-1.0638881 -3.1370716 1.6357872
-1.0679882 -3.13571 1.644057
-1.0672367 -3.1362171 1.6457821
-1.0694212 -3.1418395 1.6501492
-1.0594827 -3.1399536 1.6408314
-1.043753 -3.1428823 1.6519408
-1.0413718 -3.1517134 1.6433787
-1.0506176 -3.1567414 1.6391298
-1.038022 -3.1492193 1.6513215
-1.0247506 -3.1502631 1.64455
-1.0210074 -3.1529064 1.637682
-1.015523 -3.1640434 1.6536841
-1.0217665 -3.158824 1.650682
-1.006283 -3.1601865 1.6435535
-1.0064305 -3.1560102 1.6398013
-1.0158938 -3.160506 1.6546043
-0.99424565 -3.1670239 1.6420542
-1.0011575 -3.1671937 1.6459478
-0.99231642 -3.1591756 1.6388289
-0.93579513 -2.9857507 1.7279744
-0.92177659 -2.9894621 1.720081
-0.9346242 -2.9921036 1.7224977
-0.91146773 -2.9854047 1.7115747
-0.91131169 -2.9876406 1.7207237
-0.91828233 -2.9944441 1.7154777
-0.90900338 -2.9951334 1.7271582
-0.90491962 -2.9985986 1.7137369
-0.89338416 -2.9934018 1.7215558
-0.89795333 -3.003792 1.7187967
-0.88963962 -2.9975777 1.7143148
-0.88802737 -3.0015302 1.7274355
-0.8743068 -3.0025177 1.719223
-0.87816781 -3.0045376 1.7190118
-0.87295008 -3.0105927 1.7178612
-0.87858158 -3.0078111 1.7111976
-0.86945742 -3.0199451 1.7251297
-0.86865097 -3.0121915 1.7168757
-0.86126417 -3.0171008 1.7150913
-0.84605676 -3.0107791 1.7241839
-0.85360676 -3.0203452 1.7207522
-0.84563696 -3.0125024 1.7146235
-0.84454483 -3.0151443 1.7287569
-0.83166355 -3.0258541 1.7221138
-0.83899188 -3.0155549 1.7106535
-0.82746911 -3.0150974 1.7232069
-0.82260823 -3.0297277 1.7248522
-0.82381362 -3.0277653 1.7154711
-0.81327152 -3.0226316 1.7223952
-0.80451214 -3.0265076 1.7168492
-0.80665857 -3.0221524 1.7229396
-0.81223506 -3.0340481 1.7180692
-0.80393875 -3.0290737 1.7117475
-0.80150747 -3.0354416 1.7159009
-0.83276397 -3.212343 1.6356837
-0.82818294 -3.2030346 1.6529458
-0.83104694 -3.213094 1.6367444
-0.83226395 -3.2085886 1.6436665
-0.82286036 -3.2177727 1.6368774
-0.80653119 -3.2224307 1.6473616
-0.81574643 -3.21347 1.6433444
-0.79886961 -3.2143221 1.648569
-0.8068617 -3.2111158 1.6398995
-0.80117381 -3.229718 1.6459875
-0.79133099 -3.2167716 1.6352732
-0.83014703 -3.4034173 1.5591978
-0.82715666 -3.3978024 1.5700847
-0.82036597 -3.3978999 1.5666437
-0.82665151 -3.4130909 1.5751789
-0.81972456 -3.4164517 1.5602101
-0.80231172 -3.4135282 1.5753499
-0.8089146 -3.4182298 1.5707792
-0.79029131 -3.415427 1.5705497
-0.80033588 -3.4114413 1.572847
-0.82632166 -3.6023431 1.4933648
-0.82073772 -3.5921123 1.4838825
-0.8153789 -3.6036515 1.501187
-0.81913149 -3.5931621 1.4995589
-0.80632347 -3.5937219 1.4838979
-0.80497867 -3.5921199 1.486028
-0.79860103 -3.597872 1.4922266
-0.79708201 -3.5949955 1.494862
-0.80013222 -3.5982656 1.5014318
-0.82317305 -3.7770891 1.4172635
-0.82389981 -3.7839592 1.4193839
-0.80825853 -3.7902713 1.4129052
-0.80209786 -3.7962523 1.4160504
-0.79863119 -3.7910149 1.4108411
-0.79679102 -3.7980008 1.4262211
-0.79061019 -3.7886741 1.4243451
-0.82029223 -3.979121 1.3420033
