# .PCD v0.7 - Point Cloud Data file format
VERSION 0.7
FIELDS x y z
SIZE 4 4 4
TYPE F F F
COUNT 1 1 1
WIDTH 1509
HEIGHT 1
VIEWPOINT 0 0 0 1 0 0 0
POINTS 1509
DATA ascii
-3.3675098 -4.6576824 1.3233902
-3.3534997 -4.6465449 1.3207126
-3.3442571 -4.6545019 1.3193413
-3.3480945 -4.6567903 1.3111651
-3.3456786 -4.6616516 1.3085507
-3.3260143 -4.6762195 1.3048754
-3.3301067 -4.6802988 1.3082392
-3.3234141 -4.6871471 1.3108622
-3.3231688 -4.6824455 1.3069506
-3.3066282 -4.6938772 1.3222429
-3.292963 -4.6891603 1.3048931
-3.2864861 -4.6969347 1.3233914
-3.2826805 -4.7019739 1.318634
-3.2802396 -4.7173643 1.3162805
-3.2659686 -4.7168598 1.3137484
-3.2743056 -4.723218 1.3213223
-3.2663114 -4.7202024 1.3094816
-3.2549472 -4.7370343 1.3154483
-3.2409534 -4.7401676 1.3107626
-3.250865 -4.7333131 1.319283
-3.2254779 -4.7393532 1.3171481
-3.2374344 -4.7454824 1.3118581
-3.230886 -4.7543788 1.3061385
-3.2090888 -4.7474127 1.3096288
-3.2096391 -4.7527609 1.3182154
-3.1927149 -4.7730379 1.3050257
-3.1882105 -4.7719188 1.3194245
-3.1955407 -4.7660398 1.321555
-3.176898 -4.772778 1.305107
-3.1829348 -4.7760448 1.3200586
-3.1604447 -4.7805481 1.3135058
-3.1600835 -4.7836375 1.3053504
-3.1650062 -4.7868147 1.3128164
-3.1556423 -4.794837 1.3117564
-3.142782 -4.8100581 1.3098469
-3.1413288 -4.8150101 1.31215
-3.1330593 -4.8221188 1.3200525
-3.1303849 -4.823225 1.3183049
-3.1055737 -4.8323622 1.3142809
-3.1172044 -4.8342161 1.3114423
-3.0938776 -4.8402662 1.3085432
-3.0970976 -4.8326468 1.3069884
-3.0884669 -4.8366489 1.3066806
-3.0723641 -4.8379917 1.3227652
-3.0773151 -4.8531847 1.3080342
-3.0641699 -4.8536415 1.3127474
-3.0687153 -4.8525515 1.3147385
-3.0453525 -4.8555164 1.3200004
-3.043731 -4.8604054 1.320493
-3.0461278 -4.8636665 1.3034902
-3.0313573 -4.870348 1.3047864
-3.0194798 -4.8870029 1.3180414
-3.0291514 -4.8817863 1.3116244
-3.0191247 -4.8872323 1.3081852
-3.0130076 -4.8844013 1.3138644
-3.0016155 -4.8952026 1.3233885
-6.85742 -2.9890652 0.85306287
-6.8518329 -2.9909697 0.85291004
-6.8439751 -3.0031984 0.85305256
-6.8509164 -3.012774 0.85112035
-6.8519702 -3.0260527 0.86531591
-6.8452549 -3.0392694 0.86683911
-6.8323164 -3.043618 0.85619849
-6.8365355 -3.0606093 0.85274696
-6.8231373 -3.0764709 0.85769099
-6.6566863 -3.0036798 0.90492761
-6.6497054 -2.9995341 0.91680896
-6.641696 -3.0139918 0.91637617
-6.6338263 -3.024796 0.91329914
-6.6258011 -3.0267591 0.91022503
-6.6196952 -3.0540066 0.92344487
-6.619381 -3.0587835 0.91301477
-6.6175303 -3.0548792 0.90779674
-6.4320078 -2.998358 0.97028929
-6.4443369 -2.9935863 0.97132212
-6.4317098 -3.0018566 0.97553396
-6.42698 -3.0273461 0.97318381
-6.4303565 -3.0290394 0.96566224
-6.4141531 -3.0270891 0.97661704
-6.4210143 -3.0413532 0.97488326
-6.4109373 -3.0537632 0.97517061
-6.4076276 -3.0701241 0.95994389
-6.3947358 -3.0689123 0.97787827
-6.2138987 -2.9972358 1.0156245
-6.2189708 -3.0053699 1.0319968
-6.2229981 -3.0050797 1.0290946
-6.2028012 -3.0242753 1.0296925
-6.2049427 -3.0310755 1.0175809
-6.1945934 -3.0459127 1.0163974
-6.1932774 -3.0518644 1.0299218
-6.1936827 -3.0520043 1.020002
-6.1937885 -3.073113 1.0226816
-6.1891093 -3.0656199 1.0155269
-6.0145159 -2.988802 1.0806109
-6.0093989 -3.0069566 1.0711142
-6.0078979 -3.0133493 1.0706022
-5.9892874 -3.0237687 1.0795832
-5.990067 -3.0405645 1.0704467
-5.9829469 -3.0312583 1.0751495
-5.9769983 -3.0448954 1.0825715
-5.9775138 -3.0632095 1.0785182
-5.9679375 -3.0659132 1.0820152
-5.9756699 -3.0682333 1.0816579
-5.7997942 -2.9839008 1.1359704
-5.7848444 -3.0067472 1.1253822
-5.7793798 -3.0123038 1.1367959
-5.774416 -3.0234733 1.1261793
-5.7804594 -3.0196574 1.1271501
-5.7756286 -3.0329678 1.1258041
-5.7660837 -3.0445879 1.1391921
-5.7691054 -3.0409935 1.1426312
-5.7561688 -3.0521042 1.1317258
-5.7597246 -3.0752404 1.1268536
-5.7436261 -3.0775568 1.1263266
-5.5789766 -2.9981699 1.1862029
-5.5744057 -3.0082326 1.1934727
-5.5784097 -2.9975474 1.1976641
-5.5730195 -3.017133 1.1937567
-5.566648 -3.0161259 1.1846182
-5.5616112 -3.0298233 1.1919329
-5.5631757 -3.0308034 1.1909095
-5.5412903 -3.0431192 1.1868368
-5.5502996 -3.0632739 1.1876835
-5.5441699 -3.0516245 1.1942632
-5.5385566 -3.069006 1.1973268
-5.528203 -3.0860057 1.1981286
-5.3627424 -2.9974391 1.2525578
-5.3610373 -3.0012312 1.2400438
-5.3432288 -3.0028739 1.2363203
-5.3545485 -3.0037138 1.2466767
-5.3385429 -3.0303624 1.2438247
-5.3435502 -3.0193808 1.2364224
-5.3326201 -3.0416741 1.2366253
-5.3408327 -3.0421147 1.236231
-5.3224554 -3.0412297 1.2462032
-5.3210039 -3.0542893 1.2469171
-5.3187404 -3.074024 1.250162
-5.317184 -3.0762422 1.2371104
-5.3081312 -3.0848513 1.2499053
-5.1366944 -2.992188 1.3044912
-5.1411238 -3.0043092 1.3047593
-5.1283946 -3.0056689 1.3034809
-5.1230578 -3.0203395 1.3073751
-5.1175079 -3.0274744 1.2982887
-5.1123424 -3.0204937 1.2975414
-5.1171951 -3.0363343 1.2911825
-5.1013236 -3.0341938 1.292531
-5.1021972 -3.05479 1.2990974
-5.0961123 -3.0506372 1.3044848
-5.0972228 -3.0654588 1.2931578
-5.0988841 -3.068898 1.2968956
-5.0802674 -3.0838072 1.3064542
-5.0829191 -3.0775886 1.3085167
-4.9174938 -2.9900091 1.3457597
-4.905458 -3.0012939 1.3619992
-4.9141593 -3.0016704 1.349555
-4.9092107 -3.0104241 1.3464022
-4.9029036 -3.0243106 1.3497978
-4.8900204 -3.0163815 1.3644853
-4.8917403 -3.0338416 1.3514842
-4.8847775 -3.0372517 1.3621707
-4.8740678 -3.0463443 1.3650689
-4.8737893 -3.0623975 1.3613009
-4.8714395 -3.0615168 1.3521913
-4.8669834 -3.072789 1.3586706
-4.8662786 -3.0769613 1.3516414
-4.8580089 -3.0803921 1.3627203
-4.8528819 -3.0817337 1.3467687
-4.8443503 -3.0944188 1.3455966
-4.6792235 -2.9893885 1.4089556
-4.6891317 -3.0050876 1.4205958
-4.6683435 -3.0143328 1.4099758
-4.6646485 -3.0075653 1.4101292
-4.664712 -3.0227225 1.4179837
-4.6738758 -3.0377083 1.4013804
-4.6565518 -3.036283 1.4074136
-4.6462474 -3.0508912 1.4168181
-4.6448555 -3.0446856 1.411678
-4.6394057 -3.0542703 1.4206429
-4.635119 -3.0649581 1.4177504
-4.642611 -3.0697501 1.4057109
-4.638454 -3.0779595 1.4109728
-4.624908 -3.0866883 1.409543
-4.6311994 -3.0797043 1.4194907
-4.6296272 -3.0861173 1.4009813
-4.4651079 -2.9921849 1.4655669
-4.4542375 -2.9992397 1.4669144
-4.4539542 -3.0091624 1.4609786
-4.4388022 -3.017905 1.471963
-4.4346766 -3.0266392 1.4587587
-4.433435 -3.027153 1.4672555
-4.4242239 -3.0278065 1.47403
-4.4297423 -3.0392194 1.4585567
-4.4166822 -3.0412381 1.4565424
-4.4136653 -3.0460083 1.4745841
-4.4091496 -3.0501335 1.4657583
-4.4151864 -3.06758 1.456112
-4.3998671 -3.0689435 1.4627713
-4.4104748 -3.0793643 1.4669106
-4.3900895 -3.0898771 1.4685322
-4.4028997 -3.0833747 1.4758506
-4.3872051 -3.0918968 1.4687203
-4.384727 -3.0901806 1.4563762
-4.2209182 -2.9884186 1.5233529
-4.2160664 -2.9989202 1.5165994
-4.2131643 -3.0091758 1.5119019
-4.21908 -3.0097466 1.5159328
-4.2146335 -3.019285 1.5247692
-4.2035198 -3.0237267 1.529348
-4.1882582 -3.0320876 1.5295708
-4.1913671 -3.0375719 1.522447
-4.1871495 -3.0316825 1.5129462
-4.1900539 -3.0476453 1.5113003
-4.1852942 -3.0609334 1.5263112
-4.1686964 -3.053561 1.5167284
-4.178844 -3.0674865 1.5227921
-4.1736808 -3.0715358 1.5141814
-4.1644788 -3.0753548 1.5219226
-4.1664319 -3.0722847 1.5111064
-4.1637983 -3.078186 1.5178078
-4.160934 -3.0914369 1.5248977
-4.1451855 -3.1047192 1.5237434
-4.1389294 -3.1051631 1.5124871
-4.1343107 -3.1051128 1.5137974
-4.1346736 -3.1127381 1.5283289
-4.1246109 -3.1147928 1.5147777
-4.1284766 -3.1359744 1.5230139
-4.120945 -3.132252 1.5132619
-4.1256642 -3.1347888 1.5124048
-4.1211915 -3.1390064 1.5114652
-4.1100092 -3.1446819 1.5230874
-4.1117291 -3.1589389 1.527234
-4.094595 -3.1712785 1.5167373
-4.0887094 -3.1633463 1.5120856
-4.0815058 -3.1801317 1.5255969
-4.0797625 -3.1712172 1.5228357
-4.0715623 -3.1905391 1.5246692
-4.0751181 -3.1867085 1.5159954
-4.0684175 -3.1919837 1.5305487
-4.0625663 -3.1971812 1.5266423
-4.0576472 -3.2155993 1.5228121
-4.0610971 -3.2201483 1.5304705
-4.0603933 -3.2119825 1.5115286
-4.0501781 -3.2223582 1.5262522
-4.0446062 -3.229965 1.5299174
-4.0455155 -3.2402711 1.5282178
-4.0291781 -3.2468283 1.5129108
-4.0309992 -3.2414 1.527143
-4.0214863 -3.2537384 1.5218019
-4.0174122 -3.2647004 1.5169593
-4.0172362 -3.2552257 1.5193881
-4.0208831 -3.2736919 1.5229511
-4.0168638 -3.2759526 1.5203571
-4.0117784 -3.2725043 1.5130582
-3.9919615 -3.2879992 1.5238171
-4.136785 -3.4112442 1.4747808
-4.1348162 -3.4205701 1.4599861
-4.1281462 -3.4362547 1.456265
-4.1272354 -3.4269724 1.4658448
-4.1316581 -3.4381692 1.4700953
-4.1209154 -3.4537518 1.4694469
-4.1077361 -3.4575505 1.4559523
-4.1109853 -3.4619067 1.4658105
-4.0968204 -3.4657624 1.4647242
-4.0899467 -3.4743938 1.4737439
-4.0923061 -3.4641361 1.4674318
-4.0885468 -3.4766886 1.4575887
-4.0795741 -3.4873583 1.457849
-4.0743146 -3.4819131 1.4731733
-4.0794673 -3.4856937 1.4630755
-4.0603619 -3.5035431 1.4631631
-4.0618963 -3.5130324 1.4652134
-4.0569177 -3.5105987 1.468662
-4.0620732 -3.5188355 1.4740028
-4.0483069 -3.5250423 1.456453
-4.0455127 -3.53846 1.4748952
-4.0490232 -3.5329776 1.4665124
-4.0423684 -3.5433905 1.4731807
-4.0354457 -3.5534191 1.4710081
-4.0331907 -3.5534842 1.4707618
-4.0210257 -3.559335 1.4583663
-4.0087652 -3.57162 1.4621748
-4.0144467 -3.5638335 1.4741037
-3.9966717 -3.5661175 1.4634752
-3.9935479 -3.5795586 1.4723128
-4.1310277 -3.7235589 1.4182519
-4.1268167 -3.7277856 1.4104789
-4.13098 -3.7303045 1.4179453
-4.1284676 -3.730855 1.401028
-4.108119 -3.734113 1.4096841
-4.1080093 -3.750176 1.4181205
-4.1002865 -3.7389565 1.4198962
-4.1087475 -3.7584043 1.4150758
-4.1052718 -3.7650707 1.4135816
-4.0924163 -3.7736149 1.4042499
-4.0907149 -3.7815869 1.4049364
-4.0879202 -3.7705441 1.4071853
-4.0728898 -3.7888694 1.412697
-4.0703855 -3.7898948 1.4034325
-4.0647907 -3.7957928 1.4166772
-4.0505314 -3.8068094 1.4196188
-4.0478282 -3.8153403 1.4195324
-4.0433412 -3.8175769 1.4057432
-4.0436664 -3.8215904 1.4110256
-4.0454783 -3.8180091 1.4134942
-4.0366139 -3.8379955 1.4137142
-4.0270548 -3.8404639 1.4106926
-4.0152392 -3.8331866 1.415054
-4.0179043 -3.8486979 1.404091
-4.0098257 -3.8439145 1.4129237
-4.0084949 -3.8501809 1.4164258
-4.0042143 -3.85906 1.4170759
-4.1381321 -4.0024996 1.3460137
-4.1275244 -3.9980667 1.3517487
-4.1316266 -4.0207853 1.3467215
-4.1132522 -4.0199876 1.3473567
-4.1146498 -4.0149865 1.3511651
-4.0990605 -4.0235333 1.3478845
-4.0991025 -4.0401168 1.3547193
-4.0900989 -4.0340004 1.3519562
-4.0922551 -4.0519404 1.3485383
-4.0909009 -4.0509944 1.3618449
-4.0688887 -4.0512495 1.3510312
-4.0627837 -4.0664945 1.3504318
-4.0709357 -4.0714469 1.3528874
-4.0641074 -4.0836382 1.3619065
-4.0566354 -4.0828481 1.3616847
-4.0453477 -4.0920987 1.3586661
-4.0373321 -4.0870285 1.3648064
-4.0424743 -4.0986009 1.3627971
-4.0303712 -4.0979819 1.3485744
-4.0216784 -4.1016707 1.361016
-4.019671 -4.1090164 1.3589132
-4.0084696 -4.1159348 1.3472682
-4.0178599 -4.1366901 1.3563656
-4.0047865 -4.1363106 1.3589582
-4.002686 -4.1341605 1.3480196
-4.1341686 -4.2848935 1.2983543
-4.1150999 -4.2950521 1.2945687
-4.1098828 -4.2960773 1.304866
-4.1066666 -4.2907319 1.3014288
-4.0976653 -4.3024344 1.2999418
-4.0962143 -4.3178778 1.2967397
-4.096858 -4.3078756 1.2922421
-4.089139 -4.3130279 1.2926033
-4.0723147 -4.3308778 1.2989507
-4.0728898 -4.3324075 1.2930466
-4.064395 -4.3378382 1.300462
-4.0504112 -4.3501887 1.3034872
-4.060205 -4.3433185 1.291247
-4.0396938 -4.3592372 1.3101037
-4.0426116 -4.3721671 1.3030012
-4.0270085 -4.3696666 1.3061901
-4.0345998 -4.3738384 1.3051075
-4.0266809 -4.376328 1.3045909
-4.0183926 -4.3880377 1.2919335
-4.0037494 -4.3863745 1.3034476
-3.995002 -4.4022775 1.2952236
-3.9988317 -4.4102654 1.3003331
-3.9996283 -4.4141231 1.2979884
-3.9926574 -4.4035535 1.3053924
-3.9868219 -4.4219942 1.3055252
-3.9680812 -4.4309316 1.2938086
-3.9661438 -4.4335685 1.3035616
-3.9652812 -4.434402 1.296458
-3.9449275 -4.4330707 1.3032691
-3.9572232 -4.4432278 1.2973592
-3.9379973 -4.4507766 1.3011534
-3.9269879 -4.4483027 1.3025588
-3.9308612 -4.4527798 1.3056965
-3.9170713 -4.4764485 1.3049852
-3.91587 -4.4804525 1.291406
-3.9145281 -4.4718938 1.2944536
-3.9048953 -4.4875841 1.3004202
-3.9055018 -4.488605 1.2911003
-3.8932042 -4.4954734 1.3086497
-3.894088 -4.5008473 1.3015717
-3.8808739 -4.5132117 1.2924657
-3.8638582 -4.5207915 1.291346
-3.8654296 -4.5184765 1.2912526
-3.8638556 -4.5286117 1.292985
-3.8629856 -4.5237932 1.2961997
-3.8556871 -4.5238876 1.2934502
-3.8453333 -4.5406122 1.3004795
-3.8290057 -4.5442142 1.2919475
-3.8219903 -4.5417962 1.301998
-3.8174181 -4.5465474 1.2921171
-3.8199165 -4.5643783 1.295305
-3.8115134 -4.5714936 1.2963378
-3.8042226 -4.5664892 1.3051015
-3.7970176 -4.5862265 1.3091369
-3.7880731 -4.5914168 1.3033891
-3.7759063 -4.5956402 1.3029358
-3.7864814 -4.5958476 1.2911385
-3.77002 -4.6060739 1.3011113
-3.7620833 -4.5956378 1.2988647
-3.7640886 -4.6069903 1.2972206
-3.7559676 -4.6072102 1.3030907
-3.7446513 -4.625402 1.3071812
-3.7322948 -4.6226869 1.3016036
-3.7311676 -4.6191568 1.3016068
-3.7259974 -4.633081 1.3017286
-3.726568 -4.641243 1.3029277
-3.7075844 -4.6463938 1.3092104
-3.7003908 -4.6415029 1.2905495
-3.7032173 -4.6551032 1.3075979
-3.688283 -4.6571436 1.2985578
-3.6949859 -4.657505 1.2945536
-3.6758113 -4.6729999 1.2976037
-3.672539 -4.6825953 1.3086066
-3.6748371 -4.6775274 1.3083675
-3.657125 -4.6937609 1.2994239
-3.6592836 -4.6970439 1.3075281
-3.6402364 -4.687829 1.2956831
-3.6348991 -4.6979136 1.2939208
-3.6282156 -4.6973252 1.3037413
-3.6244767 -4.7083106 1.2966954
-3.6297708 -4.7125134 1.2944525
-3.6190617 -4.7240639 1.3018705
-3.6052957 -4.7188711 1.3048397
-3.6005197 -4.7225132 1.2980142
-3.5959756 -4.7349868 1.3000834
-3.5803683 -4.7361693 1.3039891
-3.5766497 -4.744863 1.3022195
-3.564769 -4.7547841 1.2954659
-3.5746439 -4.7645936 1.2943923
-3.5546913 -4.7572436 1.3074158
-3.5617776 -4.7617741 1.3013096
-3.5510995 -4.7621889 1.308717
-3.5329969 -4.7754378 1.3063718
-3.531918 -4.7905183 1.3054302
-3.5176578 -4.7876692 1.2970514
-3.5213213 -4.7958345 1.2925167
-3.5210724 -4.7869091 1.3043065
-3.5025861 -4.7927389 1.2911836
-3.4908464 -4.8150864 1.2932501
-3.5001738 -4.8041301 1.3076565
-3.4964707 -4.8069162 1.3025132
-3.4788671 -4.8256884 1.3019266
-3.4738491 -4.8330278 1.2930528
-3.4711697 -4.8259654 1.2940513
-3.469425 -4.8313265 1.302842
-3.4560525 -4.8470426 1.3084018
-3.4472077 -4.8492074 1.3078111
-3.4465666 -4.8595901 1.306306
-3.4390416 -4.8449454 1.3073596
-3.4294431 -4.8663459 1.3042659
-3.4254317 -4.8707685 1.3032727
-3.4065571 -4.8643193 1.3083854
-3.4082623 -4.8795915 1.2910271
-3.3988347 -4.8789291 1.3055898
-3.3884017 -4.883275 1.2996407
-3.3891716 -4.8810072 1.3028157
-3.3843751 -4.8966603 1.3086563
-3.3801625 -4.8984447 1.3089349
-3.3574486 -4.8994837 1.30867
-3.3536747 -4.8977098 1.2918067
-3.3529875 -4.9187179 1.2953132
-3.3532872 -4.90765 1.3100519
-3.3284676 -4.9250932 1.2942923
-3.3209999 -4.9199214 1.3039588
-3.3189628 -4.9311366 1.294034
-3.3228686 -4.9299469 1.2911222
-3.3035927 -4.9307938 1.2972925
-3.2984698 -4.9542665 1.3064041
-3.2930617 -4.9418716 1.2991933
-3.2879119 -4.9525547 1.2984627
-3.2796192 -4.9494095 1.3014216
-3.2678137 -4.9534292 1.300136
-3.2612629 -4.9595013 1.3060848
-3.2704654 -4.9649839 1.3018734
-3.249995 -4.9753146 1.2911059
-3.2394431 -4.9764423 1.3061769
-3.2317965 -4.9851923 1.3050407
-6.8738422 -2.9903212 0.90487635
-6.8634963 -3.0147808 0.92250848
-6.8759732 -3.0223022 0.90842927
-6.8533373 -3.0336578 0.9133814
-6.8509564 -3.037616 0.91251934
-6.8635969 -3.0391064 0.92400599
-6.8488207 -3.0477109 0.90960187
-6.8460698 -3.0573597 0.9217934
-6.6577697 -2.9919732 0.96565819
-6.6635327 -3.0075471 0.97690034
-6.6648726 -3.0056224 0.97373682
-6.6598935 -3.0175507 0.9757238
-6.6572685 -3.0261691 0.95979375
-6.6487103 -3.0363779 0.96210641
-6.6351867 -3.0484452 0.97005343
-6.6425123 -3.0574059 0.96609658
-6.6383386 -3.0758572 0.96311575
-6.4538951 -2.9945619 1.0138012
-6.4520216 -3.0059595 1.0266277
-6.4400105 -3.0073161 1.0131975
-6.4367452 -3.0142214 1.0310038
-6.4366312 -3.0403693 1.0261873
-6.4345169 -3.0481274 1.0220522
-6.4283204 -3.0515752 1.0170021
-6.4197989 -3.0657601 1.0291724
-6.4233174 -3.0715446 1.0216639
-6.237155 -2.993979 1.0787205
-6.2277031 -2.9941506 1.0713269
-6.2412939 -3.0166481 1.0815557
-6.2220464 -3.0113463 1.0794423
-6.2162166 -3.0270035 1.0794318
-6.2125683 -3.0467832 1.0822759
-6.2137246 -3.0486982 1.0663583
-6.2190037 -3.0486784 1.0759834
-6.2093205 -3.0644116 1.080408
-6.2074552 -3.0679505 1.0680267
-6.0206428 -2.9973729 1.132461
-6.0230656 -3.0071769 1.1317072
-6.0128703 -3.0147796 1.1371745
-6.0124345 -3.027354 1.1366558
-6.0141001 -3.0383306 1.1291865
-5.9957647 -3.0299029 1.1306381
-5.9945736 -3.0468876 1.1388695
-5.9892883 -3.0534196 1.1358091
-5.9943657 -3.0545492 1.1256983
-5.9950075 -3.0781059 1.1207253
-5.8167906 -2.9833198 1.182862
-5.7992196 -3.0031924 1.1898782
-5.8023911 -3.0170784 1.1777101
-5.8000841 -3.0147486 1.1813796
-5.7982841 -3.0183165 1.1824788
-5.7839422 -3.0277927 1.1804061
-5.7881374 -3.0403328 1.1897432
-5.78409 -3.0518546 1.1809367
-5.7830915 -3.0527332 1.179383
-5.7721925 -3.0585434 1.1826494
-5.7662554 -3.0816669 1.180794
-5.7719107 -3.0714099 1.1871915
-5.6008139 -2.9973912 1.241563
-5.5917263 -2.9961762 1.2326378
-5.578958 -3.017386 1.2282523
-5.5850792 -3.0284894 1.2424928
-5.5732627 -3.0280352 1.2322892
-5.5720983 -3.0277917 1.2386537
-5.5597291 -3.0508196 1.2322239
-5.568903 -3.0472298 1.2280619
-5.5547996 -3.0619948 1.2288486
-5.5625405 -3.0667186 1.2279583
-5.5438733 -3.0743847 1.2380122
-5.5445642 -3.0771616 1.2370982
-5.3659959 -2.9974141 1.2965264
-5.3601069 -3.001739 1.2989161
-5.3599672 -3.0184789 1.2895595
-5.3500204 -3.0182965 1.2882398
-5.3536992 -3.0299981 1.2916799
-5.3437967 -3.0351372 1.2864916
-5.3380461 -3.0504479 1.294314
-5.3514986 -3.0577853 1.2851824
-5.3458304 -3.0507519 1.2961483
-5.3300982 -3.0687168 1.2920952
-5.3352695 -3.0806048 1.2815757
-5.3347425 -3.0708017 1.294242
-5.3118157 -3.0850668 1.2976737
-5.151794 -2.9966016 1.3425274
-5.139658 -3.0128136 1.3494325
-5.1440721 -3.0033631 1.3386855
-5.1336641 -3.0124118 1.3401093
-5.1354241 -3.0191731 1.3416712
-5.1263051 -3.0245373 1.337736
-5.1262107 -3.0384505 1.3432995
-5.1101594 -3.0418267 1.3444324
-5.1246176 -3.0489779 1.3428198
-5.1063991 -3.0575144 1.3343877
-5.1047392 -3.0767932 1.3448579
-5.1119561 -3.0681334 1.3463173
-5.0922575 -3.0880952 1.3444223
-4.9386435 -2.9818597 1.3944083
-4.9283881 -3.001389 1.3910761
-4.9165616 -2.9960375 1.3895572
-4.9086604 -3.0148392 1.4012966
-4.9151859 -3.0218475 1.3968256
-4.9005694 -3.0275817 1.392363
-4.9075556 -3.0393753 1.4065175
-4.9029641 -3.0337968 1.388541
-4.8878932 -3.0397327 1.406366
-4.8913536 -3.0502782 1.3913649
-4.896699 -3.05618 1.3897219
-4.8857889 -3.0560145 1.3954432
-4.878202 -3.0682194 1.3934041
-4.8721242 -3.0767303 1.3994453
-4.8742976 -3.0959833 1.4053544
-4.8609328 -3.084846 1.3923997
-4.6896429 -3.0012703 1.4482561
-4.6867123 -3.0007823 1.4428091
-4.6817484 -3.0094783 1.4582787
-4.6789503 -3.0058992 1.4500493
-4.6911445 -3.0319395 1.4427586
-4.6849723 -3.031354 1.4424682
-4.67307 -3.0274746 1.4568014
-4.663197 -3.0418203 1.4494464
-4.6672745 -3.0426517 1.4496549
-4.6654334 -3.0544398 1.4478114
-4.6565375 -3.0616472 1.4526877
-4.6455169 -3.0701194 1.4446239
-4.6399341 -3.0778329 1.45443
-4.6388731 -3.0869627 1.4543753
-4.6460319 -3.0925095 1.4548342
-4.6404724 -3.096117 1.442427
-4.4751725 -2.9848018 1.5141821
-4.4757023 -2.9949031 1.5043873
-4.4635777 -3.0133412 1.5002916
-4.4512367 -3.0142076 1.5109322
-4.4607301 -3.0104566 1.5008841
-4.4453382 -3.0199721 1.5088761
-4.4380016 -3.0282011 1.4956611
-4.4408507 -3.0396743 1.4998169
-4.4437456 -3.0426209 1.5049202
-4.4261727 -3.0443318 1.5129046
-4.4209981 -3.0650971 1.511425
-4.4178009 -3.0705836 1.5060973
-4.4243894 -3.0681462 1.5085784
-4.4150648 -3.0775766 1.4964345
-4.415091 -3.0807183 1.5142769
-4.4051571 -3.0926945 1.5088333
-4.4072223 -3.1015699 1.5013841
-4.402494 -3.0975378 1.5086794
-4.2363257 -2.989404 1.5529799
-4.2224765 -2.9989882 1.5680351
-4.2206345 -3.0076678 1.5685248
-4.220264 -3.0174289 1.5497217
-4.2252131 -3.0180655 1.5595437
-4.2076726 -3.0136738 1.5661173
-4.2022676 -3.033613 1.5557249
-4.1990123 -3.0279312 1.5595258
-4.2011924 -3.0486367 1.5606153
-4.1908135 -3.048944 1.5518947
-4.193131 -3.0446975 1.5662104
-4.1848803 -3.0507939 1.556868
-4.1815662 -3.0592487 1.564766
-4.1777539 -3.0715413 1.5688175
-4.1727366 -3.0729997 1.5581406
-4.1778893 -3.0811429 1.5577581
-4.1764603 -3.0881145 1.5633328
-4.1654158 -3.0960722 1.56048
-4.1505618 -3.0904596 1.5628065
-4.1546102 -3.098726 1.5507044
-3.993263 -2.9979792 1.6224619
-4.1458087 -3.1244493 1.5665092
-4.1335802 -3.1162908 1.5617031
-4.1334453 -3.1286108 1.5504591
-4.1292515 -3.1402125 1.5636057
-4.135726 -3.1412737 1.5544519
-4.1225748 -3.145221 1.5641636
-4.1238413 -3.1424465 1.5517482
-4.1079526 -3.1491497 1.55077
-4.1097288 -3.1642406 1.5673444
-4.1035995 -3.17644 1.5548813
-4.0994449 -3.1714325 1.5573516
-4.0974946 -3.17856 1.5537808
-4.1003428 -3.189925 1.5636841
-4.0944262 -3.2014754 1.5677741
-4.0753555 -3.2038882 1.5565847
-4.0854306 -3.1975462 1.5672243
-4.0657859 -3.2168748 1.5664079
-4.0785489 -3.2047265 1.5646521
-4.0722818 -3.2187748 1.5535629
-4.0694327 -3.2311218 1.5560253
-4.0590386 -3.2237506 1.5492405
-4.0461664 -3.238873 1.5610667
-4.0568566 -3.2412956 1.567261
-4.0376363 -3.2422621 1.5676311
-4.0343175 -3.248626 1.5513084
-4.0421805 -3.269541 1.5670416
-4.0393958 -3.2752955 1.549154
-4.0174198 -3.2783051 1.5491161
-4.0171919 -3.2795475 1.5607251
-4.0080452 -3.2824485 1.5656756
-4.0164285 -3.2794714 1.5636801
-4.0115881 -3.2881453 1.552238
-3.9949141 -3.2920418 1.5640433
-3.992038 -3.3012571 1.5605454
-4.1370616 -3.4346879 1.5026006
-4.1299505 -3.4377573 1.5031317
-4.1270981 -3.442605 1.5035529
-4.1221251 -3.4500477 1.5066026
-4.1171823 -3.4618409 1.5140414
-4.1206222 -3.469074 1.5042044
-4.1191034 -3.4692843 1.5029634
-4.0995727 -3.4692571 1.4986606
-4.1114755 -3.4771657 1.4960674
-4.0915651 -3.4868159 1.5098584
-4.0951447 -3.4978378 1.4987981
-4.0829206 -3.5065536 1.510462
-4.090157 -3.4972308 1.5030649
-4.0769649 -3.5077562 1.5140051
-4.0807147 -3.5181682 1.4989253
-4.0770178 -3.5168579 1.5023789
-4.0631504 -3.5188742 1.5113819
-4.0505157 -3.5262132 1.506165
-4.0621758 -3.5303168 1.4987857
-4.0564213 -3.5393796 1.5074955
-4.0368676 -3.5568995 1.5109161
-4.0483665 -3.547081 1.5113463
-4.028194 -3.5693927 1.5068183
-4.0354099 -3.5634136 1.4974768
-4.0316782 -3.5660939 1.5034285
-4.0230188 -3.5699949 1.4963889
-4.0108976 -3.5849535 1.5130242
-4.0097656 -3.592211 1.508005
-4.0138426 -3.5960696 1.5045599
-4.005291 -3.599123 1.4977225
-4.1310191 -3.7366679 1.4452887
-4.1301413 -3.7417881 1.4420706
-4.1288252 -3.7517083 1.4421906
-4.1120286 -3.7538249 1.4539328
-4.1245661 -3.7571983 1.4486306
-4.1111436 -3.7569082 1.4450562
-4.1047525 -3.7695007 1.4521452
-4.1017179 -3.7659733 1.4575919
-4.1036949 -3.7715423 1.4447877
-4.0891089 -3.7935874 1.4545311
-4.0813522 -3.7833986 1.4614115
-4.0722814 -3.7975552 1.4489578
-4.0664201 -3.7956274 1.4523633
-4.060431 -3.8021426 1.4594238
-4.0626917 -3.8064425 1.4488753
-4.0502472 -3.8225756 1.444374
-4.0613685 -3.8175814 1.4530299
-4.0453935 -3.8348246 1.4509556
-4.0439634 -3.8393245 1.4490472
-4.0353298 -3.8345261 1.4508214
-4.0369449 -3.8472664 1.4485046
-4.0316715 -3.8562396 1.4577439
-4.0188441 -3.8646631 1.4546165
-4.0226035 -3.872417 1.4506719
-3.9992943 -3.8677592 1.4481177
-4.006526 -3.8759921 1.4551135
-3.998251 -3.8806899 1.4527789
-4.1393433 -4.0291491 1.405129
-4.1242828 -4.0273442 1.3923801
-4.1111236 -4.0422726 1.390083
-4.1161814 -4.0441909 1.4006907
-4.1035485 -4.0462184 1.3879635
-4.1016679 -4.0408087 1.3924434
-4.1029067 -4.0645566 1.3947923
-4.0880823 -4.0704012 1.4074144
-4.0758042 -4.0688915 1.3974117
-4.0765219 -4.0645285 1.3883115
-4.0795665 -4.0886559 1.3907305
-4.0765128 -4.0833488 1.4007319
-4.0661998 -4.0905151 1.4015746
-4.058176 -4.0883803 1.4062613
-4.0595369 -4.0992622 1.3946745
-4.0536165 -4.1139202 1.3942436
-4.0432086 -4.1154828 1.395803
-4.0304441 -4.1278934 1.397248
-4.0250492 -4.1337075 1.4059253
-4.0296493 -4.1259284 1.40468
-4.0233417 -4.1268907 1.4050134
-4.0146074 -4.1505046 1.3963526
-3.9958639 -4.1495185 1.4062163
-3.9962697 -4.1462293 1.4038969
-4.125432 -4.2889647 1.3426301
-4.1125283 -4.292768 1.346112
-4.1200476 -4.3119073 1.35369
-4.105999 -4.3240347 1.3345076
-4.1104975 -4.3165269 1.3351537
-4.1063108 -4.3193879 1.3492132
-4.0833616 -4.3217168 1.3479365
-4.0800705 -4.341095 1.3486643
-4.0854325 -4.3475208 1.3359883
-4.0809231 -4.3401523 1.3522031
-4.0587249 -4.3543019 1.3502115
-4.064045 -4.361557 1.3501885
-4.0458755 -4.3623481 1.3367894
-4.0401201 -4.3751163 1.3370181
-4.0335388 -4.3784156 1.3505012
-4.0263038 -4.3835697 1.3468617
-4.0250015 -4.3918233 1.3466232
-4.0249677 -4.4028435 1.3527278
-4.0241985 -4.4052906 1.338119
-4.0160975 -4.4093008 1.3365835
-4.0117736 -4.4171939 1.346594
-3.9894338 -4.4164963 1.3350369
-4.11623 -4.5666933 1.294627
-4.1070967 -4.5744524 1.2808599
-4.1177268 -4.5817423 1.2894551
-4.0948658 -4.5879178 1.2985494
-4.0956359 -4.5789189 1.2850347
-4.0966368 -4.5960221 1.286136
-4.0915251 -4.5985003 1.2904179
-4.0810142 -4.5990286 1.2963083
-4.072031 -4.6013932 1.2999158
-4.073029 -4.607585 1.2898227
-4.0655766 -4.6176267 1.2980931
-4.0447855 -4.6249185 1.2843692
-4.0377536 -4.6292305 1.2891108
-4.0421185 -4.6370807 1.2934237
-4.0373816 -4.6521077 1.2924732
-4.0261512 -4.6545501 1.3001482
-4.0138116 -4.6583037 1.2910651
-4.0171824 -4.6579771 1.2871641
-4.0146546 -4.675106 1.2866006
-4.008512 -4.6796794 1.2855382
-3.9924543 -4.6832547 1.3001175
-3.9881186 -4.6925015 1.29308
-3.9774988 -4.6811862 1.2873958
-3.9821298 -4.7007146 1.2995185
-3.9624403 -4.7019916 1.2822617
-3.9636931 -4.6985326 1.2882009
-3.9572635 -4.7092357 1.2960157
-3.9399092 -4.7098188 1.2897776
-3.9464481 -4.7143922 1.2920222
-3.933543 -4.719348 1.2952954
-3.9216924 -4.7347794 1.2805862
-3.9152551 -4.7324162 1.2822142
-3.9158473 -4.7459817 1.2807319
-3.9021161 -4.7507343 1.2852868
-3.8962548 -4.762362 1.2941209
-3.8876424 -4.7618146 1.2919616
-3.8930833 -4.7614169 1.284637
-3.870702 -4.7702522 1.2822579
-3.8745508 -4.772222 1.280825
-3.8761477 -4.787889 1.2999465
-3.8544641 -4.798316 1.2891378
-3.8474817 -4.7889237 1.2861845
-3.8388641 -4.8067493 1.2951483
-3.8317211 -4.7974777 1.2848324
-3.8400156 -4.8089852 1.288353
-3.8194687 -4.8185291 1.2978759
-3.8210735 -4.8201704 1.2932419
-3.8099957 -4.8260942 1.2852085
-3.8012891 -4.8225379 1.2806323
-3.7940083 -4.8272576 1.2858065
-3.7875984 -4.8369803 1.2859619
-3.7919898 -4.8464146 1.2809082
-3.7793272 -4.8539329 1.2834182
-3.7776933 -4.8610168 1.2805803
-3.7663682 -4.8631124 1.2916054
-3.7515149 -4.8713846 1.2984477
-3.7471313 -4.8679938 1.2890006
-3.7473745 -4.8802633 1.2989725
-3.7356439 -4.8905735 1.2978333
-3.728482 -4.8803563 1.297298
-3.7161386 -4.8904905 1.2923542
-3.7236328 -4.8917847 1.2832807
-3.7161732 -4.9071922 1.2919844
-3.7061963 -4.9077497 1.2988895
-3.6990499 -4.9237723 1.2889755
-3.6808715 -4.9117403 1.2960557
-3.6758435 -4.9221301 1.2917842
-3.6802554 -4.9395761 1.2804904
-3.6746881 -4.9321113 1.2841251
-3.6702528 -4.9443121 1.2832055
-3.6463459 -4.951004 1.2973708
-3.6473753 -4.9520321 1.2954513
-3.6374714 -4.9524498 1.2833241
-3.6388564 -4.9697471 1.29583
-3.6333294 -4.9667621 1.2974937
-3.6177092 -4.9724693 1.2963607
-3.6150019 -4.9800262 1.2899995
-3.616559 -4.9788809 1.2913444
-3.6094027 -4.9790606 1.2852963
-6.887682 -2.9888353 0.96103966
-6.8896437 -2.9984798 0.96981984
-6.885004 -3.0078132 0.97532028
-6.8830972 -3.022913 0.97041744
-6.8861089 -3.0373075 0.95926172
-6.8686986 -3.048562 0.9769901
-6.8772917 -3.0600936 0.97419065
-6.8715897 -3.0531025 0.96987665
-6.6771708 -2.9991379 1.0293643
-6.6750937 -2.9974816 1.0150045
-6.6718845 -3.0113678 1.0297419
-6.6657104 -3.0114098 1.0244701
-6.670743 -3.0310204 1.0194944
-6.6702619 -3.0329454 1.0290427
-6.6546712 -3.0421169 1.0138141
-6.6502228 -3.058126 1.0169427
-6.6480331 -3.0669899 1.0181456
-6.4735045 -2.993233 1.0682704
-6.4585161 -3.0064273 1.070636
-6.456358 -3.0217357 1.0639997
-6.4485474 -3.0180392 1.0728135
-6.4459867 -3.0323861 1.0709155
-6.4486856 -3.035996 1.0787311
-6.436347 -3.0433686 1.0739403
-6.4344482 -3.0594068 1.0692905
-6.4277649 -3.0752661 1.077938
-6.2638488 -2.98983 1.1193532
-6.2529259 -2.9924314 1.1302948
-6.2441969 -3.0042391 1.1170863
-6.2530899 -3.0180964 1.1176076
-6.2486072 -3.0283635 1.1308578
-6.2352982 -3.0403028 1.1187875
-6.2238755 -3.0391858 1.1321278
-6.2246246 -3.0499885 1.12711
-6.2301526 -3.0631623 1.1350627
-6.2203178 -3.0739362 1.1161587
-6.0489135 -2.9933708 1.1806303
-6.0414433 -3.0116427 1.1789171
-6.0430193 -3.0053897 1.1741379
-6.0377922 -3.0122454 1.1842372
-6.0320325 -3.018847 1.1727995
-6.01301 -3.0363798 1.1781466
-6.0260468 -3.0467424 1.1733288
-6.0057311 -3.0621192 1.1864204
-6.0104213 -3.0673006 1.1750443
-6.0071473 -3.0669365 1.1815945
-6.0027657 -3.0723794 1.1715939
-5.8146596 -3.0060892 1.224099
-5.8199506 -3.0137968 1.2389672
-5.8100095 -3.0204945 1.2354145
-5.809958 -3.0256605 1.2336895
-5.801333 -3.0360451 1.222855
-5.8073492 -3.0437181 1.2300749
-5.798172 -3.0553396 1.2303296
-5.7958918 -3.055927 1.2338084
-5.7849765 -3.0575278 1.2260506
-5.7874994 -3.079046 1.2212433
-5.7800121 -3.088341 1.2226574
-5.6021457 -2.9960456 1.276837
-5.5997205 -3.0088623 1.2801238
-5.6008372 -3.0058489 1.2863747
-5.6036677 -3.0184433 1.2903652
-5.5973225 -3.0212982 1.2748009
-5.583746 -3.0392318 1.2757274
-5.5899038 -3.0391519 1.2841729
-5.5725718 -3.0524352 1.2791178
-5.5629869 -3.052531 1.2806389
-5.5581985 -3.0694401 1.2809534
-5.5719852 -3.0829883 1.2905653
-5.5639124 -3.0783076 1.2751993
-5.3838983 -3.0050313 1.3430105
-5.3863974 -3.0124874 1.3337234
-5.3848953 -3.0178268 1.3294023
-5.3789473 -3.0138295 1.334963
-5.3720622 -3.0202408 1.3284127
-5.3567209 -3.0335822 1.3363825
-5.3664246 -3.0416112 1.3320539
-5.3545961 -3.049135 1.3386074
-5.362443 -3.0547397 1.3393981
-5.3406677 -3.0565767 1.332649
-5.3342481 -3.0713592 1.3330302
-5.3323374 -3.0728362 1.3334874
-5.3397036 -3.0770173 1.3361312
-5.1644692 -3.002502 1.3826234
-5.1507106 -3.0020602 1.3778875
-5.1634922 -3.0105147 1.3873186
-5.148294 -3.0129209 1.3962232
-5.137414 -3.0277574 1.3851002
-5.1399708 -3.0347097 1.3958631
-5.1417265 -3.0441661 1.3922734
-5.1302214 -3.0514925 1.3813798
-5.1383252 -3.0612087 1.3964818
-5.1259618 -3.0626018 1.3948691
-5.1309447 -3.059993 1.3782676
-5.1217561 -3.0678213 1.3893296
-5.1172934 -3.0726373 1.3791524
-5.1033897 -3.0864708 1.3937789
-4.9355879 -2.9934425 1.4331037
-4.9440227 -3.007185 1.4403429
-4.9216852 -3.0069299 1.4453179
-4.9229274 -3.0194259 1.4301523
-4.9150538 -3.0242922 1.4324507
-4.9120688 -3.0210714 1.4405301
-4.9106865 -3.0471199 1.4383863
-4.9058962 -3.0482764 1.4355763
-4.9100347 -3.0492766 1.4351066
-4.9043403 -3.0606897 1.4479532
-4.9040103 -3.0736108 1.4407637
-4.8966765 -3.0791631 1.4467394
-4.8820944 -3.0865836 1.4398723
-4.8825274 -3.0794621 1.4474049
-4.8781166 -3.0886919 1.4369612
-4.7085485 -2.9955299 1.4889534
-4.7138858 -3.0086443 1.4894443
-4.7013574 -3.0012224 1.4956511
-4.6916299 -3.0222025 1.4877239
-4.702363 -3.0217614 1.4952441
-4.7002406 -3.0252731 1.4966974
-4.6852984 -3.0257432 1.4994469
-4.684371 -3.0359333 1.5016181
-4.6703019 -3.0508676 1.4977474
-4.6686907 -3.0457122 1.4914769
-4.6775146 -3.0581684 1.501551
-4.6666679 -3.0601571 1.4851018
-4.6553211 -3.0738218 1.4826595
-4.6577587 -3.0819726 1.4858162
-4.6481142 -3.0850792 1.4959873
-4.6509404 -3.0902948 1.4892142
-4.4918103 -2.9975557 1.5408632
-4.4705658 -2.9951689 1.5365466
-4.4671407 -3.0029724 1.5438453
-4.4675779 -3.0134332 1.5428429
-4.474277 -3.0169957 1.5359219
-4.4708929 -3.0339983 1.5535438
-4.4639497 -3.0239499 1.5440266
-4.4594398 -3.0406439 1.5528783
-4.4517646 -3.0520077 1.545137
-4.4539094 -3.0505209 1.5386876
-4.4428191 -3.0547299 1.5442255
-4.4324017 -3.0618856 1.5384215
-4.4262924 -3.0698166 1.5510798
-4.4328761 -3.0823936 1.5395366
-4.4204531 -3.0858872 1.550685
-4.4149427 -3.0902231 1.5510788
-4.4118013 -3.0918505 1.5477629
-4.418169 -3.0932121 1.5539888
-4.2579284 -2.999898 1.5874124
-4.2433238 -3.0040224 1.5962157
-4.2351604 -3.0013263 1.6070282
-4.2414503 -3.0124917 1.5968972
-4.2335367 -3.0218351 1.6050416
-4.2329559 -3.022058 1.6068091
-4.2239103 -3.0341623 1.5912774
-4.2237082 -3.0450695 1.597598
-4.2231035 -3.0371573 1.5884731
-4.2058072 -3.0399432 1.6041631
-4.2022762 -3.0445752 1.5880845
-4.1976447 -3.0587947 1.5938252
-4.2042017 -3.0690513 1.5882001
-4.1999378 -3.0698068 1.5973415
-4.1857967 -3.0668652 1.6030658
-4.1835032 -3.0875685 1.5944878
-4.1794338 -3.0834596 1.5997196
-4.1708879 -3.1033902 1.5999528
-4.1760135 -3.1069663 1.5940007
-4.0155144 -2.9821064 1.6434903
-4.0142202 -2.9931638 1.6419076
-4.008996 -3.0038645 1.6519898
-3.9980237 -3.0054052 1.6576943
-4.1467633 -3.1232333 1.596185
-4.1520963 -3.1351748 1.5958147
-4.1516972 -3.1491299 1.6006019
-4.1398678 -3.1433313 1.5953525
-4.1427984 -3.1533108 1.5960213
-4.1254883 -3.1527479 1.5989563
-4.1141219 -3.1707668 1.5971901
-4.1255889 -3.1716785 1.5899811
-4.1186304 -3.171561 1.59768
-4.1015816 -3.1846735 1.5894408
-4.0988207 -3.1966414 1.6052306
-4.1052299 -3.198323 1.5948848
-4.092001 -3.203994 1.5963836
-4.0939775 -3.2022326 1.5894747
-4.0811949 -3.2078068 1.5983739
-4.0877357 -3.2204835 1.5936176
-4.0713334 -3.2262149 1.5966172
-4.0766892 -3.2278421 1.6044744
-4.0692463 -3.226948 1.598212
-4.0740967 -3.2334507 1.6045936
-4.0671782 -3.2416449 1.6047578
-4.0644617 -3.2407095 1.5889846
-4.0520835 -3.2510147 1.5932782
-4.0381985 -3.2677732 1.6050649
-4.0512142 -3.2762341 1.5970027
-4.0353231 -3.2757292 1.6019831
-4.0241804 -3.283323 1.6069449
-4.0300303 -3.2807817 1.595986
-4.0280147 -3.2953146 1.5916214
-4.0122538 -3.2992225 1.6064483
-4.0101032 -3.3007445 1.5987682
-4.007781 -3.3040915 1.5977049
-4.001224 -3.3196084 1.5920112
-4.010366 -3.3257971 1.5952276
-3.9877129 -3.3295662 1.5956452
-4.1413455 -3.4456649 1.5498924
-4.1415858 -3.4517596 1.5545262
-4.1368566 -3.4682918 1.5473443
-4.1230779 -3.4674041 1.5512662
-4.113656 -3.4753594 1.5369102
-4.1093988 -3.4857759 1.5466557
-4.1128139 -3.4784892 1.5386716
-4.0972843 -3.4892726 1.540781
-4.10744 -3.4938326 1.5423062
-4.0943718 -3.5003824 1.54566
-4.1008778 -3.5169842 1.5421549
-4.0807977 -3.5186577 1.5383469
-4.0760756 -3.5204411 1.5437914
-4.078527 -3.533293 1.5359017
-4.0770493 -3.5415781 1.5458279
-4.0699191 -3.5304697 1.5511022
-4.0530357 -3.5476475 1.549421
-4.0641284 -3.5541751 1.5427071
-4.0531039 -3.5557461 1.5371773
-4.0405464 -3.569144 1.5508349
-4.0446267 -3.5739515 1.5536211
-4.0322046 -3.56359 1.5404571
-4.0235825 -3.5734258 1.5512266
-4.0295081 -3.5906408 1.5348539
-4.0233154 -3.5913129 1.535899
-4.0071888 -3.5897985 1.5537484
-4.0057797 -3.5963519 1.540109
-4.0060444 -3.5989571 1.5456241
-3.9930151 -3.6155045 1.5352434
-4.0055075 -3.6244695 1.5371329
-4.1272583 -3.7522449 1.4875451
-4.1231098 -3.763041 1.4863042
-4.1321177 -3.7702136 1.5008746
-4.1103477 -3.7683177 1.4838705
-4.1049428 -3.7852433 1.4918274
-4.0984845 -3.7910643 1.486925
-4.0941687 -3.7805059 1.5010885
-4.1034842 -3.7952499 1.4982591
-4.0872769 -3.8020101 1.4844872
-4.0814419 -3.8063157 1.4873484
-4.07371 -3.8145094 1.4977726
-4.0832267 -3.8238053 1.4831839
-4.073976 -3.8273671 1.4871987
-4.070147 -3.8344252 1.4988781
-4.0633144 -3.8413522 1.4993931
-4.0485168 -3.8471034 1.4998412
-4.0586138 -3.8538291 1.4965941
-4.0345392 -3.8551688 1.484342
-4.0332861 -3.8656073 1.4910617
-4.0257969 -3.8555253 1.4991999
-4.035439 -3.8630335 1.4848611
-4.0146489 -3.8653886 1.486936
-4.0084395 -3.8838313 1.491151
-4.0182076 -3.8837912 1.4940025
-4.0162888 -3.8822725 1.4956137
-3.9938464 -3.8913181 1.4971534
-4.1290689 -4.0306792 1.4453083
-4.1292219 -4.0366879 1.4301192
-4.1216187 -4.0468287 1.4301484
-4.1072879 -4.0548739 1.4459089
-4.1048112 -4.0579624 1.4398031
-4.0966644 -4.0656695 1.4369766
-4.1064353 -4.0725846 1.441334
-4.0919833 -4.0746922 1.4313508
-4.0946717 -4.0803132 1.448498
-4.0757408 -4.0889325 1.4422035
-4.0752621 -4.1001024 1.436993
-4.0742893 -4.0970693 1.4315554
-4.0684981 -4.1120858 1.4417505
-4.0626698 -4.118432 1.449666
-4.0610728 -4.1079702 1.440251
-4.0455737 -4.1150379 1.4488785
-4.0328937 -4.1175613 1.4363329
-4.0358477 -4.1313252 1.4474136
-4.0287771 -4.1334777 1.4385991
-4.0245514 -4.1424079 1.4468831
-4.0266128 -4.1565762 1.4497074
-4.0138764 -4.1554966 1.4412665
-4.0065699 -4.1543579 1.4435033
-4.0090604 -4.173131 1.4450796
-4.1371527 -4.3154564 1.3904649
-4.1209321 -4.3088241 1.3867832
-4.1160765 -4.3152757 1.38624
-4.1037579 -4.3304529 1.3975867
-4.1003509 -4.3443394 1.3924265
-4.1057506 -4.3397875 1.3839735
-4.1028581 -4.343092 1.3869818
-4.0771332 -4.3594637 1.3966913
-4.0798411 -4.3543396 1.3931528
-4.0803041 -4.3575249 1.3964463
-4.0591831 -4.361104 1.3824122
-4.060338 -4.3744922 1.3807853
-4.0651665 -4.3890615 1.3784736
-4.05053 -4.3773575 1.3867429
-4.0445395 -4.3882999 1.3868757
-4.0437007 -4.3907032 1.3973016
-4.0313072 -4.3962831 1.3901557
-4.0158978 -4.4022155 1.3923626
-4.0107703 -4.4169412 1.3854095
-4.0091739 -4.4182229 1.3809783
-4.0042763 -4.4244852 1.3786669
-3.9934049 -4.4380112 1.3886577
-4.1333332 -4.5859184 1.3374298
-4.126184 -4.5820584 1.3359098
-4.1107578 -4.5983405 1.3291122
-4.095191 -4.5999241 1.3255672
-4.08919 -4.595263 1.3420898
-4.0903268 -4.6013484 1.3383188
-4.0892487 -4.6084704 1.3254526
-4.0751162 -4.6201682 1.3369259
-4.0654063 -4.6331477 1.32775
-4.0580001 -4.6414437 1.3306524
-4.060595 -4.6466823 1.3346791
-4.062079 -4.6511755 1.3283329
-4.0450749 -4.6466541 1.3314629
-4.0348606 -4.6529856 1.3387583
-4.0281835 -4.6597433 1.3364553
-4.0249763 -4.6740737 1.3337984
-4.0255318 -4.67377 1.3297416
-4.0189452 -4.6857848 1.3397003
-4.0008783 -4.6745491 1.3423836
-3.9919789 -4.6823754 1.3424664
-4.0001698 -4.6992717 1.3429965
-3.9843256 -4.7041354 1.3447105
-3.9748201 -4.6984863 1.3366137
-3.9821768 -4.7091217 1.3278447
-3.9622302 -4.7195878 1.3379676
-3.9645789 -4.7133603 1.339401
-3.9495769 -4.7342119 1.3267698
-3.9386237 -4.7350073 1.3277465
-3.9377043 -4.7442741 1.3255719
-3.934094 -4.7511883 1.3411756
-3.930393 -4.7528467 1.3254781
-3.9261544 -4.745223 1.3305027
-3.9201939 -4.7546635 1.3267534
-3.9023228 -4.7580385 1.3379356
-3.893213 -4.7680516 1.3442106
-3.8939726 -4.7670064 1.3422617
-3.8932912 -4.7775598 1.3450015
-3.8852334 -4.7837687 1.3324764
-3.8761914 -4.7956738 1.3362057
-3.8693163 -4.7905927 1.3385334
-3.8668299 -4.8084421 1.3447055
-3.8600338 -4.8086915 1.3439947
-3.8482051 -4.8096275 1.3393277
-3.8401184 -4.8193469 1.3367611
-3.840842 -4.8266187 1.3296468
-3.835283 -4.8213191 1.3290342
-3.8116655 -4.8420157 1.3433152
-3.805301 -4.8413391 1.3368251
-3.8114538 -4.8383131 1.3438581
-3.79387 -4.8551121 1.3413913
-3.7939508 -4.856132 1.3264849
-3.7878523 -4.8570709 1.3367292
-3.7824574 -4.8729038 1.3314282
-3.7817218 -4.8673797 1.3417894
-3.7635455 -4.8693171 1.3302511
-3.7524762 -4.8924408 1.3293748
-3.762012 -4.8986993 1.3331552
-3.7372596 -4.8853531 1.3429556
-3.7389901 -4.9049273 1.3411165
-3.73368 -4.9136925 1.3278034
-3.7308297 -4.9093208 1.3387854
-3.7228782 -4.9056406 1.3341347
-3.7046754 -4.9233618 1.3389474
-3.7117662 -4.9271526 1.3345708
-3.6884887 -4.9395785 1.3335341
-3.6967421 -4.9277544 1.3346417
-3.6858647 -4.9322929 1.3347489
-3.6711998 -4.9389129 1.333451
-3.6667271 -4.9541039 1.337818
-3.6640863 -4.9508338 1.3386496
-3.6547518 -4.9515691 1.3290728
-3.6544278 -4.9712157 1.3283868
-3.6387475 -4.9795299 1.33518
-3.6382475 -4.981812 1.3433739
-3.6221168 -4.9877014 1.3443232
-3.6270158 -4.9887366 1.3422683
-6.9059176 -3.001863 1.032019
-6.9118953 -3.0167549 1.0331458
-6.8991318 -3.0164337 1.0236909
-6.8854594 -3.022851 1.0246097
-6.889833 -3.0389512 1.015879
-6.8908815 -3.0514367 1.0154642
-6.8806009 -3.0640223 1.0188023
-6.8786411 -3.0677702 1.0332359
-6.7026324 -3.0015311 1.0749146
-6.6834073 -3.0165095 1.0801133
-6.6877828 -3.0151567 1.0676937
-6.6856942 -3.0239844 1.0700364
-6.6824656 -3.0442648 1.0823487
-6.6686792 -3.0351024 1.0778862
-6.6739607 -3.0545566 1.06696
-6.6679602 -3.0593159 1.0731789
-6.4867797 -2.9969566 1.1273556
-6.4779429 -2.9977837 1.1164839
-6.4746604 -3.0033751 1.1223227
-6.4806051 -3.013941 1.1225433
-6.461338 -3.0330949 1.1334711
-6.4744787 -3.0343859 1.1249198
-6.4652634 -3.0366874 1.1254307
-6.4637237 -3.0494537 1.1244407
-6.4466338 -3.0717666 1.133327
-6.4404573 -3.0723567 1.1267788
-6.2736177 -2.9880874 1.1817201
-6.2580562 -3.0024796 1.1739831
-6.2533541 -3.017792 1.1697166
-6.2628012 -3.0232646 1.1839397
-6.2520156 -3.0336993 1.168059
-6.2502894 -3.0415154 1.1799314
-6.237103 -3.0443697 1.1785406
-6.2433929 -3.0499506 1.1734155
-6.2306614 -3.0627201 1.1750036
-6.0556626 -2.9878683 1.2359409
-6.060688 -2.9904072 1.2356917
-6.0416789 -3.0015845 1.2298151
-6.0503955 -3.0122719 1.2373849
-6.0433664 -3.0166304 1.2282349
-6.0421028 -3.0344398 1.2373972
-6.0367079 -3.0347722 1.2274847
-6.0194287 -3.0461783 1.2234528
-6.0235291 -3.0681481 1.2225693
-6.012742 -3.061671 1.2376394
-6.0203557 -3.0778606 1.2305422
-5.8459082 -2.9948766 1.2802942
-5.8438525 -3.005234 1.2764134
-5.827662 -3.0085211 1.2703028
-5.8238902 -3.0290048 1.2882849
-5.8292575 -3.0324614 1.2769033
-5.8254509 -3.0347722 1.2736291
-5.8115454 -3.0440643 1.2873824
-5.8016601 -3.0617285 1.2875938
-5.8126473 -3.0528903 1.2827042
-5.8085532 -3.0759614 1.2700406
-5.7915449 -3.0809231 1.280382
-5.6250386 -2.9970045 1.3394487
-5.6131825 -2.9918847 1.3324671
-5.6074262 -3.0072119 1.3331537
-5.6036768 -3.0121362 1.3385297
-5.6112981 -3.0174949 1.329735
-5.6021829 -3.033201 1.3197825
-5.5993028 -3.0432858 1.3202937
-5.5962009 -3.0486331 1.3377653
-5.5779772 -3.0541728 1.3202822
-5.5924067 -3.0670023 1.3259476
-5.5764832 -3.0682881 1.3326154
-5.5724015 -3.0819111 1.3322629
-5.4061861 -3.0001152 1.3753562
-5.3885088 -2.9924159 1.3904545
-5.3854451 -3.0165641 1.3880365
-5.3911653 -3.0158341 1.3777488
-5.3868279 -3.0164723 1.3852067
-5.3819685 -3.0382674 1.3751419
-5.3796268 -3.0461092 1.3873557
-5.3747578 -3.0526609 1.374553
-5.364213 -3.0475814 1.3882709
-5.3669901 -3.0627227 1.3761665
-5.3501091 -3.0650666 1.3797857
-5.3610435 -3.0739262 1.3786567
-5.3568687 -3.0839257 1.3809261
-5.1877289 -2.9869394 1.4223853
-5.1763744 -3.0065269 1.4398222
-5.1775517 -3.0054905 1.4229928
-5.1687846 -3.0063584 1.4258447
-5.1677928 -3.0266137 1.4296619
-5.1595941 -3.040591 1.4260696
-5.1576672 -3.0416226 1.4348413
-5.1478348 -3.0500612 1.4287682
-5.1543727 -3.0537319 1.4413285
-5.1420298 -3.0575368 1.4313766
-5.1274076 -3.0638938 1.4289715
-5.1222348 -3.0830903 1.4342206
-5.1196156 -3.0876689 1.4277415
-5.1138153 -3.0876939 1.4276243
-4.9597068 -2.9907784 1.4853946
-4.9473572 -3.009841 1.4854864
-4.9385905 -3.0112212 1.4917585
-4.9410429 -3.0070236 1.4767981
-4.9295583 -3.013629 1.4853669
-4.9255037 -3.0321662 1.4773251
-4.9313917 -3.0403659 1.4901145
-4.9196749 -3.0476878 1.4908892
-4.9226995 -3.0566947 1.4742616
-4.9121938 -3.0642166 1.4847789
-4.9017954 -3.0674009 1.4792024
-4.9045358 -3.0624311 1.4814905
-4.9071755 -3.0728989 1.4893194
-4.903533 -3.0900328 1.4882612
-4.8948417 -3.099906 1.4875071
-4.7342591 -2.986342 1.5260382
-4.7251663 -3.0062969 1.5323482
-4.7232747 -2.9987876 1.5382279
-4.7205997 -3.0185657 1.5419865
-4.7145424 -3.0121098 1.525103
-4.6979589 -3.019537 1.5319088
-4.706943 -3.0339961 1.5305521
-4.6936297 -3.0353951 1.5255896
-4.6924782 -3.0574622 1.5303488
-4.6923752 -3.0551577 1.5320843
-4.693018 -3.0599124 1.5306118
-4.686039 -3.0597687 1.5357938
-4.6727409 -3.0819366 1.5350887
-4.6735544 -3.0856419 1.5412035
-4.6705995 -3.0875118 1.5403662
-4.6645193 -3.0970292 1.5386879
-4.4906673 -2.9925323 1.5800496
-4.4992695 -3.0059845 1.5756676
-4.492826 -3.0025442 1.5757867
-4.4816141 -3.003269 1.5847727
-4.488658 -3.008913 1.5755602
-4.4771657 -3.0318644 1.5930421
-4.4804826 -3.0258131 1.5749003
-4.4644957 -3.044879 1.5795915
-4.4623857 -3.0453038 1.5889452
-4.4611039 -3.0439711 1.5753077
-4.4614916 -3.054075 1.5854492
-4.4514279 -3.056972 1.5884279
-4.4457378 -3.0776246 1.5811307
-4.4399199 -3.0712738 1.5793866
-4.445107 -3.076184 1.5782702
-4.4394979 -3.0938277 1.5804687
-4.4363985 -3.0990229 1.5749785
-4.4314322 -3.0924745 1.5766766
-4.2635546 -2.9968188 1.6351171
-4.2646818 -2.9951706 1.6302135
-4.259438 -2.9981799 1.6414425
-4.2440443 -3.0154037 1.6360049
-4.2456636 -3.0112245 1.636139
-4.2345719 -3.0255227 1.6288422
-4.2452159 -3.0293126 1.6428477
-4.236968 -3.0318065 1.6254158
-4.2265134 -3.0355227 1.6289891
-4.2215409 -3.0386028 1.6253048
-4.2148619 -3.0563557 1.6322151
-4.2206531 -3.0594275 1.6267352
-4.2113395 -3.061456 1.6442014
-4.2107887 -3.0722995 1.6303933
-4.1956677 -3.068979 1.6267081
-4.2004037 -3.0787923 1.6346625
-4.1924291 -3.0834832 1.6447588
-4.1904402 -3.1041679 1.6382872
-4.1858749 -3.0986481 1.6340194
-4.0225239 -2.9970074 1.6835046
-4.0182147 -2.9881442 1.6902261
-4.0069876 -3.0093472 1.6797777
-4.0212321 -3.0055201 1.6931971
-4.018003 -3.0054338 1.6816634
-4.008574 -3.0145257 1.6793339
-4.0028224 -3.0326619 1.6930695
-4.1431785 -3.144057 1.6370674
-4.1391969 -3.1610847 1.6371655
-4.1416793 -3.1578796 1.6286434
-4.1284213 -3.1708682 1.6322093
-4.1365891 -3.1637352 1.6302698
-4.1180267 -3.1695697 1.6327524
-4.1299052 -3.173852 1.6446819
-4.128356 -3.179116 1.6423115
-4.1183324 -3.1991694 1.6364567
-4.11063 -3.1976979 1.6380678
-4.1091847 -3.2067466 1.6307976
-4.092814 -3.2162194 1.6323049
-4.0963373 -3.2125878 1.6428161
-4.0883751 -3.2201197 1.6261313
-4.0968385 -3.2202489 1.6423662
-4.0872335 -3.2262537 1.6385468
-4.0751381 -3.2485826 1.6362191
-4.071105 -3.2538159 1.6343955
-4.0694346 -3.2534876 1.6382799
-4.0736108 -3.249927 1.6293914
-4.0561681 -3.2693985 1.6372033
-4.0459876 -3.2769854 1.6412853
-4.0542917 -3.2725894 1.6347353
-4.0520773 -3.2847331 1.6263838
-4.0465393 -3.2898498 1.643627
-4.0447583 -3.2898796 1.6405832
-4.0267892 -3.3023398 1.640922
-4.0311399 -3.2953005 1.6417325
-4.0173063 -3.3111327 1.62857
-4.0195804 -3.3156905 1.6446605
-4.010735 -3.3273635 1.6269653
-4.01407 -3.3334212 1.6273628
-4.0133152 -3.3323569 1.6378295
-3.9991026 -3.3336589 1.6418195
-4.1415815 -3.4581099 1.5754341
-4.138288 -3.4614868 1.5855919
-4.1380301 -3.4714992 1.588937
-4.1374259 -3.4904747 1.5849626
-4.1160026 -3.480237 1.5907906
-4.1277337 -3.496902 1.5776888
-4.1233668 -3.5093575 1.5785359
-4.1166868 -3.5097921 1.5789404
-4.109601 -3.5141237 1.586018
-4.0920405 -3.5089023 1.5773957
-4.0904822 -3.5224795 1.5940156
-4.0843821 -3.5376117 1.5930548
-4.0881166 -3.5373433 1.587871
-4.0884976 -3.5413349 1.5894942
-4.0728455 -3.5487761 1.5871308
-4.0713573 -3.5528297 1.5938716
-4.0629625 -3.557405 1.5939188
-4.0537128 -3.5601974 1.5792867
-4.0640512 -3.5608089 1.5860713
-4.0473037 -3.568773 1.5838189
-4.0391707 -3.5800996 1.5937241
-4.03441 -3.5902555 1.5942248
-4.030602 -3.5890827 1.5807149
-4.03197 -3.593236 1.5889276
-4.0317068 -3.6066899 1.575406
-4.0137992 -3.6036162 1.5835308
-4.0091429 -3.6171169 1.5927734
-4.0044317 -3.6263449 1.5849102
-4.0143447 -3.6308956 1.5821147
-3.9974651 -3.6236916 1.5770273
-4.1458516 -3.7635555 1.5353596
-4.1411214 -3.7736659 1.5401133
-4.1358829 -3.7849844 1.5316912
-4.124146 -3.7826946 1.52476
-4.1241889 -3.7851734 1.5300122
-4.1177449 -3.7947843 1.5239683
-4.103168 -3.8047864 1.5300468
-4.0993404 -3.8151326 1.5325135
-4.1033683 -3.8204548 1.5360385
-4.0901837 -3.8139684 1.5323696
-4.0820785 -3.8179259 1.5246323
-4.0847139 -3.822422 1.5325718
-4.0825877 -3.826956 1.5349728
-4.0688753 -3.8450377 1.525436
-4.0620866 -3.8484547 1.5391856
-4.0500374 -3.8507283 1.5290821
-4.0440245 -3.8637338 1.5347267
-4.0519252 -3.8582287 1.5357683
-4.0373511 -3.862076 1.5372231
-4.0392442 -3.8780713 1.5308923
-4.0247984 -3.8713019 1.5263245
-4.0180821 -3.8925166 1.5429738
-4.0234179 -3.8969615 1.5407945
-4.0063453 -3.8930588 1.5262316
-3.9988015 -3.9077399 1.5339425
-3.9975004 -3.9157522 1.5250627
-4.0062947 -3.92314 1.5288531
-4.1274495 -4.0593228 1.4728975
-4.1293526 -4.0510302 1.4896742
-4.1097932 -4.0700426 1.4761084
-4.1165566 -4.0800281 1.4749573
-4.1078796 -4.0687251 1.4782294
-4.1025453 -4.0881934 1.4826866
-4.0993824 -4.0960321 1.4766691
-4.0907741 -4.1017785 1.4815854
