# .PCD v0.7 - Point Cloud Data file format
VERSION 0.7
FIELDS x y z
SIZE 4 4 4
TYPE F F F
COUNT 1 1 1
WIDTH 1570
HEIGHT 1
VIEWPOINT 0 0 0 1 0 0 0
POINTS 1570
DATA ascii
3.5876265 4.1386156 1.7414395
3.5675855 4.1299772 1.7504283
3.5684974 4.1472206 1.7452115
3.5658762 4.1487193 1.7480987
3.5620208 4.1531305 1.7493905
3.5418179 4.1676202 1.7383076
3.5479491 4.1670585 1.7473247
3.5361059 4.16787 1.739177
3.5375071 4.1716604 1.7416129
3.5260975 4.1724286 1.7391189
3.6465926 4.3238592 1.6882843
3.6488235 4.3321185 1.6890748
3.6400366 4.3470497 1.7021359
3.6260254 4.3451271 1.6917309
3.6148946 4.3451233 1.7007805
3.6250484 4.350698 1.6993717
3.6041124 4.3681912 1.6924608
3.6121862 4.3596363 1.701429
3.5921056 4.378284 1.6892631
3.5944538 4.3713312 1.6929497
3.594301 4.3852515 1.6940999
3.7116835 4.5384011 1.6531905
3.7065055 4.5380054 1.6473902
3.6943817 4.549643 1.6546094
3.6918457 4.556201 1.6567754
3.6783521 4.5589714 1.6594747
3.6634424 4.5668707 1.654635
3.6616149 4.5689168 1.6562163
3.6687484 4.5769615 1.6514299
3.6437087 4.5734406 1.6546836
3.6423488 4.5758605 1.6468592
3.6421318 4.59863 1.6562268
3.7470422 4.7553811 1.6148014
3.745132 4.7536612 1.605113
3.7504334 4.7557373 1.6168473
3.7378938 4.7706594 1.606225
3.7280462 4.7770185 1.5983844
3.7133515 4.7679038 1.6074809
3.7202311 4.7722831 1.599522
3.7023168 4.7779908 1.602951
3.707649 4.7887135 1.6037178
-3.9128242 3.8013051 1.7379128
-3.9045815 3.7980852 1.7352215
-3.9125125 3.7995665 1.7455864
-3.9101241 3.7929685 1.7528129
-3.9159939 3.780457 1.7497561
-3.9324784 3.7847314 1.7478622
-3.9367957 3.780952 1.7516665
-3.9320087 3.7707 1.7346727
-3.955173 3.7691891 1.7382182
-3.9549007 3.7596729 1.7473274
-3.9538538 3.7543271 1.7481749
-3.9543362 3.7425191 1.7512695
-3.8154969 3.6146977 1.7865639
-3.828104 3.6081131 1.7954984
-3.833477 3.6009309 1.7974106
-3.8418994 3.6025293 1.7890939
-3.8522081 3.5850677 1.7825017
-3.858705 3.5776424 1.7911689
-3.8621883 3.5722947 1.7838438
-3.8621185 3.5724533 1.7925285
-3.872932 3.5588853 1.7814008
-3.8628902 3.5700538 1.7840059
-3.8697464 3.5632675 1.7977074
-3.8865447 3.5488913 1.7901813
-3.8744009 3.5541515 1.7808368
-3.7359352 3.405221 1.8237057
-3.7499983 3.4019489 1.8292466
-3.7506461 3.3971672 1.8327471
-3.7626195 3.3938823 1.8362916
-3.7619104 3.3956397 1.8253934
-3.7725096 3.3915484 1.826333
-3.7742288 3.3824563 1.8238536
-3.7733357 3.3714573 1.8400073
-3.7787337 3.3686028 1.8272113
-3.7916505 3.3628263 1.8251089
-3.7939043 3.356041 1.830287
-3.7985258 3.3599293 1.8374383
-3.7975988 3.3478997 1.82506
-3.813164 3.348619 1.8346554
-3.8051772 3.3347621 1.8312733
-3.6609721 3.2072961 1.8743157
-3.662751 3.1907346 1.8883003
-3.667002 3.1997592 1.8765711
-3.675092 3.1880722 1.8872786
-3.675971 3.1881466 1.8775078
-3.698945 3.1706383 1.886256
-3.696734 3.1731722 1.8842037
-3.7073643 3.1612895 1.8754392
-3.7103655 3.1584902 1.8727182
-3.7037642 3.1483192 1.8814712
-3.7205379 3.1598783 1.8758131
-3.7195058 3.1541071 1.8787316
-3.7244818 3.148526 1.8758192
-3.7211797 3.1392887 1.8863701
-3.7271628 3.1335993 1.8821518
-3.7429097 3.1293554 1.8855883
-3.5799756 2.987335 1.9219717
-3.5888383 2.9836993 1.9264034
-3.6064582 2.9814603 1.9332173
-3.6067922 2.9902136 1.9150476
-3.5983665 2.9665773 1.9336307
-3.6155915 2.9683495 1.9316422
-3.6098909 2.9695151 1.9292784
-3.6270957 2.9583447 1.9228892
-3.6137426 2.9455459 1.9160289
-3.6246006 2.9413478 1.9301487
-3.6320152 2.9544988 1.9318786
-3.628283 2.9429462 1.9149995
-3.6401122 2.9379261 1.9209141
-3.6451204 2.9367173 1.9206203
-3.6482911 2.9280727 1.9217345
-3.6528714 2.9263341 1.9296708
-3.6594334 2.9144204 1.9238285
-3.4955163 2.7886121 1.9771211
-3.5106483 2.7812872 1.9774383
-3.5126338 2.7872076 1.9786304
-3.5204926 2.7698097 1.9780521
-3.5266147 2.7602332 1.971006
-3.529609 2.7629092 1.9640298
-3.5266817 2.764652 1.9609407
-3.5240414 2.747292 1.9743085
-3.5402799 2.7494123 1.971045
-3.5485754 2.7490244 1.9609808
-3.5427063 2.7437642 1.9710336
-3.5487812 2.7272427 1.9786724
-3.5545323 2.7325995 1.9771478
-3.5590842 2.7339549 1.9631469
-3.5642076 2.7130382 1.9644963
-3.55637 2.7129705 1.9734539
-3.5755017 2.6996665 1.9690921
-3.5777154 2.7128325 1.9723135
-3.5665545 2.6935823 1.9626034
-3.57865 2.6898525 1.977459
-3.5808029 2.6958008 1.9720134
-3.592896 2.6794758 1.9750108
-3.597343 2.6811948 1.9683347
-3.5833077 2.6821499 1.9679888
-3.6032662 2.6617627 1.9717066
-3.6018686 2.6729872 1.9603424
-3.6115062 2.6688476 1.9606649
-3.6054983 2.6462541 1.9791493
-3.6162622 2.6585748 1.9633849
-3.6167293 2.6425462 1.9688973
-3.6223335 2.648104 1.9653699
-3.6133761 2.6253014 1.9705346
-3.6214147 2.6217768 1.9624404
-3.636122 2.6160057 1.9603287
-3.6311679 2.6139874 1.9628626
-3.642489 2.6170712 1.961659
-3.6451674 2.6142147 1.9613584
-3.647516 2.6010559 1.9635127
-3.6513731 2.6008167 1.9630408
-3.6509876 2.5837865 1.971599
-3.6450825 2.5848212 1.9707787
-3.6626976 2.5784752 1.9722242
-3.6551409 2.5877457 1.9752191
-3.6556714 2.5659566 1.9775219
-3.6783061 2.5727625 1.9628905
-3.6784 2.5718808 1.976432
-3.6796901 2.5519474 1.972211
-3.6812737 2.5532846 1.9599308
-3.680696 2.5543771 1.9725155
-3.6805828 2.5394604 1.9731795
-3.6919041 2.5340471 1.9599925
-3.6840386 2.5346098 1.965579
-3.6947205 2.5263128 1.9655604
-3.7024002 2.5210621 1.9688823
-3.7077696 2.516746 1.9641443
-3.7077634 2.5158985 1.9636642
-3.7142084 2.4973159 1.968395
-3.7248671 2.5006979 1.9596125
-3.7277989 2.4881983 1.9770769
-3.7181387 2.4993458 1.9647838
-3.7278073 2.4826982 1.9722418
-3.7306554 2.4774354 1.9654313
-3.7279098 2.4650028 1.975498
-3.7451754 2.4683955 1.9654928
-3.7391119 2.4699161 1.9763554
-3.7377791 2.4549334 1.9715594
-3.7369192 2.4569888 1.9733744
-3.7513211 2.4518614 1.9637697
-3.754498 2.4472706 1.9668689
-3.7602034 2.4358017 1.9663237
-3.7581944 2.4381182 1.9743441
-3.7687201 2.4210334 1.9623194
-3.7660491 2.4301341 1.9630848
-3.773304 2.425401 1.9724704
-3.7705567 2.4101565 1.9686089
-3.7769392 2.3996625 1.9750017
-3.7881105 2.3934391 1.9686916
-3.7774594 2.3962166 1.9625006
-3.7764056 2.3992128 1.9769703
-3.7922451 2.3798923 1.965227
-3.7886224 2.3859618 1.961061
-3.796972 2.3648791 1.9650759
-3.7973387 2.3698339 1.9634615
-3.7969327 2.3708932 1.962389
-3.8071337 2.3580513 1.9713517
-3.8011887 2.3621712 1.9751047
-3.8088436 2.3384569 1.9779232
-3.8228011 2.3487232 1.9688128
-3.822942 2.3433654 1.9679972
-3.8286059 2.3254831 1.9731637
-3.8260055 2.3345308 1.9697073
-3.8275638 2.3185289 1.9704804
-3.8250995 2.3054528 1.9615252
-3.8442421 2.3160682 1.9789505
-3.84445 2.2997601 1.96886
-3.8356874 2.2926672 1.9682199
-3.8431644 2.3011825 1.9692006
-3.8478153 2.2789958 1.9657873
-3.8415692 2.279916 1.9623605
-3.8561311 2.2784131 1.9664
-3.865519 2.2627435 1.9648405
-3.8583558 2.2687414 1.9726371
-3.8704119 2.2604215 1.9727198
-3.8714156 2.2561698 1.9687845
-3.8749864 2.2549136 1.9739124
-3.8686404 2.2456155 1.9773233
-3.8829267 2.2320287 1.9746295
-3.8762248 2.2369716 1.9751338
-3.8729286 2.2313337 1.9619474
-3.8930516 2.2142997 1.9726516
-3.8891275 2.211036 1.9730841
-3.8867552 2.218086 1.9649168
-3.8965788 2.2162232 1.9738367
-3.9063122 2.196492 1.9639158
-3.8999732 2.1963179 1.9781543
-3.9084988 2.1856105 1.9685147
-3.9136057 2.1837296 1.9707124
-3.9013987 2.1716559 1.9632816
-3.9086797 2.165976 1.975646
-3.9091396 2.1632633 1.9764136
-3.9188879 2.1675572 1.9793591
-3.9281957 2.1572986 1.9748006
-3.9256632 2.1602836 1.9738293
-3.9342031 2.156595 1.9785813
-3.9326563 2.1422977 1.968618
-3.9368632 2.1425195 1.9734102
-3.9307022 2.1206713 1.9617889
-3.9423356 2.1340592 1.9635652
-3.9413922 2.1231878 1.9651375
-3.9480767 2.1148705 1.9694771
-3.9539859 2.0998118 1.9635947
-3.9569418 2.0984437 1.972942
-3.9644487 2.1025991 1.9707668
-3.952919 2.1011982 1.9703997
-3.9566295 2.0843198 1.9612364
-3.9702957 2.0862026 1.9777997
-3.9591618 2.0772069 1.9780239
-3.9596417 2.0795305 1.9771495
-3.9783373 2.0657423 1.9709212
-3.9754529 2.0682073 1.9618971
-3.9682212 2.0476925 1.9633399
-3.9868641 2.0471437 1.9689442
-3.9761519 2.0420027 1.9642379
-3.9876072 2.0312974 1.9636685
-3.9794216 2.0397806 1.9717627
-4.000392 2.0174887 1.9672856
-4.0047908 2.0292139 1.979363
-3.9889576 2.023335 1.9793178
-3.9939911 2.0016282 1.9710426
-4.0052452 2.005666 1.9707944
-4.0055151 1.9997876 1.9755976
-4.0043349 1.998111 1.965422
-4.0175424 1.9899833 1.9756794
-4.0154481 1.9732294 1.9608096
-4.0139155 1.9674823 1.9600049
-4.024281 1.9635787 1.962494
-4.0191159 1.9580816 1.9622983
-4.0218654 1.9512156 1.9618173
-4.024652 1.9421061 1.9652271
-4.0357065 1.944525 1.9782763
-4.0270009 1.9494481 1.9710524
-4.033484 1.9383181 1.9677613
-4.0301352 1.9367396 1.9619557
-4.036521 1.9200062 1.9650131
-4.0377684 1.9275483 1.9679444
-4.039813 1.9074602 1.9725965
-4.0593605 1.9152651 1.97738
-4.0590959 1.9030399 1.9609299
-4.0593038 1.8907397 1.9610064
-4.0560946 1.8900893 1.9691416
-4.0598278 1.8808405 1.9678437
-4.0707774 1.8877966 1.9610631
-4.0650101 1.8807819 1.9783552
-4.0650401 1.8700539 1.9645686
-4.062005 1.8607427 1.9639829
-4.0760307 1.8520436 1.9689715
-4.0853963 1.8464459 1.9674309
-4.0699706 1.8437537 1.979335
-4.0709867 1.8434861 1.9646122
-4.0919185 1.8290529 1.9749163
-4.0847073 1.8335034 1.9616524
-4.0787854 1.8296136 1.9610291
-4.0996366 1.8140923 1.979079
-4.103188 1.8011341 1.9720926
-4.1005173 1.8137964 1.9614905
-4.0984249 1.7950104 1.9678881
-4.0913353 1.7894284 1.9743906
-4.1057787 1.7818336 1.9639071
-4.1083102 1.7757763 1.9788656
-4.105556 1.7713329 1.9651042
-4.1124897 1.7766384 1.9615102
-4.1126795 1.770395 1.9597466
-4.1134844 1.7658222 1.9681857
-4.1162314 1.7602119 1.9693941
-4.1259565 1.7397778 1.9689957
-4.126276 1.743934 1.9755456
-4.1201897 1.7376693 1.9622514
-4.127593 1.719443 1.967104
-4.1254716 1.7211591 1.971644
-4.1283836 1.7080951 1.9774889
-4.1250491 1.710555 1.974391
-4.1453004 1.7152747 1.9708049
-4.1473074 1.7016311 1.9684047
-4.1408668 1.687674 1.9661561
-4.1532102 1.6864172 1.9692389
-4.1459436 1.6872584 1.9622467
-4.1521192 1.6765954 1.9747618
-4.1515803 1.6809307 1.9748262
-4.1461811 1.6697806 1.9623857
-4.1562338 1.6581038 1.9626633
-4.1604338 1.6521389 1.9711862
-4.1677232 1.6482919 1.9702178
-4.1585908 1.644799 1.9613979
-4.1718502 1.6300995 1.9644164
-4.1673503 1.6254019 1.9719769
-4.159759 1.6303076 1.9661806
-4.179152 1.6113665 1.9755266
-4.1660218 1.6152848 1.9750165
-4.1728191 1.6069148 1.9691679
-4.1720486 1.6107966 1.9774578
-4.1709924 1.5927749 1.9656008
-4.3637104 1.6584383 1.9304743
-4.3751793 1.6465735 1.9229234
-4.3754592 1.643721 1.9265009
-4.3727121 1.6476322 1.9312117
-4.3823962 1.6413901 1.9266622
-4.3778682 1.6180023 1.9290091
-4.383985 1.6299841 1.9211146
-4.390604 1.6173999 1.9306936
-4.3830628 1.6078092 1.930001
-4.3872228 1.6014894 1.9171365
-4.3832316 1.6069635 1.9271021
-4.3891144 1.5832633 1.9313133
-4.3825393 1.5815687 1.9187856
-4.3923783 1.5848985 1.9162861
-4.3974981 1.5808128 1.9336646
-4.4071584 1.5635157 1.9337785
-4.3944635 1.5623529 1.9320008
-4.4096541 1.5568144 1.9237683
-4.4152575 1.5410519 1.9320778
-4.4015446 1.5433549 1.9202033
-4.4006877 1.5318666 1.9199419
-4.4098568 1.5367043 1.9221222
-4.4148059 1.5303174 1.9287533
-4.4122744 1.5162833 1.924862
-4.4122334 1.5193129 1.9230363
-4.4148054 1.4948565 1.9300679
-4.6019325 1.5672855 1.8768499
-4.6062374 1.5443988 1.8694978
-4.6187658 1.5380573 1.8725464
-4.6229758 1.5475689 1.8840643
-4.619051 1.5400689 1.8702633
-4.6153789 1.5255226 1.8874723
-4.6295171 1.5281415 1.8844696
-4.6170158 1.5153979 1.8736111
-4.628396 1.5047922 1.8719633
-4.6215935 1.4937031 1.872043
-4.6277499 1.5022444 1.8887143
-4.6218715 1.4886383 1.8689467
-4.6233363 1.4846524 1.8692884
-4.6417432 1.4785963 1.8855954
-4.628623 1.4785954 1.8808593
-4.6292953 1.4643884 1.8880366
-4.6327491 1.4581555 1.8842956
-4.6391969 1.446528 1.8742766
-4.6364937 1.4456143 1.8801205
-4.6554294 1.4335892 1.8813469
-4.6542764 1.4374839 1.877589
-4.6564431 1.4293245 1.8867023
-4.6583681 1.4217589 1.87831
-4.8465166 1.4738988 1.8251005
-4.8518529 1.4648755 1.8436202
-4.8419156 1.4572114 1.8344216
-4.8447919 1.4481156 1.8254819
-4.8513994 1.4345853 1.8314089
-4.8480167 1.4257622 1.8429197
-4.8587804 1.4199983 1.8289052
-4.8483086 1.4173734 1.8252884
-4.8615851 1.414559 1.8400177
-4.8657389 1.4117872 1.8336898
-4.8582749 1.4093999 1.8299499
-4.8587675 1.3837041 1.823961
-4.8607306 1.3899635 1.8370854
-4.8718829 1.3753556 1.8278939
-4.8719659 1.3761394 1.831955
-4.8661118 1.362296 1.8339787
-4.8687372 1.3596692 1.8370267
-4.8653679 1.3494854 1.8242412
-4.8856063 1.3479868 1.835435
-4.8711052 1.3442866 1.8306538
-4.8829226 1.3299925 1.8302846
-4.8784709 1.3171391 1.8310217
-5.0682058 1.3745527 1.7795789
-5.0766692 1.3521587 1.7855798
-5.0743141 1.3515866 1.7791747
-5.0678883 1.3387636 1.7857387
-5.0794287 1.3452002 1.7964915
-5.0879111 1.3368824 1.7838786
-5.089169 1.3301929 1.7965877
7.0110431 -4.9329233 1.0174198
7.0206413 -4.9160581 1.0219269
7.0332937 -4.9153404 1.0280433
7.0353742 -4.902144 1.0230688
7.0439029 -4.8976064 1.0107409
7.0541172 -4.8773932 1.0098329
7.0476718 -4.8683572 1.0279672
7.0587983 -4.8546653 1.0262084
7.0768423 -4.8569717 1.0269063
7.0804591 -4.8537107 1.019071
7.0845714 -4.8364334 1.0284225
7.0794811 -4.816442 1.0248557
7.0988846 -4.8106685 1.0122136
7.1043906 -4.8096714 1.0229651
7.104908 -4.7869892 1.028442
7.1130838 -4.7809219 1.0243101
7.120338 -4.7681165 1.0193831
7.1257124 -4.7709861 1.018307
7.1293139 -4.7626004 1.0250742
7.1335998 -4.7373729 1.0252424
7.1500363 -4.7347937 1.0128188
7.1558104 -4.724052 1.0105081
7.1580043 -4.7206402 1.0240827
7.1675415 -4.698442 1.0287564
7.0049691 -4.5955033 1.0714494
7.0105577 -4.5782371 1.0650494
7.032001 -4.5603952 1.0615294
7.0285034 -4.5638433 1.0652045
7.0439162 -4.5503402 1.0673213
7.0460825 -4.5391884 1.064712
7.0484033 -4.5382223 1.054719
7.0582867 -4.5180917 1.0654957
7.0658455 -4.5023623 1.069703
7.0669651 -4.5036769 1.0661178
7.0727448 -4.4912834 1.0685426
7.0759597 -4.4797058 1.0584524
7.092761 -4.4730749 1.0564137
7.0860286 -4.4563189 1.0611275
7.1029572 -4.4505134 1.0695363
7.1019888 -4.4488907 1.0592799
7.1183972 -4.431283 1.0601634
7.1247988 -4.4301143 1.0713429
7.1219635 -4.4076948 1.0684081
7.1233215 -4.4104505 1.0743064
7.1410804 -4.3937073 1.0627367
7.1412501 -4.3800163 1.0728749
7.1513157 -4.3757772 1.0597647
7.1593289 -4.3645105 1.0735234
7.1720419 -4.3425412 1.0631914
7.1731496 -4.3477516 1.0645771
7.1839871 -4.322752 1.0736567
7.0089321 -4.2168198 1.1192268
7.0116644 -4.2008419 1.1120415
7.0314479 -4.2096629 1.1121612
7.0371161 -4.1868677 1.119076
7.0312009 -4.190032 1.1097252
7.0354099 -4.1692462 1.114648
7.0464954 -4.1665483 1.1008637
7.0513258 -4.1572247 1.1190667
7.0658102 -4.1328669 1.1020683
7.061667 -4.1237311 1.1000702
7.0665894 -4.1289344 1.1132815
7.0718241 -4.1172962 1.1126876
7.08986 -4.1117525 1.1134814
7.0880017 -4.0864043 1.1072704
7.0930443 -4.0728216 1.1080872
7.1087222 -4.0808663 1.0998741
7.1093092 -4.0636482 1.1045347
7.1160979 -4.0474086 1.1086864
7.1210761 -4.04248 1.1073555
7.1290417 -4.0274768 1.1053115
7.1349959 -4.013319 1.1082081
7.1341472 -4.0196805 1.1128777
7.1326904 -3.993747 1.1132187
7.1520138 -3.9953983 1.1090269
7.145112 -3.9777198 1.1085293
7.1590133 -3.9700625 1.1100905
7.1646876 -3.9675035 1.1189651
7.1750088 -3.9438272 1.1141666
7.1694674 -3.9408302 1.104376
7.1825809 -3.9355116 1.1196604
7.0228043 -3.8362253 1.1644102
7.0166121 -3.817286 1.1476103
7.0150757 -3.8054061 1.1467923
7.0338669 -3.7997911 1.154363
7.0284524 -3.7866526 1.1496446
7.0425267 -3.7851732 1.162608
7.0381484 -3.7635665 1.1481473
7.0426316 -3.7571719 1.1473721
7.0623016 -3.7418375 1.159595
7.0521679 -3.7388942 1.1471304
7.0573049 -3.7303863 1.1502944
7.0819335 -3.7134171 1.1626145
7.0697489 -3.7033169 1.157024
7.0767322 -3.6997447 1.1472507
7.0912724 -3.6868927 1.1608104
7.1010809 -3.6852582 1.1460365
7.1038384 -3.6732798 1.163049
7.1121216 -3.6620834 1.1566287
7.0996161 -3.6564672 1.1557078
7.119319 -3.6462219 1.1478879
7.126544 -3.6360633 1.1587263
7.116919 -3.6264856 1.1566772
7.1195998 -3.6142883 1.1548641
7.1366768 -3.6002896 1.1467516
7.1439662 -3.5969191 1.1616126
7.1448016 -3.5888948 1.1482224
7.1508493 -3.5632536 1.1569175
7.1538954 -3.5544562 1.1469088
7.1505075 -3.5432775 1.1526088
7.1661849 -3.5374951 1.1586394
7.1740279 -3.5295732 1.1649071
7.1726956 -3.5163484 1.1508238
7.1693006 -3.5054998 1.1590019
7.1840782 -3.5026188 1.1512357
7.015645 -3.4120467 1.2021341
7.017024 -3.3913312 1.2058558
7.0249996 -3.389571 1.2052548
7.021656 -3.3697529 1.2034804
7.0282903 -3.3582976 1.2029065
7.0406103 -3.3561261 1.1981304
7.0389481 -3.3510578 1.1912841
7.0435395 -3.3322549 1.2076643
7.0540338 -3.3217659 1.2048872
7.0526924 -3.3214047 1.1949788
7.0635715 -3.299283 1.2001919
7.060091 -3.3005404 1.1963387
7.0603185 -3.2985671 1.2044575
7.0799308 -3.2846677 1.2025995
7.0777555 -3.2688513 1.2023953
7.0749922 -3.2654176 1.1945548
7.0874391 -3.2483363 1.2019678
7.0930262 -3.2313395 1.1983628
7.0949793 -3.2285106 1.1954188
7.0941415 -3.2116714 1.2030021
7.1033816 -3.2085884 1.2028662
7.1178212 -3.1936069 1.1916257
7.1083932 -3.1830053 1.1925051
7.1270709 -3.1773849 1.1974238
7.1238761 -3.1785195 1.2082926
7.1204634 -3.1669836 1.1927221
7.1291966 -3.1475532 1.2043538
7.1453285 -3.1470745 1.2030967
7.1378422 -3.1291671 1.1947767
7.1473975 -3.1166086 1.1933975
7.1445222 -3.1193073 1.2051967
7.1614971 -3.0920496 1.2020668
7.1672173 -3.0986896 1.1996212
7.1538033 -3.0711076 1.192873
7.1652942 -3.0711622 1.1950605
7.1676397 -3.0590575 1.1988482
7.1744008 -3.042634 1.1921246
7.1727796 -3.0344784 1.1959317
7.189887 -3.0381963 1.2076918
7.1986609 -3.0167313 1.20205
7.1860414 -3.0025003 1.2037433
7.2052069 -2.9956391 1.2027216
7.2012286 -2.9873884 1.2050815
7.3946857 -3.0516407 1.1597947
7.3815899 -3.0536821 1.1497065
7.3906674 -3.0376668 1.1617265
7.4035177 -3.0191655 1.1601673
7.4096308 -3.0065463 1.156755
7.3995357 -3.0010664 1.1596104
7.4011869 -2.991046 1.1539103
7.5977983 -3.0508747 1.1071708
7.5955734 -3.0424802 1.1025043
7.6123123 -3.0422549 1.1160504
7.6113963 -3.0326443 1.1100721
7.6104226 -3.0203967 1.1117516
7.6193461 -3.0033247 1.1191392
7.6202745 -2.9976406 1.1147153
7.8009505 -3.0613098 1.0673476
7.816977 -3.0477884 1.0603791
7.8158441 -3.0368114 1.0731003
7.8289952 -3.0140202 1.0686667
7.8206358 -3.0177219 1.0620332
7.8275948 -2.9889381 1.0650245
8.0099964 -3.0550294 1.0217758
8.0245905 -3.0563436 1.0254062
8.0208473 -3.0329435 1.0154902
8.024477 -3.032809 1.0206342
8.0236664 -3.0174992 1.0227208
8.0407171 -3.0104268 1.0274397
8.0307827 -2.9887359 1.0122406
8.2361403 -3.0460663 0.98368782
8.2345572 -3.0277798 0.96577024
8.226325 -3.0267372 0.96572375
8.2410679 -3.0093925 0.97838777
8.2377901 -3.0017238 0.97855896
8.4211807 -3.0487146 0.92570186
8.4316778 -3.049396 0.92703271
8.4473028 -3.0351102 0.93247694
8.4449978 -3.027981 0.93379152
8.4473953 -3.014977 0.92558867
8.4545774 -3.0033767 0.93678069
8.6420412 -3.0427411 0.88954043
8.6480541 -3.0291932 0.87710589
8.6540051 -3.0251248 0.89052945
8.6526022 -3.0085411 0.8801291
8.6513538 -2.9958112 0.87790239
8.6624746 -2.9968517 0.88323432
8.839057 -3.0501049 0.84584212
8.857008 -3.0260537 0.82905138
8.8562574 -3.0238233 0.83348709
8.8672857 -2.9986124 0.83773941
8.8694897 -2.9937301 0.83596492
9.054265 -3.0493934 0.79044276
9.0620899 -3.020792 0.80217516
9.0633202 -3.0178192 0.79842782
9.0741329 -3.0003037 0.79534066
9.0627022 -2.9958589 0.79913783
9.2616005 -3.044163 0.7559433
9.263402 -3.0374949 0.74969953
9.2683954 -3.0158076 0.75333613
9.2778063 -3.0073042 0.74982762
9.4568052 -3.0407674 0.69359553
9.4687405 -3.0379846 0.69687593
9.4803801 -3.0316246 0.69612622
9.4837332 -3.0082633 0.70571214
9.4833212 -2.9983015 0.70017028
9.6655712 -3.0426455 0.66118026
9.6659126 -3.0183446 0.64748454
9.6882858 -3.0164859 0.64753771
9.6843967 -2.9938602 0.65635312
9.8702173 -3.0436733 0.61549711
9.8864985 -3.0261304 0.61346012
9.8717718 -3.0209069 0.62100428
9.8803062 -3.0082812 0.62170106
10.074484 -3.0531218 0.56730175
10.071895 -3.0257139 0.57488894
10.083745 -3.0260057 0.56358677
10.081829 -3.0102005 0.56309521
10.086198 -2.9962482 0.57096601
10.277402 -3.0256917 0.52271628
10.290677 -3.0240362 0.51403069
10.288321 -3.0103498 0.52911425
10.490938 -3.0501359 0.47039762
10.494124 -3.030822 0.47576508
10.497987 -3.0079346 0.47910142
10.492673 -2.9918878 0.47578803
10.68226 -3.0416932 0.43287522
10.693265 -3.0238955 0.43694225
10.703757 -3.0059221 0.44088602
10.702101 -2.9877195 0.43660355
10.885046 -3.0328956 0.39438459
10.891728 -3.0119543 0.37674221
10.893474 -2.9996176 0.37946951
5.1070013 2.453109 1.7392608
5.1042142 2.4619515 1.7380701
5.0975986 2.4783714 1.7375962
5.1002116 2.4691124 1.7484872
5.1031675 2.4911268 1.7396975
5.0989914 2.4850988 1.7426841
5.0846667 2.505538 1.7375544
5.0839968 2.4966218 1.7367406
5.0784369 2.5056815 1.7386783
5.0874505 2.5181921 1.7361231
5.080842 2.5286982 1.7440912
5.0673351 2.5398312 1.7337785
5.0726275 2.5477724 1.7327671
5.077436 2.5417604 1.735383
5.0731263 2.5621483 1.7329044
5.0600162 2.5618134 1.7372937
5.0498834 2.5706177 1.7350228
5.0546112 2.5822256 1.7367413
5.0585151 2.5917571 1.7404299
4.8706598 2.5048418 1.7733634
4.8740506 2.5035322 1.7859042
4.8654003 2.5122287 1.7825031
4.8664279 2.5297408 1.7799731
4.8664346 2.5355947 1.7843661
4.8490477 2.5406811 1.7820868
4.8491731 2.5362105 1.7924175
4.8536782 2.5451691 1.7845025
4.8359027 2.5624278 1.7811499
4.8398366 2.5671723 1.7802887
4.8474493 2.5613406 1.7744306
4.8441672 2.5823772 1.7804754
4.8334165 2.5782504 1.7884337
4.8192554 2.5786474 1.7871262
4.8225551 2.6025565 1.7848995
4.8102384 2.5925941 1.780991
4.8156328 2.6062813 1.7858484
4.8113484 2.6080077 1.7929064
4.79914 2.6155019 1.7904696
4.8035693 2.6304827 1.7860291
4.8071284 2.6366386 1.7890133
4.8048201 2.6430843 1.7862957
4.7885466 2.6423602 1.7927177
4.8002224 2.6510653 1.7928083
4.7905817 2.6666701 1.7900846
4.6082277 2.5786061 1.8344991
4.612566 2.5742779 1.8220686
4.6017523 2.589294 1.8246561
4.5979877 2.5957384 1.8280349
4.5917778 2.5902593 1.8196963
4.6011181 2.611995 1.8308207
4.5934334 2.6150877 1.8217027
4.5830226 2.625582 1.8251781
4.5790248 2.6314363 1.8306811
4.5751085 2.6313429 1.8251163
4.5684595 2.6430752 1.8197809
4.5823975 2.6427248 1.8236935
4.5638957 2.655149 1.8362027
4.5679731 2.6474056 1.8287425
4.5554199 2.6570582 1.8293941
4.5545192 2.679666 1.8253773
4.544734 2.6782134 1.8180544
4.5458226 2.6899824 1.834832
4.5503774 2.6813953 1.8310748
4.5404263 2.6925428 1.8208407
4.5449014 2.7007008 1.8359604
4.5440321 2.706465 1.8243561
4.5270672 2.7174051 1.8188075
4.5226021 2.7161083 1.8191525
4.5306683 2.7259536 1.8227921
4.5193772 2.7386022 1.8226866
4.5240607 2.7451785 1.8347808
4.5214124 2.7365646 1.8323015
4.3488979 2.6546845 1.8787171
4.3393941 2.6479115 1.8661288
4.3396482 2.6693618 1.8753719
4.3350134 2.6737003 1.8640577
4.3187661 2.6648395 1.8773673
4.3169613 2.6752887 1.8630691
4.3154936 2.6775875 1.8723103
4.3176565 2.6923876 1.8678997
4.319706 2.6956723 1.8637702
4.3138409 2.7001185 1.8647372
4.3054886 2.7025037 1.8790908
4.2997241 2.7190709 1.8806247
4.3013635 2.7195859 1.8775675
4.2922373 2.7191684 1.8728125
4.2917881 2.7262142 1.8731657
4.2846408 2.7351744 1.8779422
4.2831864 2.7463944 1.8789968
4.2709656 2.7435133 1.8688363
4.2743254 2.7664258 1.87595
4.2735476 2.767226 1.8615049
4.2737284 2.7634349 1.8634454
4.2682543 2.7776487 1.8759587
4.2643061 2.7772794 1.8629978
4.2572923 2.7915699 1.8636355
4.2455149 2.7892063 1.8653405
4.2540832 2.8034976 1.8700324
4.2474194 2.8001459 1.8799762
4.2418017 2.8083925 1.8610762
4.2260156 2.8238268 1.8791316
4.2373347 2.8223193 1.8720353
4.2342005 2.8248365 1.8752012
4.2329988 2.8257327 1.8666399
4.0623689 2.7376487 1.9155924
4.0608549 2.7350867 1.9090862
4.0599713 2.7446253 1.9142913
4.0407844 2.7466178 1.9078681
4.0462818 2.7458403 1.9121792
4.0417151 2.7633481 1.9188284
4.0382404 2.76898 1.9150084
4.0328131 2.76985 1.9237833
4.0202818 2.7715127 1.9091833
4.0309086 2.7759092 1.9095926
4.0129666 2.795552 1.9049293
4.0201502 2.7974808 1.9120543
4.0208192 2.8023331 1.9230734
4.0066862 2.8118141 1.9104459
4.0061216 2.8106151 1.9114074
4.009861 2.8086805 1.9242482
4.0002413 2.8271098 1.9170979
3.986794 2.8239589 1.9051999
3.9821136 2.8321309 1.9093525
3.9828258 2.8347921 1.9122945
3.9839394 2.8433812 1.9092782
3.980382 2.8430314 1.9225945
3.9639416 2.8472369 1.9151726
3.9785128 2.8612025 1.9116462
3.9604487 2.858505 1.9213414
3.9633386 2.8634555 1.9235276
3.9590614 2.8827033 1.9185743
3.9476264 2.8924284 1.9049069
3.9442856 2.8814056 1.9138535
3.9450896 2.8950348 1.9199091
3.9488282 2.8937254 1.909007
3.9295425 2.9128141 1.9122138
3.9235656 2.919426 1.9140904
3.9301593 2.9245799 1.9244024
3.933219 2.9156485 1.9064922
3.925966 2.933593 1.9080136
3.7646341 2.8143637 1.9670881
3.7547624 2.824374 1.966561
3.7512157 2.8350532 1.9495085
3.7566085 2.8305535 1.9605888
3.7480495 2.8338175 1.9648685
3.7485812 2.8418286 1.9627517
3.7323124 2.847903 1.9617667
3.7379129 2.8446188 1.9604616
3.7338181 2.8484499 1.9647566
3.731806 2.869091 1.9615335
3.711308 2.8687286 1.950515
3.7260582 2.8824096 1.9642733
3.7202742 2.8764663 1.9634829
3.7174304 2.8798451 1.9529705
3.7056596 2.878602 1.9605052
3.6981616 2.9018347 1.9508396
3.6885393 2.89275 1.9620426
3.6979251 2.9132247 1.964761
3.6859984 2.9135704 1.9661157
3.6783597 2.9158769 1.9629223
3.6874907 2.9216659 1.9541831
3.685596 2.9261928 1.9539466
3.6774523 2.9289303 1.9625942
3.6685112 2.9328263 1.9494537
3.6690507 2.9489608 1.9499089
3.6571176 2.9416134 1.948441
3.6555119 2.9486675 1.9527384
3.6451018 2.9491382 1.9523659
3.6574032 2.9617202 1.9672002
3.6510522 2.9707084 1.9592079
3.6415007 2.9728799 1.9518771
3.643203 2.9772162 1.9639513
3.6246617 2.9774754 1.9536469
3.6347606 2.992867 1.962128
3.6317124 2.9928789 1.9616387
3.6091123 3.0050459 1.9487031
3.6050372 2.9997017 1.9577283
3.6052525 3.00805 1.9621365
3.605088 3.0128088 1.9540448
3.599751 3.0153327 1.9498653
3.6064148 3.0124288 1.962787
3.5857406 3.0153575 1.9549803
3.4479957 2.8980343 2.0061929
3.4292533 2.9005945 2.0039253
3.4389853 2.9042583 1.9966223
3.4282215 2.9094808 1.9964448
3.4245152 2.914794 2.0058877
3.4298277 2.9244955 1.998649
3.4195416 2.9382124 2.0111451
3.4211571 2.9307795 2.0011473
3.3985865 2.9342039 2.0032332
3.408931 2.9411552 2.0032413
3.3914623 2.9437075 2.0067739
3.4013805 2.9515564 2.0080802
3.3890245 2.9531832 2.0082693
3.3893588 2.9680982 2.0089059
3.3895092 2.9633658 2.0100863
3.3790958 2.9680116 1.9962043
3.3814373 2.9864438 2.011281
3.3762684 2.9905701 1.9941723
3.361095 2.9962115 1.9957415
3.368001 2.9962895 1.9995209
3.3549085 3.0029974 2.0011175
3.3453419 3.0037286 2.0058331
3.3570755 3.016216 2.007452
3.3489914 3.0131562 1.9992677
3.3415375 3.0143716 2.0016389
3.3352575 3.0293057 2.0039496
3.335089 3.0307193 1.9999913
3.3299906 3.0311084 1.9954646
3.3277774 3.0404756 2.0118902
3.3271265 3.0409067 2.0037105
3.3102489 3.0524094 1.9975611
3.314961 3.0585167 2.0074716
3.3043828 3.0605347 2.0052032
3.2954166 3.0586526 1.9952152
3.29826 3.0735068 2.0017886
3.3034682 3.0662782 1.9986476
3.2909803 3.0830841 1.9922777
3.294528 3.0790014 2.0016608
3.2735426 3.0769219 1.9957802
3.2689764 3.0784142 2.0057058
3.2762241 3.0872579 2.0025156
3.2773163 3.1050494 2.0008199
3.2683122 3.0965047 1.9965349
3.2570336 3.1032422 2.0057669
3.2557607 3.1170781 2.0052581
3.2610548 3.1203833 1.9929314
3.2432017 3.1154683 1.9928274
3.2389724 3.1183751 2.0040636
3.2441196 3.1245768 2.0086491
3.2433801 3.1304994 2.0101616
3.3725564 3.263907 1.9521396
3.35835 3.286957 1.9511749
3.3624411 3.2853086 1.9571182
3.3622406 3.2966936 1.9652579
3.3512657 3.2911239 1.9626982
3.3397756 3.2951729 1.9589145
3.335952 3.3056993 1.9656929
3.3320181 3.2963338 1.9508611
3.339314 3.3164589 1.9577202
3.3311889 3.3201945 1.9659967
3.3245699 3.3174658 1.9672378
3.3237412 3.3250828 1.966841
3.3219414 3.3213496 1.9601141
3.3060784 3.3419814 1.960097
3.2983487 3.33621 1.9498413
3.308053 3.3435268 1.958972
3.293967 3.3516049 1.9539732
3.4233837 3.4995692 1.9111402
3.421037 3.5003891 1.9076082
3.4255428 3.4976878 1.9231747
3.4183185 3.5129778 1.9113822
3.4123285 3.5120561 1.9225829
3.405935 3.513958 1.9054329
3.3928082 3.5246267 1.9243038
3.3996577 3.5322018 1.9127986
3.3962448 3.5341237 1.9240124
3.3819561 3.5266087 1.9187127
3.3826621 3.5364351 1.9175634
3.3843474 3.5487711 1.912465
3.362494 3.5504758 1.9199027
3.3562007 3.5498259 1.9178748
3.3581085 3.5480621 1.9101764
3.3512104 3.5647879 1.9196379
3.4807422 3.7155244 1.8712138
3.475353 3.7159448 1.8694555
3.4784522 3.7178543 1.8648975
3.4727583 3.7303843 1.8681098
3.4617579 3.7285354 1.8764409
3.4496014 3.733294 1.872407
3.4523399 3.741128 1.8653839
3.4425092 3.7476039 1.8730236
3.450644 3.7409291 1.8742194
3.4310739 3.7523043 1.8674676
3.4409585 3.7645795 1.864538
3.4262311 3.7566257 1.8771826
3.429739 3.7569377 1.8668984
3.4086821 3.7767291 1.8643126
3.5416117 3.9155324 1.8312351
3.5318825 3.9227166 1.8219181
3.5381129 3.9378326 1.8356255
3.517313 3.9283178 1.8310064
3.5241461 3.9321446 1.8349174
3.5121682 3.9416149 1.8254157
3.5134315 3.9461896 1.823409
3.5117586 3.9612637 1.8286752
3.5027235 3.9650791 1.8294873
3.483397 3.9730778 1.8253323
3.4814782 3.9684718 1.8303974
3.4902942 3.9795926 1.8177202
3.4697862 3.9824057 1.8352402
3.4629791 3.9898884 1.8183345
3.5994706 4.1370411 1.7765332
3.5917361 4.150517 1.7831254
3.5744927 4.1507454 1.789404
3.5752356 4.1547971 1.7858766
3.5612378 4.1553168 1.7812918
3.5680454 4.1620207 1.7798406
3.5506909 4.1723218 1.7889261
3.5583944 4.1769624 1.7842827
3.5534139 4.1666255 1.7776107
3.5459466 4.1750183 1.7735872
3.5415666 4.1775217 1.7845296
3.5191977 4.1980467 1.7839503
3.6488519 4.336575 1.7347916
3.6391311 4.3523083 1.7485228
3.6258757 4.3598204 1.7378008
3.6280284 4.3599238 1.7488176
3.6287229 4.3684635 1.7451789
3.6184959 4.3705044 1.7412324
3.6036186 4.3733692 1.7420083
3.602062 4.3745785 1.7462447
3.5964751 4.3772254 1.7480602
3.6018236 4.3833289 1.7454846
3.5865858 4.3994803 1.7470461
3.7091286 4.5433512 1.695447
3.7020566 4.5488009 1.6901128
3.6842558 4.5624647 1.6998241
3.6774645 4.5628915 1.6930256
3.6870272 4.5791669 1.7032272
3.6726363 4.5866475 1.6912611
3.6590142 4.5786614 1.6954801
3.6496215 4.5911846 1.697331
3.6620369 4.59516 1.7002784
3.6518698 4.5900078 1.6943792
3.7642589 4.763485 1.6521497
3.7476449 4.763299 1.6540358
3.7456896 4.7716551 1.6444417
3.7334383 4.7795691 1.6501393
3.7343812 4.7834039 1.6469861
3.7255185 4.7792115 1.646196
3.7246823 4.7877688 1.652311
3.7080581 4.7933116 1.6458496
3.7132773 4.7976561 1.6582729
3.701437 4.7982254 1.6604623
-3.8949625 3.8309617 1.7894167
-3.9097435 3.808717 1.7814956
-3.9226308 3.811147 1.7767068
-3.9251044 3.8079629 1.7746184
-3.9218729 3.7923663 1.7911595
-3.9217868 3.7945588 1.7783129
-3.9424832 3.7825742 1.7888373
-3.9370568 3.7806318 1.7797277
-3.9380841 3.7705822 1.7897946
-3.9466805 3.775373 1.7752728
-3.9530799 3.769105 1.7739589
-3.9619739 3.7533677 1.7758693
-3.816726 3.6162555 1.8295046
-3.8381279 3.6159561 1.8216207
-3.8416107 3.6041772 1.8236313
-3.8485448 3.5977659 1.8333329
-3.8483179 3.5959318 1.8365557
-3.857559 3.6047897 1.8233492
-3.8559024 3.5978789 1.8256139
-3.8641713 3.5876219 1.8181971
-3.8669543 3.5762086 1.8300476
-3.8710439 3.5811365 1.8317034
-3.8732154 3.5744841 1.8355885
-3.8855631 3.5714631 1.8245327
-3.885787 3.5499847 1.827064
-3.8839927 3.5465903 1.8285567
-3.7478461 3.417444 1.877414
-3.7529294 3.4152508 1.8766972
-3.7512119 3.3997102 1.8744632
-3.7672224 3.4008889 1.8673731
-3.7706425 3.4042652 1.8742774
-3.7822044 3.3885252 1.8715241
-3.7721033 3.3755794 1.8675401
-3.77811 3.3752439 1.8659637
-3.7951648 3.3796349 1.8683444
-3.789681 3.3707628 1.8727732
-3.8026969 3.3583298 1.8644943
-3.810667 3.3655581 1.8792764
-3.7993467 3.3592415 1.8637786
-3.8102529 3.3416448 1.8747269
-3.6610658 3.2172139 1.9181445
-3.6719642 3.2142792 1.9072838
-3.6856086 3.2061539 1.9087641
-3.6832297 3.1967232 1.9152029
-3.68242 3.1949315 1.9113327
-3.6992226 3.18331 1.9238976
-3.6915891 3.1833513 1.9093429
-3.6922274 3.1800938 1.9073364
-3.6980762 3.1728208 1.9243398
-3.6994157 3.1592982 1.9090794
-3.7097995 3.152436 1.9228647
-3.7205775 3.1591382 1.9188558
-3.722209 3.156652 1.9118682
-3.7223527 3.1409931 1.9206028
-3.7360506 3.1505854 1.9127048
-3.7336111 3.1278093 1.9183505
-3.588598 3.0122762 1.953028
-3.5879598 3.0055518 1.9658065
-3.5893211 2.9973915 1.9564959
-3.5936718 2.9922972 1.9588526
-3.613276 2.9812174 1.9595432
-3.6190877 2.9837508 1.9521384
-3.6089013 2.9690366 1.9674559
-3.6256955 2.9785552 1.952329
-3.6137478 2.9587452 1.9520149
-3.6296914 2.9657366 1.9541516
-3.639982 2.9520946 1.9508055
-3.6394069 2.9432638 1.9657645
-3.6460464 2.937238 1.9575982
-3.6419892 2.9310207 1.9493787
-3.6555684 2.9293518 1.9551264
-3.6484494 2.9260161 1.94846
-3.6487284 2.9170048 1.9521378
-3.6536827 2.9153306 1.9503983
-3.5206661 2.7887192 1.9977379
-3.5208783 2.7915039 1.9933257
-3.5189469 2.7881081 2.0003529
-3.5203547 2.7693903 2.0036364
-3.5267966 2.7681291 2.0059872
-3.5213978 2.7750139 2.0072196
-3.5442119 2.7724013 2.0118871
-3.5412712 2.7609818 1.9983292
-3.5449901 2.7533512 2.0008759
-3.5450242 2.7448263 2.0068696
-3.5467908 2.7402806 1.9923879
-3.5450299 2.7393999 2.00561
-3.5476742 2.7243209 2.0003605
-3.5632846 2.7316976 2.001323
-3.5556045 2.7164888 2.0059595
-3.5655663 2.7105286 2.0024211
-3.5742888 2.7055974 2.0012162
-3.578337 2.7074425 1.9935431
-3.5759361 2.7093978 2.003196
-3.5909812 2.6951413 2.0092859
-3.5800259 2.7029331 1.9957974
-3.5835452 2.6962941 2.0064011
-3.5938354 2.6908121 2.0069034
-3.5893681 2.6735141 1.999766
-3.6039312 2.6676838 2.0024085
-3.6138508 2.6756721 2.0040843
-3.6073015 2.6587112 2.0058284
-3.6219504 2.6614685 1.9944218
-3.6242652 2.6503866 2.0099804
-3.61692 2.6480119 1.9962972
-3.6234779 2.6403379 1.9954262
-3.6235173 2.6328835 1.9929415
-3.6329458 2.6388702 2.0100055
-3.6418648 2.6330488 1.9948075
-3.6379142 2.6163816 1.9988201
-3.651314 2.6135056 1.9958671
-3.6430306 2.6208823 2.0010047
-3.6529965 2.6173062 1.9939562
-3.6543615 2.5951049 2.0008876
-3.6601608 2.603931 2.0105112
-3.6596363 2.5898743 1.997533
-3.6599755 2.5794463 2.0021775
-3.6627922 2.5832508 1.9978909
-3.6685379 2.5817902 1.9928705
-3.6694744 2.5679271 1.9962754
-3.6863911 2.5643041 2.0019021
-3.6862535 2.5525968 2.0000079
-3.6809714 2.5545495 1.9996455
-3.6827302 2.5587554 2.0021946
-3.6975505 2.5407732 1.9986877
-3.70274 2.5469198 2.006247
-3.7009006 2.536324 2.0085063
-3.6944094 2.5265014 1.9997033
-3.7121973 2.5345156 1.9945778
-3.7149987 2.5251691 2.0007322
-3.7143879 2.5224743 2.0084114
-3.708143 2.5034778 2.0095365
-3.7237852 2.5133178 1.9977721
-3.7197826 2.5049455 1.9953766
-3.7332232 2.4852924 2.0001669
-3.7301636 2.4839821 1.9962764
-3.7395375 2.4880366 2.006968
-3.7466447 2.4821002 1.9930197
-3.7425475 2.4818864 1.9922733
-3.7435689 2.4623747 2.0073729
-3.7584283 2.46697 2.0049751
-3.7456012 2.4612992 2.0087829
-3.7516418 2.4434676 2.007638
-3.7494392 2.4531133 2.0033329
-3.7696249 2.4327855 2.0045912
-3.765013 2.438977 2.0097616
-3.7642841 2.4392474 2.0042126
-3.7728562 2.4158559 1.9979588
-3.7753694 2.4199994 1.9967272
-3.7786214 2.4065526 2.001225
-3.7867665 2.4016695 1.9955637
-3.7773023 2.4130297 2.0094824
-3.7840226 2.401758 2.0108247
-3.7918804 2.3960903 2.0070729
-3.8040361 2.393631 2.0082579
-3.7949257 2.3791702 2.0009043
-3.800638 2.3688178 1.9990951
-3.8118913 2.373265 1.9991735
-3.8093915 2.3585641 2.0086794
-3.8081155 2.3639681 2.0100265
-3.8223343 2.3645773 2.0117838
-3.822207 2.3579931 2.0101993
-3.8281536 2.3480239 2.0026455
-3.8327503 2.3335245 1.9947311
-3.8210914 2.3301899 2.0096691
-3.8282399 2.3392785 1.9954629
-3.8427346 2.3259604 1.9962252
-3.839031 2.324687 2.0067606
-3.8352413 2.3092043 2.007925
-3.8419385 2.3182807 1.9998287
-3.847281 2.2964141 1.9976808
-3.8508584 2.2979431 1.9942927
-3.8560131 2.2967865 2.006284
-3.8487141 2.2942865 2.0091293
-3.8693218 2.2866914 1.9939973
-3.8549838 2.2751863 1.9933163
-3.8748448 2.2724175 2.004684
-3.8739357 2.2565758 2.0001495
-3.8824837 2.26774 2.0055079
-3.8698597 2.2554152 2.0053232
-3.8853245 2.2409492 2.0086565
-3.8829296 2.2460992 1.998908
-3.8839149 2.2292807 1.9933968
-3.8929017 2.2229395 2.0107834
-3.8990355 2.2191617 2.0059779
-3.9002936 2.2128851 1.9950739
-3.902225 2.2099037 2.0068126
-3.8927813 2.2109797 2.0081255
-3.9078646 2.2066481 2.0060225
-3.9175816 2.1980741 1.9970194
-3.9074755 2.1971607 1.9989793
-3.9140289 2.1817605 2.0115225
-3.9103227 2.1884851 1.992685
-3.9121203 2.1693263 1.9929482
-3.9165237 2.1671288 1.99488
-3.925725 2.1667609 1.9959859
-3.9258225 2.1675417 1.9995652
-3.9341736 2.1608386 2.0096798
-3.9412043 2.1421175 2.0009265
-3.93033 2.1367366 2.0090671
-3.9484513 2.1445112 2.0017664
-3.9446049 2.1287746 2.0045419
-3.9482074 2.1197786 1.9995226
-3.9506402 2.1320114 2.0008295
-3.9528017 2.1228602 2.0054278
-3.9530239 2.1075191 1.9951515
-3.9521325 2.1150842 2.0111537
-3.9676538 2.0972943 2.0059545
-3.9730527 2.0954623 2.00754
-3.9671972 2.0874851 2.0092547
-3.9731936 2.0843599 2.0042582
-3.9664829 2.0880463 2.0090435
-3.9769888 2.0710878 2.0103552
-3.9725063 2.0746467 2.0094266
-3.9867094 2.0589862 2.0048773
-3.976306 2.0660381 2.0105219
-3.9961712 2.0569084 2.0092707
-4.0000267 2.0351765 1.9957726
-3.9890733 2.030957 2.0059896
-3.9965267 2.0354965 1.9937806
-4.0022578 2.0369356 2.0040016
-3.9929771 2.0279737 2.0034683
-3.9989038 2.0113859 2.0115397
-4.0035105 2.0021534 2.0087376
-4.0090384 2.0015826 1.9958464
-4.0191073 1.9942724 1.9955823
-4.0235238 1.9899461 2.0117681
-4.0091839 1.9846061 2.0118051
-4.0283341 1.9930532 1.9932098
-4.0172596 1.9768728 2.0047455
-4.0183864 1.9777796 2.0033154
-4.029284 1.9707772 1.9985224
-4.0407071 1.9606509 2.0027447
-4.0440507 1.9487125 2.0033414
-4.030189 1.9540331 2.0089786
-4.0492101 1.9520639 1.99292
-4.0484877 1.9284493 1.998154
-4.0515718 1.9419379 2.0036705
-4.0546107 1.919032 2.0032604
-4.0562372 1.9299482 1.9923002
-4.04632 1.9224778 2.0078807
-4.0578246 1.9068419 2.0020969
-4.0541148 1.9025067 2.0118282
-4.0661745 1.8975443 1.9952668
-4.0576291 1.8891522 2.0096753
-4.0634394 1.8844392 2.0077677
-4.0653 1.8831414 2.0079021
-4.0819187 1.8814443 2.0071859
-4.0730128 1.8793852 2.0092282
-4.0845089 1.8583688 2.0078547
-4.0869575 1.8499305 2.0046828
-4.0738177 1.8526406 2.0115502
-4.0864534 1.8417059 1.9997619
-4.0893502 1.8413489 2.0086939
-4.0888 1.8321662 1.9949205
-4.0938334 1.839795 2.0021245
-4.1007667 1.8281769 1.9937245
-4.1075573 1.8225455 2.009325
-4.0950561 1.8084177 2.0085676
-4.1005049 1.8053832 1.9924988
-4.1073189 1.8024819 1.9937001
-4.1172972 1.7952943 2.0033236
-4.1003995 1.7980365 2.0077281
-4.1152821 1.78044 1.9974947
-4.1212249 1.7859433 2.0038016
-4.1209331 1.768955 2.0034635
-4.1134291 1.7675673 1.9972372
-4.1143174 1.761915 2.0111129
-4.119597 1.7512816 1.9965981
-4.1256256 1.7577095 2.0047891
-4.1277151 1.7398252 1.9958228
-4.1285954 1.7344569 2.0054164
-4.1398439 1.7284719 2.0035033
-4.1466804 1.7300819 2.009748
-4.1437416 1.7282189 2.0072539
-4.1344881 1.7091097 1.9935328
-4.1455641 1.699958 2.004189
-4.142859 1.712364 1.9949608
-4.1462693 1.701928 2.0008709
-4.144187 1.6878929 1.9989842
-4.1539054 1.6941898 2.0049915
-4.1525817 1.6820199 2.0114124
-4.1616569 1.6810069 1.9976335
-4.1526365 1.6755551 2.0112529
-4.1573634 1.6554314 2.0088012
-4.1645765 1.6469423 1.9930357
-4.1655021 1.64975 1.9939169
-4.1757641 1.6376281 1.9930059
-4.1752453 1.6444526 2.0074642
-4.1688085 1.6357085 1.9936956
-4.1842504 1.6195867 2.0120358
-4.173677 1.627121 2.0040212
-4.1766739 1.6079051 2.0008116
-4.1734424 1.6000259 1.9979718
-4.1765828 1.6097279 2.0008328
-4.1821666 1.5945171 2.0010328
-4.1835079 1.6006726 2.0098717
-4.3666654 1.6473963 1.948604
-4.3681159 1.6481131 1.9638174
-4.3750997 1.6375343 1.9561272
-4.375843 1.6337729 1.9581591
-4.3782377 1.6228365 1.9535724
-4.3886385 1.6311457 1.9556201
-4.3822403 1.6249218 1.9556417
-4.3986735 1.617784 1.9512218
-4.3922367 1.607281 1.9574506
-4.3855915 1.5976468 1.9556975
-4.390099 1.5897632 1.9579879
-4.3920465 1.5827186 1.967119
-4.3987718 1.5909715 1.9517982
-4.4131789 1.5807534 1.9588464
-4.4055457 1.5704046 1.9610918
-4.4024901 1.5719104 1.957783
-4.4173789 1.5620611 1.95439
-4.4122367 1.5580169 1.9500023
-4.4115062 1.5426391 1.9612576
-4.4245381 1.5361277 1.9490279
-4.4193144 1.5273213 1.9550668
-4.4117918 1.5187716 1.9602165
-4.4151297 1.5256916 1.9597776
-4.4337797 1.5203913 1.9552821
-4.4253726 1.5049026 1.9666023
-4.4347115 1.4946389 1.9655958
-4.6124234 1.5535176 1.9170917
-4.6285334 1.5575624 1.914536
-4.6290216 1.5444814 1.9227791
-4.6182456 1.5405035 1.9106904
-4.6196899 1.5238756 1.9159781
-4.635087 1.5168883 1.9189016
-4.6253247 1.5086722 1.9149334
-4.635993 1.5039068 1.9118567
-4.6311469 1.5096406 1.9194854
-4.6349721 1.5081186 1.9230479
-4.6397943 1.4960321 1.9098195
-4.6492929 1.4899882 1.9070973
-4.6413383 1.4855993 1.9177587
-4.6451311 1.4741205 1.9109099
-4.6410041 1.4633222 1.9139037
-4.6515799 1.4592433 1.9163836
-4.6592231 1.4470335 1.917124
-4.6508255 1.4462539 1.9195786
-4.6454954 1.432409 1.9142491
-4.6525278 1.4368191 1.9138829
-4.6559882 1.4184777 1.9079183
-4.652668 1.4126996 1.922401
-4.6720614 1.4169291 1.9189885
-4.8477478 1.4553052 1.8667752
-4.8433881 1.4636867 1.8740821
-4.8560247 1.4435178 1.8638126
-4.8661723 1.4377221 1.8678386
-4.8555694 1.4423314 1.8775932
-4.8625031 1.4342691 1.8800137
-4.8547564 1.4211639 1.8733579
-4.8673668 1.4065783 1.8748773
-4.865932 1.4172838 1.8771378
-4.8700051 1.4105582 1.8701499
-4.877481 1.3970631 1.872167
-4.8733416 1.3899496 1.8693541
-4.881886 1.3722115 1.8731637
-4.8806906 1.3663286 1.8779718
-4.8754592 1.3730416 1.8741862
-4.8804641 1.354805 1.869138
-4.883039 1.3462893 1.8777871
-4.8922596 1.3471282 1.8786559
-4.879952 1.3313571 1.8770381
-4.8853736 1.3334588 1.8755056
-4.8977742 1.3300208 1.8672913
-5.0766702 1.3630394 1.8349607
-5.0899172 1.358777 1.8355298
-5.0793447 1.357618 1.8170376
-5.0839548 1.3435884 1.8320825
-5.09234 1.3464427 1.8357177
7.0207233 -4.9587584 1.0908996
7.0103745 -4.9579015 1.0804086
7.0160093 -4.9364247 1.086293
7.0387726 -4.923008 1.0846336
7.0441575 -4.9296303 1.0747535
7.0404072 -4.9182796 1.0751364
7.0516682 -4.8966017 1.0751312
7.0543089 -4.8891687 1.0743432
7.0733657 -4.8910451 1.076102
7.0687494 -4.8680611 1.0913873
7.0732851 -4.858954 1.0827305
7.0790153 -4.8471189 1.0851501
7.0942402 -4.8365588 1.0792565
7.095336 -4.8301315 1.0769799
7.1147585 -4.8252006 1.0782714
7.1042867 -4.8108888 1.0810945
7.1141844 -4.8121705 1.0757672
7.124063 -4.7976527 1.0880343
7.1331396 -4.790905 1.0885775
7.143961 -4.7755876 1.0822476
7.150054 -4.7625337 1.0751576
7.1474762 -4.750536 1.0900265
7.167304 -4.7500854 1.0855696
7.1612248 -4.7352977 1.0776451
7.0100346 -4.6202703 1.1285654
7.0227919 -4.6102343 1.1200649
7.0183587 -4.5970182 1.1203587
7.0285845 -4.580627 1.1252377
7.0310636 -4.5818481 1.126922
7.0340724 -4.5589237 1.1339723
7.0507374 -4.5565681 1.1241156
7.0602989 -4.5434384 1.1162863
7.0647154 -4.5371146 1.118928
7.0646615 -4.5234904 1.1263685
7.0766692 -4.5248423 1.1312766
7.0757642 -4.4998794 1.1164407
7.0863452 -4.5057778 1.1250321
7.0972061 -4.4878654 1.1202171
7.0929322 -4.473875 1.1243738
7.1103287 -4.4632635 1.1216393
7.1147618 -4.4623604 1.1314355
7.109324 -4.4382563 1.1245284
7.1160436 -4.4360819 1.1341027
7.1253905 -4.4202938 1.12745
7.1421642 -4.4188175 1.1295853
7.1438322 -4.404551 1.1268147
7.1506505 -4.4059954 1.1282679
7.1660461 -4.3828559 1.1177469
7.1566129 -4.3702545 1.1313211
7.1713223 -4.3665061 1.1256027
7.1832829 -4.3645611 1.1308746
7.0182686 -4.2529268 1.1741483
7.0129495 -4.2423639 1.1658473
7.0171905 -4.2286487 1.1633952
7.0347657 -4.2243409 1.172472
7.0344625 -4.2045321 1.1658591
7.0513749 -4.2040586 1.1678375
7.0497265 -4.1943288 1.1629819
7.0575438 -4.1801577 1.160746
7.0589213 -4.1773887 1.1722677
7.0745668 -4.1487565 1.1757355
7.0754704 -4.1444645 1.1794809
7.0758152 -4.1314197 1.1640061
7.0878448 -4.1200485 1.1724552
7.0974088 -4.1170034 1.1754125
7.0960355 -4.1001487 1.1683707
7.108036 -4.0922556 1.1719865
7.1020007 -4.0918703 1.1755078
7.1110959 -4.0695138 1.1633677
7.1179419 -4.0716128 1.1641561
7.1162953 -4.0638847 1.163728
7.1381025 -4.0410585 1.177735
7.1436415 -4.0436792 1.1749215
7.1336918 -4.0200472 1.1736063
7.1521769 -4.0126152 1.1654551
7.1536059 -4.0123067 1.1642694
7.1679788 -4.005734 1.1610798
7.1659541 -3.9909189 1.1683702
7.1674361 -3.972717 1.1681036
7.1767645 -3.9733646 1.175817
7.1868672 -3.9613395 1.161329
7.005672 -3.8588967 1.2035494
7.0291944 -3.8510842 1.2093853
7.0298891 -3.8388612 1.2089001
7.0292554 -3.8337786 1.205886
7.0404563 -3.8128788 1.213212
7.0504584 -3.8032038 1.2171342
7.0372567 -3.8011377 1.2058873
7.051332 -3.7831595 1.2228501
7.0651269 -3.781409 1.2091656
7.0666213 -3.7750981 1.2174984
7.0736141 -3.7646546 1.2039814
7.0789943 -3.756072 1.2084922
7.0701971 -3.7321634 1.2154342
7.0809007 -3.7342441 1.2176595
7.0885763 -3.7104657 1.2109776
7.1035643 -3.7020133 1.2041564
7.1024604 -3.6920769 1.2095793
7.110096 -3.6933663 1.2231513
7.1146803 -3.6861475 1.2086371
7.1055665 -3.6627078 1.2105899
7.1247716 -3.6575346 1.2131348
7.130446 -3.6522269 1.2144035
7.1206169 -3.6409488 1.209715
7.1377163 -3.6241856 1.2130722
7.1370273 -3.6249509 1.2103274
7.149642 -3.6159194 1.206147
7.1554217 -3.5931685 1.2220078
7.1466107 -3.587945 1.2066768
7.1513577 -3.5832865 1.2086551
7.1615763 -3.5728774 1.2041564
7.1737337 -3.5683849 1.2149069
7.1684222 -3.5433261 1.2210339
7.1843653 -3.53319 1.2085009
7.0205898 -3.4447267 1.2666047
7.0150533 -3.4285715 1.2501717
7.0267582 -3.4248538 1.2528107
7.0342693 -3.4203951 1.2482343
7.0376277 -3.4097724 1.2589076
7.0256414 -3.3994136 1.2642586
7.0356193 -3.3838329 1.2500312
7.0410852 -3.3810778 1.2503018
7.0572877 -3.3686032 1.2656298
7.0596037 -3.3451405 1.2610854
7.0493727 -3.3353782 1.2486808
7.0534129 -3.335959 1.2626536
7.0610061 -3.329628 1.2505594
7.0712247 -3.3205655 1.2531328
7.0768533 -3.3129106 1.2565309
7.0731411 -3.3019943 1.2604833
7.0947666 -3.2858386 1.250205
7.0821505 -3.2689419 1.2528641
7.0897913 -3.2605538 1.2581733
7.0927463 -3.2545474 1.2571143
7.1111431 -3.2434556 1.25598
7.1171217 -3.2329938 1.2644207
7.1170588 -3.2195952 1.249342
7.1248884 -3.2206202 1.2534686
7.1152768 -3.2006454 1.2553865
7.1290503 -3.188998 1.2583505
7.1267619 -3.1803267 1.2475939
7.134181 -3.1688585 1.263851
7.1442461 -3.1743236 1.2586069
7.139606 -3.1613934 1.2494736
7.153893 -3.1546125 1.2615297
7.1470318 -3.1263859 1.2541392
7.1485972 -3.1227405 1.2502328
7.1550703 -3.1157703 1.2553803
7.1656561 -3.1029022 1.2505751
7.1781454 -3.100738 1.2474837
7.1735849 -3.0853255 1.2631239
7.1782541 -3.0669427 1.260286
7.1791663 -3.0629306 1.2620308
7.1948204 -3.0479801 1.2667472
7.2013268 -3.0431502 1.2482798
7.1998758 -3.0295753 1.2480682
7.1910205 -3.0188146 1.2615253
7.1982441 -3.0259469 1.2519693
7.2106013 -3.0068455 1.2652923
7.2181396 -2.9995928 1.2507842
7.4027677 -3.0561216 1.2178684
7.4029307 -3.057143 1.2171471
7.4002419 -3.041548 1.2104244
7.4192829 -3.0345814 1.2086329
7.4230266 -3.0253761 1.221646
7.428288 -3.0018761 1.2182026
7.4333234 -2.991472 1.2154827
7.61272 -3.0712028 1.1717685
7.6217294 -3.049403 1.1609255
7.6240473 -3.0442631 1.1672804
7.6118422 -3.0388746 1.161943
7.6305251 -3.0175974 1.1652658
7.6284723 -3.0032692 1.1738592
7.6396818 -2.9941452 1.1790893
7.8107095 -3.0568697 1.1193694
7.83321 -3.0469351 1.1166265
7.832252 -3.0361671 1.1339397
7.8285594 -3.0311091 1.1343011
7.8449559 -3.0213168 1.1258497
7.8504939 -3.0134671 1.13192
7.8423719 -3.0020683 1.1327544
8.0312109 -3.0457993 1.0804172
8.0411406 -3.0459626 1.0755911
8.0396481 -3.0391173 1.089247
8.0433693 -3.0270553 1.0808914
8.0511751 -3.0167634 1.091563
8.056222 -2.9916852 1.0820893
8.241456 -3.0425925 1.0429355
8.2442408 -3.0330207 1.046468
8.2585583 -3.0221205 1.0469193
8.2589302 -3.0235367 1.0478325
8.2601194 -3.0026071 1.0436541
8.2527752 -2.9960089 1.0481093
8.4440422 -3.0416665 0.9843815
8.4455881 -3.0410576 0.98531967
8.4587622 -3.0168576 0.98532885
8.4625912 -3.0118089 0.99918956
8.4569302 -3.0085988 0.99896252
8.4759178 -2.9868655 0.99681342
8.662426 -3.0400398 0.95024568
8.6654549 -3.031836 0.95457494
8.6693802 -3.0266562 0.948322
