# .PCD v0.7 - Point Cloud Data file format
VERSION 0.7
FIELDS x y z
SIZE 4 4 4
TYPE F F F
COUNT 1 1 1
WIDTH 1475
HEIGHT 1
VIEWPOINT 0 0 0 1 0 0 0
POINTS 1475
DATA ascii
-4.5174489 -3.0778127 0.56643736
-4.3655295 -2.9911373 0.65580779
-4.3491731 -2.9873486 0.65980315
-4.3540034 -2.9999645 0.6620962
-4.3518314 -3.0084445 0.66382867
-4.349453 -3.0198226 0.64786404
-4.3375173 -3.0106997 0.66426533
-4.3257589 -3.0244699 0.64462221
-4.3367248 -3.0404367 0.66309273
-4.3350177 -3.0392323 0.6506865
-4.3223476 -3.0383761 0.65003157
-4.3148766 -3.0605907 0.65891689
-4.3192525 -3.0506358 0.65768868
-4.2996244 -3.0697069 0.64993626
-4.2976952 -3.0708098 0.65978968
-4.2940245 -3.0737469 0.66434509
-4.2863107 -3.0889692 0.66409755
-4.2821865 -3.0966628 0.65614814
-4.2776976 -3.0995595 0.65829432
-4.1267095 -2.9977932 0.72892672
-4.1362891 -2.9946072 0.74524021
-4.1265154 -3.008214 0.74538374
-4.1278486 -3.0104682 0.74152046
-4.1104021 -3.0173748 0.74461871
-4.1206999 -3.0266407 0.73264074
-4.1011362 -3.0165329 0.74374628
-4.0970087 -3.0230165 0.74564403
-4.0931211 -3.02969 0.7258569
-4.0971751 -3.0361969 0.72917533
-4.0990744 -3.0440662 0.73305404
-4.0915589 -3.0457041 0.72590238
-4.0877223 -3.0617659 0.73092198
-4.083734 -3.0633662 0.73945934
-4.083601 -3.071733 0.72685635
-4.0803614 -3.0746186 0.73074794
-4.0690923 -3.08217 0.73050159
-4.0667095 -3.0898314 0.72952008
-4.0624208 -3.0978506 0.72760749
-4.0579119 -3.0941765 0.74492484
-3.9051068 -2.9853699 0.82132894
-3.8935401 -3.0044086 0.82059425
-3.8891175 -3.0038881 0.80951643
-3.8996675 -3.0036645 0.82255113
-3.8816729 -3.0076013 0.81292588
-3.8762734 -3.0126002 0.82611555
-3.8869748 -3.0306392 0.81744862
-3.8779149 -3.0306125 0.82680893
-3.8698289 -3.0306227 0.81383276
-3.8636482 -3.0504568 0.81020701
-3.8601422 -3.0467963 0.80976474
-3.8614504 -3.0557628 0.81574595
-3.8434856 -3.0645072 0.80770403
-3.856591 -3.0680106 0.8253361
-3.8366542 -3.0777354 0.82447582
-3.8463354 -3.0662847 0.82405531
-3.8428192 -3.0897665 0.81102848
-3.8279624 -3.0884275 0.82345498
-3.8237379 -3.0832491 0.8212921
-3.8324821 -3.0961437 0.82471007
-3.8248444 -3.1097944 0.81719738
-3.6759973 -2.9935265 0.90734679
-3.6629672 -2.9988685 0.89292318
-3.6579719 -3.0016003 0.90038711
-3.6553373 -3.0086873 0.90351135
-3.6535559 -3.0097549 0.90346539
-3.6521878 -3.0116131 0.90531057
-3.6438396 -3.0229292 0.89386171
-3.6430576 -3.0343425 0.8929522
-3.6444314 -3.0388293 0.90450281
-3.64238 -3.0400155 0.90775168
-3.6278343 -3.038343 0.89711547
-3.6243575 -3.0478308 0.90627635
-3.6152973 -3.0565209 0.89783841
-3.6187661 -3.066781 0.90744072
-3.6191034 -3.0594716 0.90109688
-3.5994799 -3.0750129 0.89801019
-3.5980039 -3.0664322 0.88871717
-3.6079698 -3.0813024 0.89311451
-3.5988383 -3.0817869 0.89812273
-3.5981491 -3.0844674 0.90703666
-3.5942039 -3.0968568 0.90270901
-3.580888 -3.0900309 0.89397335
-3.5784042 -3.0984135 0.9016217
-3.5843513 -3.1145406 0.90407783
-3.4229937 -2.9951115 0.98013097
-3.4258363 -3.0003328 0.98447317
-3.4317589 -3.0083754 0.98244625
-3.4269676 -3.0106881 0.97059292
-3.4177728 -3.0081804 0.98329318
-3.4035628 -3.0093014 0.97834486
-3.4004321 -3.0308027 0.98603308
-3.4016225 -3.0233204 0.98556697
-3.391542 -3.0376935 0.98173207
-3.3938062 -3.0423598 0.98677784
-3.3936079 -3.0477171 0.97607791
-3.3785753 -3.0401094 0.98496002
-3.3791938 -3.042623 0.97059709
-3.3818326 -3.0645511 0.97871315
-3.3763182 -3.0614965 0.97412282
-3.3780968 -3.0684509 0.97319108
-3.3648174 -3.0765004 0.97553211
-3.363843 -3.0699725 0.97012353
-3.3633282 -3.0776029 0.97510415
-3.3466418 -3.0917432 0.9801746
-3.344903 -3.0899374 0.98463804
-3.3338575 -3.0973577 0.9814536
-3.3339233 -3.0896621 0.98049384
-3.3283458 -3.1088769 0.98233831
-3.3346455 -3.1068563 0.97196376
-3.3255291 -3.1108994 0.97935522
-3.1840949 -3.00086 1.0646372
-3.1737309 -2.9990535 1.05993
-3.1887693 -3.0010371 1.0522949
-3.1788208 -3.0106461 1.0552157
-3.1637959 -3.0028346 1.0646329
-3.1643012 -3.0083022 1.0513139
-3.1679847 -3.0181673 1.070369
-3.1526217 -3.0267925 1.0548812
-3.1554081 -3.0260615 1.0660803
-3.1485631 -3.0405653 1.0578964
-3.1543205 -3.031235 1.0593112
-3.1360149 -3.0357299 1.0669943
-3.1424105 -3.0394585 1.0571498
-3.1364353 -3.05744 1.0621467
-3.1275327 -3.0446043 1.0593995
-3.1292071 -3.0564876 1.0556229
-3.1241944 -3.0562742 1.066414
-3.1201205 -3.0649245 1.0530066
-3.1115282 -3.0805933 1.0647507
-3.1117306 -3.0736556 1.0664059
-3.100111 -3.07672 1.0618004
-3.1070707 -3.0857296 1.0571028
-3.0863409 -3.0853918 1.0530738
-3.0954497 -3.1033418 1.0554541
-3.0795557 -3.0966587 1.0550555
-3.0864029 -3.0959251 1.0671527
-3.0770204 -3.1144602 1.0638362
-3.0768409 -3.113209 1.0562367
-3.0700626 -3.1076589 1.0573295
-3.0715344 -3.126611 1.0697151
-3.0513451 -3.1182492 1.0633855
-3.1834607 -3.2519016 0.97116387
-3.1723797 -3.2585776 0.98484242
-3.1653216 -3.2586861 0.98490208
-3.1758771 -3.26723 0.97596991
-3.1668248 -3.2669568 0.97209013
-3.1656692 -3.2816429 0.97398806
-3.1478238 -3.2804973 0.98144412
-3.1575716 -3.296927 0.97875088
-3.1462207 -3.2991884 0.98140019
-3.142478 -3.3056259 0.97669983
-3.1450586 -3.3008454 0.97337222
-3.1386294 -3.3095441 0.98782307
-3.1185155 -3.3157513 0.98661357
-3.1183357 -3.3170867 0.98130172
-3.1270821 -3.3139486 0.98069841
-3.1197021 -3.33424 0.96983784
-3.1104183 -3.3212771 0.98454547
-3.1136723 -3.3426597 0.98723936
-3.0996132 -3.3372946 0.97208148
-3.1028988 -3.3327968 0.97488916
-3.090879 -3.3554955 0.98687422
-3.0821805 -3.3563869 0.97455066
-3.0790253 -3.3617923 0.98040372
-3.0770733 -3.3516524 0.98929882
-3.0804274 -3.3548992 0.98570287
-3.0643787 -3.3754122 0.98617989
-3.0591846 -3.371294 0.98397756
-3.0592768 -3.375088 0.98474401
-3.179167 -3.5251222 0.89399475
-3.1715219 -3.5276492 0.89330709
-3.1610627 -3.5228326 0.8942526
-3.1586125 -3.5340002 0.89863187
-3.1484795 -3.5267007 0.90192425
-3.1524873 -3.5421441 0.89966863
-3.147594 -3.5456419 0.89847183
-3.1462903 -3.5377977 0.90106082
-3.1445034 -3.5494716 0.89206052
-3.1249127 -3.5659564 0.90355194
-3.1245496 -3.564558 0.90492272
-3.1137042 -3.5604343 0.88821
-3.1235402 -3.5707777 0.90075034
-3.1124246 -3.5836029 0.90655291
-3.0969236 -3.5712337 0.90407753
-3.0981243 -3.587817 0.89057469
-3.1015744 -3.5844574 0.89798301
-3.0862155 -3.5847511 0.89763767
-3.0882614 -3.5882213 0.89001334
-3.0793014 -3.5970697 0.89029241
-3.0788443 -3.6105304 0.8963511
-3.0770102 -3.6181269 0.89090765
-3.0718827 -3.6205471 0.89948815
-3.0542092 -3.6168449 0.89960372
-3.168612 -3.7623041 0.8152163
-3.1674039 -3.7744715 0.81981742
-3.1596928 -3.7751007 0.8121174
-3.164567 -3.7653885 0.80845582
-3.1497803 -3.7827456 0.82564956
-3.1426117 -3.7761724 0.818313
-3.1351581 -3.7941778 0.82182699
-3.1416395 -3.7953904 0.8220486
-3.1335583 -3.7965236 0.82414728
-3.1168904 -3.8050365 0.81423795
-3.120101 -3.7951269 0.82281482
-3.1064675 -3.8092699 0.82366455
-3.1082265 -3.8209686 0.80831802
-3.0976796 -3.8228142 0.80710942
-3.0907881 -3.8151526 0.812962
-3.0866969 -3.8256078 0.80979854
-3.089936 -3.8339009 0.81303328
-3.0896554 -3.8339729 0.81945133
-3.0691471 -3.8312676 0.80912495
-3.066534 -3.8372042 0.81466687
-3.0738242 -3.8516674 0.81449217
-3.0525315 -3.8578188 0.82454079
-3.1639233 -3.9942744 0.72602427
-3.1569154 -4.0024586 0.73123896
-3.1511099 -4.0090914 0.72845924
-3.1594458 -4.0169792 0.7395609
-3.1509387 -4.0134583 0.72669858
-3.1391909 -4.0150146 0.73808575
-3.1410191 -4.0214272 0.7364924
-3.1331673 -4.0305963 0.73326892
-3.1197674 -4.0324321 0.73988146
-3.1265364 -4.0383568 0.74463403
-3.1032503 -4.0475221 0.74043185
-3.0972493 -4.0552731 0.73248017
-3.1060276 -4.042819 0.74232268
-3.0975795 -4.0643072 0.72869664
-3.0980239 -4.0629015 0.74300289
-3.0913243 -4.0753665 0.74015623
-3.0732315 -4.0752845 0.73529297
-3.0767262 -4.0729814 0.74564821
-3.0634382 -4.0829163 0.73854768
-3.0635319 -4.0852628 0.7298941
-3.168364 -4.2363038 0.65521425
-3.1676908 -4.2408214 0.65836495
-3.154963 -4.239778 0.65831792
-3.1523867 -4.2559543 0.66112298
-3.14343 -4.2582479 0.64966649
-3.140161 -4.259521 0.65006942
-3.1397328 -4.2683873 0.65487105
-3.1241615 -4.266439 0.64628404
-3.1182289 -4.2769008 0.65206313
-3.1193907 -4.273159 0.65978825
-3.1092 -4.270462 0.64708787
-3.0924578 -4.2730112 0.65429974
-3.0925586 -4.2887588 0.64697593
-3.0927005 -4.2878618 0.64788902
-3.0900311 -4.303947 0.65091312
-3.0788124 -4.3027072 0.65706015
-3.0671847 -4.3069897 0.65872902
-3.0707493 -4.3016577 0.64672554
-3.0628948 -4.3163552 0.64863175
-3.1548326 -4.4673681 0.57741702
-3.1532538 -4.4651279 0.57447952
-3.1443691 -4.4721265 0.57333893
-3.1482663 -4.4852123 0.58078873
-3.1394813 -4.4844327 0.57346481
-3.129777 -4.4869828 0.57437712
-3.1170425 -4.4843187 0.5808419
-3.118155 -4.496038 0.56732851
-3.0975924 -4.4973383 0.56344324
-3.1090274 -4.4968071 0.56914753
-3.0985498 -4.5086651 0.57730234
-3.0980556 -4.5051875 0.572115
-3.0804927 -4.5190744 0.56433856
-3.0840647 -4.5231142 0.5678767
-3.0601807 -4.5246301 0.57658601
-3.0636144 -4.5227094 0.5671283
-3.1683483 -4.6858335 0.48348328
-3.1441817 -4.6849871 0.4937101
-3.153522 -4.6898637 0.48699307
-3.1467416 -4.6924667 0.48515502
-3.1342506 -4.7108903 0.49579781
-3.133599 -4.7151237 0.49424845
-3.1181283 -4.7081037 0.48313358
-3.1104281 -4.7109714 0.49229166
-3.0991836 -4.7162766 0.4842374
-3.0992236 -4.7313442 0.48239854
-3.0887156 -4.735261 0.49322695
-3.0806208 -4.7415624 0.4893215
-3.0822933 -4.7437615 0.48495001
-3.0706766 -4.7457442 0.48237669
-3.0608921 -4.7418056 0.4857721
-3.0604589 -4.7437916 0.48931745
-3.1603775 -4.9106398 0.40303105
-3.1523817 -4.9227624 0.419467
-3.1352217 -4.9102349 0.41495278
-3.1261096 -4.9243479 0.41971746
-3.1188304 -4.9345584 0.4049024
-3.1207168 -4.923286 0.40811372
-3.1065025 -4.9403043 0.4134441
-3.0966537 -4.9323306 0.40110102
-3.0893719 -4.9412022 0.41699624
-3.0986888 -4.9562769 0.4151963
-3.0844543 -4.9591036 0.40458041
-3.0752745 -4.9607973 0.40625143
-3.069653 -4.9721999 0.40485024
-3.0685396 -4.9613657 0.4137271
-5.871069 -2.9867952 0.13955657
-5.8614573 -3.0039492 0.1245941
-5.8684216 -3.011277 0.13523854
-5.858026 -3.0235395 0.12694775
-5.8519402 -3.0142035 0.1440151
-5.8411627 -3.0355864 0.1346142
-5.8538275 -3.0366781 0.13663718
-5.8392978 -3.0493302 0.12850761
-5.8386846 -3.0647204 0.13669844
-5.8235908 -3.0584295 0.12920611
-5.8306522 -3.0781822 0.14253233
-5.6688132 -2.9866765 0.20679845
-5.6640649 -3.0119438 0.21204926
-5.6486607 -3.0110276 0.21323207
-5.6415367 -3.0082483 0.21193922
-5.6373339 -3.0189259 0.21744604
-5.6425214 -3.0265143 0.21003789
-5.6256747 -3.0438302 0.21814826
-5.6369462 -3.0448015 0.21903324
-5.6200166 -3.0549588 0.21436784
-5.630568 -3.056469 0.21810251
-5.6277819 -3.0824623 0.21565457
-5.4599247 -2.9995883 0.29574138
-5.4476109 -2.9936042 0.28476569
-5.4541039 -3.0047121 0.28447214
-5.4418793 -3.0158448 0.30139783
-5.4441371 -3.0164034 0.29862624
-5.4337921 -3.0243645 0.28642389
-5.4353266 -3.0478578 0.3011294
-5.4159651 -3.0386922 0.29355067
-5.4212584 -3.0443606 0.29232892
-5.4228067 -3.0515363 0.29297495
-5.4067926 -3.075841 0.29603717
-5.4105682 -3.0720236 0.29270837
-5.2461295 -2.9879086 0.36577818
-5.2412806 -3.0065525 0.37544072
-5.2394958 -3.011678 0.37215209
-5.2204723 -3.0106928 0.36850372
-5.2336411 -3.015487 0.36895752
-5.2120943 -3.0251753 0.36616617
-5.2181158 -3.0444231 0.36529008
-5.205349 -3.0494959 0.36481583
-5.211926 -3.0428417 0.36760855
-5.1954303 -3.064261 0.38178408
-5.2022533 -3.0647295 0.37664115
-5.1958842 -3.0645409 0.38018566
-5.1998425 -3.0867696 0.36593032
-5.0295768 -3.0003197 0.45986724
-5.0205827 -3.0049083 0.45643607
-5.0311255 -3.0121825 0.45062438
-5.0244493 -3.009721 0.45286664
-5.0186396 -3.0187457 0.45733196
-5.0132942 -3.0386105 0.45574158
-5.0051465 -3.0262532 0.46001595
-5.0028133 -3.0450027 0.45109975
-5.0056138 -3.0416765 0.44964415
-4.9848595 -3.0666122 0.453226
-4.9783506 -3.0630984 0.45665061
-4.9777832 -3.0747836 0.4625209
-4.9806371 -3.0812137 0.44814527
-4.9692926 -3.0851805 0.46325344
-4.8200593 -2.9906321 0.53624094
-4.8021231 -2.9916806 0.53648663
-4.8057685 -3.0088234 0.53609419
-4.80513 -3.0078847 0.52395111
-4.7933984 -3.0140076 0.54212695
-4.803113 -3.0236475 0.54235381
-4.7892361 -3.0310597 0.53307527
-4.7919254 -3.0421951 0.53908634
-4.7887349 -3.0404847 0.52563608
-4.779911 -3.0517399 0.53518194
-4.7759695 -3.0537188 0.52930552
-4.7589188 -3.0619562 0.52911395
-4.7616129 -3.078042 0.53850734
-4.7646904 -3.077702 0.53556103
-4.7599015 -3.0898526 0.53320771
-4.6033545 -2.9957833 0.60781199
-4.6002841 -2.9920297 0.62182039
-4.586484 -3.0152156 0.6113916
-4.5866632 -3.0194712 0.60936546
-4.5802841 -3.0191717 0.62277007
-4.5843501 -3.0192091 0.62087601
-4.5742831 -3.0264833 0.61741889
-4.5643992 -3.0407491 0.60454422
-4.5651131 -3.0423985 0.61867166
-4.5687642 -3.0435746 0.60730475
-4.55476 -3.0661016 0.6164915
-4.54603 -3.0697525 0.61586159
-4.5432825 -3.0638061 0.6184696
-4.5509553 -3.0822513 0.62324011
-4.5406451 -3.0785379 0.61472219
-4.5369215 -3.0831206 0.61257309
-4.3837852 -2.9983044 0.68943751
-4.36554 -2.9912121 0.69854307
-4.3601608 -3.0090904 0.69238764
-4.3606458 -3.0148854 0.69143856
-4.352489 -3.0109508 0.69433898
-4.3551369 -3.0225697 0.69995874
-4.3584061 -3.0357337 0.69788945
-4.3390589 -3.0408716 0.68373352
-4.3349323 -3.0400097 0.69964325
-4.3393159 -3.0397432 0.69731677
-4.3258395 -3.0619662 0.70257568
-4.3353782 -3.0701356 0.70105022
-4.3358026 -3.0571263 0.68776381
-4.3223743 -3.0688107 0.69479376
-4.3098865 -3.076556 0.69186383
-4.3144898 -3.0911753 0.68341458
-4.3134646 -3.0932982 0.68789506
-4.3145008 -3.100317 0.6933254
-4.161037 -3.0001206 0.76558715
-4.1404524 -2.9957004 0.7643038
-4.1421862 -3.0020728 0.76686752
-4.1386528 -3.0222609 0.76732576
-4.1366367 -3.027159 0.76685119
-4.1278992 -3.0229225 0.78074414
-4.1321235 -3.0305009 0.77293777
-4.1192698 -3.0269933 0.7765522
-4.1148577 -3.0467799 0.7640776
-4.1059566 -3.0519304 0.77061206
-4.1116171 -3.0566003 0.77602428
-4.1048951 -3.0648804 0.77166504
-4.0994492 -3.0590963 0.76673585
-4.0914311 -3.0739899 0.76741523
-4.0829468 -3.0710864 0.76898712
-4.0949292 -3.0836718 0.78058016
-4.0930104 -3.0847168 0.77037382
-4.0788903 -3.0971508 0.76944804
-4.0811477 -3.0894232 0.77450246
-3.9301238 -2.9858081 0.86005509
-3.9184608 -3.0031629 0.8468051
-3.9213781 -2.998071 0.85102445
-3.9086468 -3.0118163 0.8467707
-3.9008372 -3.0218349 0.85336059
-3.9123404 -3.0276685 0.84858525
-3.9022641 -3.0297916 0.85694945
-3.9005873 -3.0343113 0.84998786
-3.8891091 -3.0290339 0.85630524
-3.8785491 -3.0503452 0.85605711
-3.8829272 -3.0507195 0.85387945
-3.8816326 -3.0636227 0.85983866
-3.8735802 -3.063642 0.85637516
-3.8613012 -3.0551372 0.8446461
-3.8732681 -3.0630372 0.8483724
-3.8586378 -3.0666625 0.85173309
-3.8487751 -3.0844417 0.85843271
-3.8505409 -3.0847812 0.84606862
-3.8392606 -3.0978873 0.84443206
-3.8416555 -3.1046863 0.84692848
-3.844291 -3.1001234 0.85448879
-3.6866729 -2.9830632 0.934466
-3.685673 -2.9974978 0.93996251
-3.6881297 -3.0039365 0.93938428
-3.682308 -3.0066328 0.93632042
-3.6727529 -3.018997 0.93503952
-3.6798298 -3.0258045 0.94138199
-3.6602001 -3.0186908 0.93278134
-3.6729274 -3.0246177 0.93646461
-3.6672838 -3.0372677 0.93873328
-3.6591368 -3.0368888 0.93094301
-3.6434224 -3.0456591 0.93011451
-3.6476111 -3.0576191 0.94001877
-3.6462963 -3.0562322 0.92864573
-3.6455526 -3.0532274 0.93973196
-3.6278656 -3.0648787 0.92360365
-3.6314526 -3.0678251 0.92581177
-3.6286898 -3.0753672 0.94027138
-3.6145205 -3.0798688 0.93393618
-3.6166608 -3.0829668 0.94007695
-3.6165257 -3.0821645 0.93171662
-3.6041737 -3.0899017 0.93970019
-3.612643 -3.1060886 0.94083214
-3.5912011 -3.1052291 0.92845327
-3.601125 -3.1079013 0.92417532
-3.4614809 -2.9969914 1.0132241
-3.4566009 -2.993942 1.0045233
-3.449506 -3.0124266 1.0133586
-3.4479449 -3.0010459 1.0227646
-3.4327121 -3.0161166 1.0141389
-3.4313319 -3.0153701 1.0113758
-3.4183054 -3.0265965 1.0059297
-3.4172885 -3.0306246 1.0093446
-3.4151332 -3.03755 1.0186611
-3.40535 -3.0387454 1.0103416
-3.399838 -3.0431249 1.0177846
-3.405158 -3.0468168 1.0131077
-3.3991723 -3.0476129 1.0147709
-3.4043446 -3.0510535 1.0126336
-3.4001043 -3.0634737 1.0202385
-3.3844831 -3.0587332 1.0133971
-3.3916183 -3.0651917 1.0201303
-3.3841932 -3.0748661 1.0076308
-3.3733463 -3.0866244 1.0129954
-3.3731763 -3.092845 1.021948
-3.3613193 -3.0978065 1.0112985
-3.3620129 -3.0923469 1.0217288
-3.3673766 -3.1051679 1.0161284
-3.3510706 -3.1074336 1.0118471
-3.3568954 -3.1097381 1.0198991
-3.3351088 -3.1207073 1.0174395
-3.2061348 -2.9979799 1.0931504
-3.2046182 -2.9970634 1.0840349
-3.1955948 -3.0096059 1.087891
-3.2012002 -3.0062909 1.0902498
-3.1978471 -3.0154378 1.0923649
-3.1851373 -3.009604 1.084651
-3.1819909 -3.0134659 1.0888215
-3.1844385 -3.0253606 1.0954258
-3.1711614 -3.0274255 1.0844189
-3.1698258 -3.0320554 1.0871301
-3.170944 -3.0460918 1.0921259
-3.1562326 -3.0428016 1.1025262
-3.1506305 -3.0546842 1.0848663
-3.1611662 -3.0563748 1.0949976
-3.1493368 -3.0589213 1.1004525
-3.135386 -3.0529726 1.0962058
-3.1291432 -3.0680988 1.0925559
-3.1387236 -3.0699003 1.101464
-3.1216938 -3.0826578 1.0927541
-3.1356647 -3.07832 1.0838553
-3.1269181 -3.0793462 1.085355
-3.1131699 -3.0899131 1.094574
-3.109015 -3.0991361 1.0963335
-3.102514 -3.1031597 1.1008193
-3.1058757 -3.0996242 1.08717
-3.1037765 -3.106415 1.0838745
-3.0859177 -3.1112459 1.089852
-3.0917029 -3.1099465 1.0984213
-3.0885739 -3.1159122 1.0986202
-3.0741487 -3.1201501 1.0875381
-3.0686164 -3.1199489 1.0998052
-3.0815783 -3.1303129 1.0858746
-3.0653152 -3.140842 1.0870837
-3.0672867 -3.1291955 1.0886266
-3.0647664 -3.1452425 1.098056
-3.1836395 -3.2750492 1.0051519
-3.1778681 -3.2799983 1.0116433
-3.1661131 -3.2950819 1.0037671
-3.1657827 -3.2913923 1.0142519
-3.1652472 -3.2976394 1.0048195
-3.1557875 -3.3027217 1.0199028
-3.1540544 -3.30514 1.0089304
-3.146246 -3.3156748 1.0117315
-3.1372221 -3.3125668 1.0104752
-3.1466491 -3.3113303 1.0174618
-3.1466408 -3.3256145 1.0104469
-3.1396427 -3.3187146 1.002939
-3.126147 -3.3246536 1.0047971
-3.1205215 -3.3348618 1.0147878
-3.1244051 -3.3491406 1.0029682
-3.1177149 -3.3385718 1.0104964
-3.1159353 -3.3508885 1.0200303
-3.1051221 -3.3600211 1.0034467
-3.0915017 -3.3647609 1.0143819
-3.0991318 -3.3635643 1.0109581
-3.0997691 -3.3670025 1.0176481
-3.0874152 -3.3680916 1.0156293
-3.0825629 -3.3803406 1.0120565
-3.0758469 -3.3716252 1.0226537
-3.079134 -3.3914607 1.0033439
-3.0742347 -3.3892796 1.0189683
-3.0618012 -3.3899987 1.006635
-3.0598278 -3.4045904 1.009521
-3.1769443 -3.5466671 0.93212563
-3.1604166 -3.5448289 0.94015342
-3.1673067 -3.5483313 0.92907572
-3.1675007 -3.5441895 0.94123477
-3.1497071 -3.5599113 0.92546439
-3.1554804 -3.5536385 0.94272214
-3.15065 -3.5553808 0.92445046
-3.1451235 -3.5769572 0.93265939
-3.1439662 -3.5708399 0.92444217
-3.1351364 -3.5674949 0.92591977
-3.1234143 -3.5835059 0.92601413
-3.1291938 -3.5879374 0.93239075
-3.1069396 -3.5842133 0.93970191
-3.1157568 -3.5856435 0.93558502
-3.1124089 -3.5942471 0.94016945
-3.1048253 -3.5935967 0.93544281
-3.099978 -3.613095 0.93338323
-3.0933962 -3.6120522 0.93414938
-3.0785997 -3.6148431 0.92542815
-3.0720141 -3.613802 0.92444026
-3.083945 -3.6260419 0.93182284
-3.0757754 -3.6290712 0.93914831
-3.0612233 -3.6348619 0.93456519
-3.0593538 -3.6344919 0.93291205
-3.1794686 -3.7762434 0.847121
-3.1769235 -3.7951682 0.84621418
-3.1590991 -3.7942853 0.85014814
-3.1633279 -3.7918663 0.85945725
-3.1467843 -3.7997026 0.85030043
-3.1389558 -3.8060112 0.8465029
-3.1321092 -3.8093145 0.8547762
-3.1378739 -3.8095183 0.84432405
-3.1363068 -3.8202457 0.85237801
-3.1193168 -3.8141856 0.84509176
-3.1239738 -3.8354549 0.86077833
-3.1145282 -3.8394694 0.86198008
-3.1059833 -3.8309553 0.84849727
-3.0934982 -3.8319726 0.86185837
-3.0916979 -3.8417547 0.8518008
-3.0990486 -3.8490231 0.85984492
-3.0901909 -3.8547657 0.84898847
-3.0730536 -3.8515997 0.8623237
-3.0663624 -3.8522 0.84931934
-3.0716114 -3.8611493 0.8467555
-3.0641406 -3.860101 0.84729522
-3.060977 -3.8749583 0.84818608
-3.1701102 -4.0306239 0.78206134
-3.1590147 -4.0353308 0.77915752
-3.154552 -4.0236068 0.77081454
-3.1601405 -4.0446086 0.77953863
-3.1376789 -4.0421343 0.76684809
-3.1460676 -4.0479097 0.78164393
-3.141115 -4.0523877 0.78015256
-3.1291604 -4.047514 0.77401721
-3.1197636 -4.060575 0.77322805
-3.1098211 -4.0558844 0.78187174
-3.1189816 -4.0722394 0.7831282
-3.114373 -4.0631242 0.76411128
-3.0926623 -4.0751762 0.78124398
-3.0992885 -4.0784545 0.7817924
-3.0971844 -4.0849137 0.76922512
-3.087765 -4.0854111 0.77528399
-3.0835435 -4.0866108 0.78125894
-3.0808074 -4.1015177 0.77649361
-3.0642009 -4.0926952 0.78304535
-3.0683775 -4.0996037 0.77865839
-3.1733437 -4.2484612 0.70239067
-3.1674025 -4.25144 0.69948053
-3.1604722 -4.2584 0.68886435
-3.1364031 -4.2776833 0.69930869
-3.1317792 -4.2805667 0.6876241
-3.1397166 -4.2797399 0.69976479
-3.1215889 -4.2804079 0.69502014
-3.11748 -4.2840614 0.69967514
-3.1181307 -4.2968359 0.69745111
-3.1122234 -4.299521 0.69260883
-3.1106968 -4.303472 0.69030023
-3.1055443 -4.3074336 0.68943983
-3.0832961 -4.3104224 0.68603855
-3.0916579 -4.3153052 0.68776423
-3.0895693 -4.3215337 0.69100887
-3.0791593 -4.3216758 0.69947386
-3.0766027 -4.3296714 0.69165641
-3.0587845 -4.3395467 0.68456244
-3.1620135 -4.4858794 0.60917491
-3.1615434 -4.4826393 0.61535031
-3.1459091 -4.4838791 0.62192607
-3.1325774 -4.5059786 0.6088838
-3.1401 -4.5118475 0.61718804
-3.1310177 -4.5121026 0.60493606
-3.1202035 -4.5162992 0.61077368
-3.1261387 -4.5161219 0.62077922
-3.1036026 -4.5194302 0.60709012
-3.1088781 -4.5309687 0.60781848
-3.1012414 -4.526082 0.61631137
-3.0890985 -4.5269942 0.61246741
-3.0907743 -4.538548 0.61179829
-3.0858681 -4.5430522 0.61343569
-3.0739985 -4.5413661 0.61360103
-3.0738182 -4.5568919 0.6178996
-3.0658841 -4.547904 0.62238109
-3.1542292 -4.7034359 0.53152287
-3.1502273 -4.710608 0.54160589
-3.1399083 -4.729373 0.52450353
-3.1288548 -4.7268257 0.53663194
-3.1293023 -4.7184658 0.53218311
-3.1135876 -4.7381177 0.5405069
-3.118536 -4.7392058 0.52864444
-3.1018407 -4.7347722 0.54277641
-3.1049743 -4.7365127 0.52568239
-3.1038029 -4.7566791 0.54186749
-3.0981441 -4.7494345 0.53908163
-3.0834498 -4.7647724 0.53353941
-3.0786667 -4.7563825 0.5336383
-3.0709798 -4.7635365 0.54068172
-3.0711584 -4.777741 0.54047298
-3.1546912 -4.9372244 0.4451035
-3.1507673 -4.9340253 0.452903
-3.1386998 -4.9407525 0.44949627
-3.132494 -4.9372406 0.44869986
-3.1233761 -4.9391904 0.45207843
-3.1180673 -4.9621215 0.44703415
-3.1155379 -4.9570031 0.45097491
-3.0985448 -4.9537535 0.44761926
-3.1014466 -4.9694743 0.46141431
-3.0972991 -4.9720373 0.44529998
-3.093354 -4.9658914 0.44837227
-3.0848849 -4.9827127 0.45905802
-3.0686104 -4.9743638 0.44742149
-3.0557365 -4.9867125 0.44369224
-6.0897293 -2.9991477 0.11295003
-6.0995946 -3.011394 0.10739257
-6.0833259 -3.024745 0.10711737
-6.0903068 -3.017947 0.10169768
-6.0702977 -3.041569 0.10970818
-6.0671582 -3.0548928 0.10056063
-6.0696144 -3.0742056 0.10863841
-5.8846264 -2.9855821 0.18080769
-5.8974042 -2.9990857 0.18991862
-5.874063 -3.0066547 0.1753034
-5.8762679 -3.0221667 0.17585149
-5.878736 -3.0288842 0.19170609
-5.8666129 -3.0328851 0.18373983
-5.8595028 -3.0483885 0.17281006
-5.8705091 -3.0478399 0.19053252
-5.8503413 -3.0484231 0.18341592
-5.8593092 -3.0557456 0.18546519
-5.840188 -3.0663261 0.18123969
-5.6847801 -2.9879959 0.2702941
-5.6830215 -2.9961779 0.26146609
-5.6758671 -3.0107784 0.26535204
-5.6681533 -3.0120723 0.27074081
-5.6645737 -3.0254791 0.2603431
-5.6689496 -3.0360236 0.26265043
-5.6642437 -3.0418339 0.25370872
-5.6618047 -3.0517468 0.2523804
-5.6464715 -3.0549097 0.2519199
-5.6490774 -3.0632451 0.26906335
-5.6358981 -3.0831287 0.26683667
-5.4708858 -2.9970829 0.34291872
-5.4761271 -2.9962316 0.33379441
-5.4574718 -3.0118852 0.33130997
-5.4534173 -3.008189 0.34334648
-5.4597492 -3.0331089 0.33276045
-5.4437637 -3.0375752 0.34427997
-5.4567089 -3.0438652 0.33379659
-5.4509721 -3.0390954 0.34805423
-5.4456849 -3.0612166 0.34187469
-5.4432435 -3.0544543 0.34370351
-5.4230185 -3.0682995 0.33109722
-5.4252462 -3.0715804 0.34699699
-5.2567778 -2.9893534 0.41343775
-5.25072 -2.9981217 0.4126724
-5.2526159 -3.0174484 0.41462415
-5.2450876 -3.0250266 0.41974092
-5.2460294 -3.0297978 0.42619306
-5.2374439 -3.0330904 0.42503437
-5.234591 -3.0353646 0.40936792
-5.2379074 -3.0394771 0.40807122
-5.2393847 -3.0476549 0.42053074
-5.233458 -3.062361 0.4173049
-5.2116213 -3.0727198 0.41283816
-5.2218795 -3.0812156 0.42696363
-5.2128925 -3.0758123 0.4091168
-5.0438128 -2.9931529 0.48958597
-5.0478683 -3.0093825 0.49408114
-5.0454617 -3.0012629 0.50262058
-5.0442038 -3.0145364 0.49621662
-5.0386028 -3.0153823 0.49302495
-5.0342889 -3.0219719 0.48897454
-5.0175052 -3.0469115 0.49753106
-5.0239377 -3.0543013 0.50303578
-5.0148273 -3.056246 0.48734549
-5.0115814 -3.0535111 0.50435352
-5.0061727 -3.0641446 0.49736729
-4.9988303 -3.0830297 0.50121361
-5.0069833 -3.0837147 0.50023586
-4.8301868 -2.9905603 0.57158065
-4.8363199 -2.9926097 0.57057858
-4.8256354 -2.9945807 0.5700255
-4.8189917 -3.0040138 0.57156551
-4.823782 -3.0241346 0.5727424
-4.8230581 -3.0194099 0.57899541
-4.8180156 -3.0357144 0.57499826
-4.8159552 -3.0308948 0.56737643
-4.8008718 -3.0430274 0.56787223
-4.8019323 -3.0476172 0.57468009
-4.8039618 -3.0561242 0.58483577
-4.7931824 -3.0549531 0.57970852
-4.7833953 -3.0672948 0.57937098
-4.7741523 -3.0772004 0.57635516
-4.78336 -3.076113 0.57996738
-4.617043 -2.9984765 0.65359271
-4.6189418 -2.9998686 0.65910506
-4.6048288 -3.0034454 0.65616822
-4.5983286 -3.0161932 0.64782393
-4.6113238 -3.0142655 0.66160923
-4.5975018 -3.0186403 0.65360063
-4.5935154 -3.0365181 0.65347058
-4.5946474 -3.0289011 0.64769989
-4.5961075 -3.0363424 0.65871906
-4.580575 -3.0573018 0.65751493
-4.5814209 -3.0506022 0.66057914
-4.5671782 -3.0699911 0.64871305
-4.5674143 -3.0594654 0.65972614
-4.5705781 -3.0666468 0.64444149
-4.5620775 -3.0910397 0.65752864
-4.5597825 -3.0858359 0.65267926
-4.3934221 -2.997406 0.73492986
-4.3993926 -2.997613 0.73267841
-4.3911252 -3.0035326 0.72940624
-4.3918304 -3.0181811 0.7315892
-4.3737307 -3.0179458 0.72688019
-4.3725586 -3.0277469 0.72918487
-4.3832436 -3.0220723 0.72841197
-4.3629074 -3.0238585 0.72684824
-4.3578467 -3.0414503 0.72727627
-4.3596907 -3.0410619 0.73928654
-4.3663759 -3.0507019 0.72262526
-4.3493471 -3.0505006 0.73191124
-4.3545613 -3.0662284 0.74142587
-4.343039 -3.0668664 0.72243464
-4.3493252 -3.0736184 0.72981542
-4.3403125 -3.0834208 0.73352569
-4.3289862 -3.0881388 0.72903544
-4.3184242 -3.09676 0.72887772
-4.1800013 -2.9973061 0.81578684
-4.1707082 -2.9910066 0.810646
-4.1693964 -2.9956572 0.80196613
-4.1647382 -3.0075526 0.8195827
-4.1507859 -3.0089445 0.8075605
-4.1473107 -3.0231047 0.80098349
-4.1428185 -3.0278504 0.81373143
-4.1509376 -3.0278907 0.80274826
-4.1353378 -3.0409207 0.81311202
-4.1442208 -3.0477135 0.80091369
-4.1332536 -3.0498326 0.80695969
-4.133914 -3.0668502 0.80514354
-4.1197076 -3.0667558 0.80450928
-4.1141729 -3.0662107 0.8178063
-4.1110139 -3.0759292 0.81553233
-4.0998688 -3.0863962 0.80491292
-4.1152925 -3.0766034 0.81535673
-4.0979605 -3.0991695 0.81156331
-4.0916033 -3.0903847 0.82053691
-3.9483557 -2.9835508 0.88705444
-3.9439726 -3.0009973 0.89869249
-3.9335361 -3.0033774 0.89909226
-3.9249077 -3.0158317 0.88535964
-3.9369061 -3.0070403 0.89793932
-3.9155996 -3.0193861 0.88656187
-3.9165597 -3.0248919 0.89047253
-3.9081314 -3.0301342 0.88992536
-3.9092515 -3.0423653 0.89255518
-3.9141574 -3.0325682 0.88970697
-3.9100821 -3.0503795 0.88823563
-3.8980272 -3.047997 0.89483815
-3.8943267 -3.059375 0.88457537
-3.8902187 -3.0663297 0.88736707
-3.8798358 -3.0694952 0.8844533
-3.8768654 -3.0755746 0.89469057
-3.8852651 -3.0868416 0.88491338
-3.8697464 -3.0939159 0.89537901
-3.8747675 -3.0863535 0.89909279
-3.857151 -3.0879478 0.89807683
-3.8623753 -3.1097255 0.88471717
-3.7058671 -2.9882784 0.97774678
-3.7061064 -3.0026402 0.96630836
-3.6966012 -2.9971757 0.97336471
-3.7042971 -3.0056171 0.96269906
-3.6948996 -3.0153849 0.97139156
-3.6952574 -3.0178566 0.97424853
-3.6853855 -3.0291214 0.97545666
-3.6850405 -3.0297265 0.96964651
-3.6809745 -3.0370424 0.96765542
-3.6779175 -3.0339167 0.96929401
-3.6682129 -3.041821 0.96234524
-3.6640167 -3.054153 0.96622992
-3.6712523 -3.0611753 0.96076876
-3.6514239 -3.060096 0.97204977
-3.6622543 -3.0538292 0.95874065
-3.6443849 -3.0721374 0.96813172
-3.6436515 -3.0647976 0.97142386
-3.6417029 -3.0813446 0.95927089
-3.6455572 -3.0780644 0.9649564
-3.6313953 -3.095973 0.95891565
-3.6355879 -3.0884302 0.97011268
-3.6267223 -3.1009514 0.97411418
-3.6139648 -3.1049752 0.97622371
-3.6066613 -3.1134455 0.96453685
-3.4688215 -2.9968596 1.0427808
-3.4637001 -3.0066669 1.0492834
-3.4691806 -3.000037 1.048232
-3.4513624 -3.0157619 1.0557339
-3.4456904 -3.0196512 1.0516105
-3.4543262 -3.0136964 1.0546668
-3.4489958 -3.016259 1.0503483
-3.4324617 -3.0342872 1.0385847
-3.4319196 -3.0238967 1.0478674
-3.429261 -3.0305488 1.053744
-3.4382825 -3.0429623 1.0410961
-3.427599 -3.0544462 1.0434985
-3.4104061 -3.0556095 1.0373825
-3.414258 -3.0631602 1.0403876
-3.4106011 -3.0692511 1.0443434
-3.4110613 -3.0681968 1.0390879
-3.4084585 -3.0660379 1.0560982
-3.3901675 -3.0715773 1.0399024
-3.4036331 -3.0808136 1.0389134
-3.3878098 -3.0916374 1.0560828
-3.3861029 -3.0957353 1.0456433
-3.3770375 -3.0934093 1.0485184
-3.3855631 -3.0981562 1.0550227
-3.380198 -3.1110275 1.0387629
-3.3718212 -3.1045215 1.0411929
-3.3594823 -3.1227617 1.0494518
-3.2175968 -2.9975483 1.1231838
-3.2136645 -3.0032985 1.1175935
-3.2259216 -3.0068204 1.1275234
-3.2191617 -2.9988317 1.1313801
-3.2152259 -3.0134559 1.1158834
-3.2017236 -3.0233405 1.1274514
-3.2053397 -3.0260835 1.119005
-3.2024453 -3.0278006 1.1224135
-3.1958044 -3.0254865 1.1170483
-3.1867275 -3.0351861 1.1181573
-3.1893852 -3.0421543 1.1240444
-3.1768503 -3.049381 1.1286956
-3.1698995 -3.053062 1.1343328
-3.1730125 -3.0541861 1.132461
-3.1722627 -3.0555842 1.1204613
-3.1670032 -3.0676954 1.1230676
-3.1501696 -3.0676448 1.1274155
-3.1617763 -3.0689282 1.1345252
-3.1499684 -3.0678053 1.1284213
-3.1435194 -3.0818462 1.1170849
-3.1359556 -3.0827918 1.1232411
-3.1424983 -3.0954556 1.1266254
-3.1243834 -3.085428 1.1307778
-3.1206255 -3.1027789 1.1182491
-3.1187334 -3.103652 1.1287594
-3.1088345 -3.1035435 1.1315897
-3.1163235 -3.1108856 1.1188954
-3.1194582 -3.1141248 1.1293371
-3.0954776 -3.1098526 1.1253146
-3.0975945 -3.1234341 1.1316586
-3.0910418 -3.1337602 1.1214578
-3.0983267 -3.134944 1.1229883
-3.0822215 -3.1423342 1.1189356
-3.0819576 -3.1302936 1.1219146
-3.0742166 -3.1406939 1.1283977
-3.0759592 -3.1455348 1.11936
-3.0748656 -3.14221 1.127345
-3.0664601 -3.1663716 1.1164494
-3.0676069 -3.1509101 1.1341786
-3.0527704 -3.1619289 1.1226729
-3.1791837 -3.3032372 1.0466359
-3.1680067 -3.3039122 1.0522949
-3.1752932 -3.3128631 1.0548918
-3.1666262 -3.3059378 1.0538515
-3.1549737 -3.3156652 1.0467267
-3.1568322 -3.3315346 1.0390707
-3.1477222 -3.3307161 1.0390431
-3.1506212 -3.3259037 1.0391513
-3.1444097 -3.3466558 1.0390124
-3.1404626 -3.3369949 1.0521396
-3.128015 -3.3505769 1.0407099
-3.1330528 -3.3576028 1.0530559
-3.1324258 -3.3565416 1.0408952
-3.1291955 -3.3514466 1.0400975
-3.1069994 -3.3593385 1.0540038
-3.111922 -3.3737342 1.0364654
-3.1044946 -3.3636713 1.0441638
-3.0970888 -3.381165 1.0410866
-3.0895686 -3.377111 1.0416623
-3.0821812 -3.3937798 1.0562979
-3.0816605 -3.3826771 1.0417435
-3.0725636 -3.4012945 1.044549
-3.0711148 -3.4039731 1.0527946
-3.0818205 -3.4081156 1.0505078
-3.073318 -3.4147625 1.0446951
-3.0709031 -3.4110389 1.0488462
-3.0660207 -3.4246004 1.047413
-3.1759501 -3.5526621 0.97428685
-3.1662428 -3.5609119 0.96809983
-3.1559536 -3.566505 0.96957713
-3.1510229 -3.576314 0.96648347
-3.1606402 -3.5817688 0.96909225
-3.1474457 -3.5705233 0.97333568
-3.1459997 -3.574738 0.97774297
-3.1468341 -3.595211 0.9598031
-3.1334751 -3.5980356 0.96988016
-3.1359589 -3.6007504 0.9706822
-3.1198697 -3.5956569 0.96488976
-3.1183553 -3.6058326 0.97529149
-3.1230216 -3.6107013 0.96453726
-3.1062045 -3.6156278 0.96840423
-3.1124749 -3.6151664 0.97123957
-3.0961306 -3.6265113 0.9697367
-3.0955369 -3.6214175 0.96842808
-3.0905297 -3.6221712 0.97104877
-3.0834565 -3.6345851 0.97523999
-3.0862999 -3.6345084 0.96110451
-3.0683355 -3.6433742 0.97644365
-3.0761576 -3.6557631 0.96598125
-3.0735717 -3.6578619 0.97501713
-3.0617342 -3.6481938 0.96348649
-3.1638751 -3.8110669 0.89822471
-3.1651258 -3.8016074 0.88450921
-3.1678736 -3.8166218 0.88022637
-3.1519237 -3.8117027 0.87952155
-3.1533468 -3.8247902 0.89072722
-3.1505725 -3.8258071 0.88632709
-3.1419277 -3.8339515 0.89737153
-3.1379375 -3.8350158 0.88033038
-3.1244035 -3.8385983 0.88548636
-3.1218276 -3.835453 0.88459951
-3.1107764 -3.8417132 0.88633615
-3.1064351 -3.8545432 0.88197154
-3.1158035 -3.8554461 0.88702416
-3.1094484 -3.8657305 0.8814199
-3.1037922 -3.8627758 0.88714486
-3.0869241 -3.8623905 0.89626199
-3.0944502 -3.8787105 0.88163656
-3.0709257 -3.8763962 0.89034104
-3.0844367 -3.88591 0.87984991
-3.0727854 -3.8782165 0.89688331
-3.0620151 -3.884846 0.89202845
-3.0495019 -3.8925147 0.89870769
-3.1748064 -4.0397058 0.81029522
-3.161391 -4.0413256 0.81449294
-3.153574 -4.0426869 0.80598712
-3.1400256 -4.0525846 0.80220056
-3.1373541 -4.0554194 0.80642068
-3.1293018 -4.0601463 0.81727403
-3.1325388 -4.0638061 0.80292475
-3.126261 -4.0812435 0.82057291
-3.1229434 -4.0733447 0.81588781
-3.1244748 -4.0783739 0.80782253
-3.1193209 -4.0806947 0.80161476
-3.1040277 -4.0952554 0.81821924
-3.1045308 -4.0876594 0.81788588
-3.0935338 -4.0921826 0.81207037
-3.0863171 -4.0997071 0.80782813
-3.0748742 -4.1048584 0.80325907
-3.072572 -4.1189327 0.81942207
-3.0646131 -4.1124206 0.80253184
-3.059 -4.1282883 0.81791621
-3.0580661 -4.1313915 0.81263983
-3.1545639 -4.2829299 0.73085707
-3.1476846 -4.277164 0.73741138
-3.1441944 -4.2776232 0.73590565
-3.1410315 -4.2928128 0.73421311
-3.1436779 -4.28652 0.7293241
-3.1305606 -4.2945237 0.72360361
-3.1220062 -4.3059711 0.7281211
-3.1172826 -4.3152118 0.72345483
-3.1094432 -4.3045974 0.72721654
-3.1062131 -4.3188124 0.73216307
-3.1082535 -4.325923 0.73773056
-3.0935252 -4.3321362 0.73348808
-3.0922363 -4.3408475 0.73320252
-3.0924473 -4.3323908 0.74213481
-3.0743446 -4.3325815 0.74175942
-3.081125 -4.3456616 0.73777092
-3.0736198 -4.3562007 0.72671729
-3.0615911 -4.3480349 0.73079711
-3.1598449 -4.508636 0.6513117
-3.1484985 -4.5216045 0.66051382
-3.1521995 -4.5226507 0.64695424
-3.1303267 -4.5150118 0.6515218
-3.1326904 -4.5321331 0.6517095
-3.1353335 -4.535521 0.64467716
-3.1290381 -4.5268669 0.66176903
-3.1231122 -4.5310607 0.65008718
-3.1011684 -4.5338225 0.65216458
-3.1102724 -4.5506353 0.64669704
-3.0952904 -4.5461645 0.65549046
-3.0812423 -4.5566492 0.65573478
-3.0779862 -4.5571427 0.65934378
-3.0682836 -4.562077 0.65499389
-3.0740073 -4.575695 0.65791589
-3.0595372 -4.5782824 0.66183484
-3.0520935 -4.5809064 0.6587832
-3.1495705 -4.7369881 0.57735902
-3.1364911 -4.7445674 0.57607633
-3.1413281 -4.7476006 0.58233011
-3.1316266 -4.7420087 0.57739449
-3.1331255 -4.7487302 0.5663054
-3.1143739 -4.758564 0.57904541
-3.1120074 -4.7650695 0.57116437
-3.1139846 -4.763679 0.57396984
-3.0930338 -4.7742052 0.57848364
-3.0881579 -4.7836795 0.58465999
-3.0863276 -4.7750106 0.57207763
-3.0873699 -4.7798805 0.57632691
-3.0696888 -4.7962117 0.58194453
-3.065748 -4.7894711 0.57754689
-3.0667369 -4.7908664 0.57081068
-3.1575997 -4.9553008 0.50006902
-3.136709 -4.9690065 0.505732
-3.1436932 -4.971344 0.49714088
-3.1278656 -4.9593906 0.50236994
-3.1275182 -4.9692283 0.50246119
-3.1209884 -4.9839082 0.49554864
-3.1070347 -4.9863091 0.48808429
-3.1088259 -4.9777131 0.4885976
-3.1049931 -4.9918671 0.50015056
-6.118329 -2.9843965 0.15986753
-6.1178761 -3.0009487 0.15608367
-6.1216249 -3.008481 0.15365526
-6.1116748 -3.0093007 0.14582242
-6.100389 -3.0332317 0.16215691
-6.0944209 -3.034631 0.15827681
-6.0972557 -3.043021 0.14654531
-6.0858431 -3.0523314 0.14847486
-6.0923748 -3.0633833 0.16083762
-6.0929065 -3.07623 0.14777635
-5.9167948 -2.98791 0.22103496
-5.9163599 -3.0064957 0.22910042
-5.8996973 -3.0130317 0.23818612
-5.9054518 -3.0138309 0.23499873
-5.8990273 -3.0275693 0.23642103
-5.8962569 -3.0395768 0.22497886
-5.8973551 -3.0386679 0.23367569
-5.8901734 -3.0506074 0.22158486
-5.8810506 -3.0533516 0.22695902
-5.8795533 -3.0609121 0.22799756
-5.8711061 -3.0812321 0.22246177
-5.7033134 -2.9993918 0.30380872
-5.6908383 -3.0107813 0.30968386
-5.6892667 -3.0121403 0.30301741
-5.6908712 -3.0113013 0.31086409
-5.6910424 -3.0319297 0.31494901
-5.6826444 -3.0379059 0.30818245
-5.6855383 -3.0409613 0.31771016
-5.6805124 -3.0591662 0.31272164
-5.6701012 -3.060158 0.30839452
-5.6586399 -3.0769978 0.31196332
-5.6527038 -3.0736263 0.29966521
-5.5006733 -2.9935637 0.3811526
-5.4848156 -3.0043266 0.39205202
-5.4956136 -3.0209146 0.39175463
-5.4785542 -3.0219052 0.37878695
-5.4773993 -3.0187407 0.38779542
-5.4830003 -3.0427241 0.38169491
-5.4790626 -3.0459464 0.38532984
-5.460103 -3.0430331 0.37590748
-5.4654598 -3.0529461 0.37757376
-5.4672375 -3.0612209 0.39053404
-5.4613023 -3.0637095 0.38305917
-5.4510679 -3.0745373 0.39250568
-5.2894921 -2.9892552 0.4702419
-5.2887621 -3.002023 0.45746097
-5.2809896 -3.0178645 0.45551127
-5.2641983 -3.0235465 0.45723894
-5.2734971 -3.0295413 0.46339929
-5.2591505 -3.040837 0.46012172
-5.2542162 -3.0417614 0.4545742
-5.2476053 -3.0487449 0.46838894
-5.248024 -3.0540862 0.46734592
-5.2559071 -3.0534968 0.46310022
-5.2343335 -3.0760775 0.46064046
-5.2322125 -3.0821254 0.45280203
-5.0839796 -2.990818 0.53370428
-5.0767002 -3.0005057 0.53910261
-5.0676832 -3.0037203 0.54587764
-5.0524955 -3.0168273 0.54872215
-5.060576 -3.029249 0.53800195
-5.054194 -3.0193186 0.54765159
-5.053987 -3.0340765 0.53930759
-5.0348139 -3.040997 0.53889453
-5.039876 -3.0506339 0.54323661
-5.0273881 -3.0624502 0.54886037
-5.0227289 -3.0692265 0.53932488
-5.0343571 -3.0729127 0.54719764
-5.020577 -3.0717809 0.53894562
-5.0200119 -3.0796711 0.5446707
-4.8595734 -3.0029831 0.62225163
-4.8469996 -3.0008004 0.61963588
-4.8447671 -3.00265 0.60932869
-4.8508692 -3.0095749 0.61916131
-4.8373747 -3.025821 0.6264115
-4.8395286 -3.0338476 0.60889405
-4.8360491 -3.0414934 0.61164272
-4.8220959 -3.0450554 0.61774176
-4.8202605 -3.039135 0.61200297
-4.8266678 -3.0569575 0.62539852
-4.8073401 -3.0556779 0.62562293
-4.807622 -3.0660169 0.61482334
-4.8105097 -3.0783246 0.60896164
-4.8036952 -3.0809448 0.62295657
-4.8070388 -3.0942907 0.60748118
-4.6481671 -2.993876 0.68794811
-4.6418991 -2.9941492 0.69033378
-4.6328735 -3.0047181 0.69591552
-4.6177402 -3.0177097 0.69416952
-4.6283364 -3.0213761 0.70134717
-4.6255279 -3.0299921 0.69654423
-4.6224861 -3.0431762 0.68813646
-4.6102347 -3.0435438 0.69414908
-4.6038361 -3.0414023 0.68426341
-4.6034336 -3.0469189 0.68774772
-4.5984974 -3.0528436 0.69821227
-4.5902843 -3.0566938 0.69489115
-4.5796766 -3.0757205 0.68748295
-4.5834785 -3.0838251 0.69355905
-4.5890174 -3.0867462 0.70243871
-4.5673695 -3.0910881 0.68916637
-4.4178357 -2.9930456 0.76636744
-4.4095254 -2.9903669 0.7724539
-4.415194 -3.0055463 0.76712817
-4.4107399 -3.0045888 0.76272619
-4.4027925 -3.0229697 0.77883393
-4.4043722 -3.0174212 0.77751988
-4.3892641 -3.0255578 0.76360142
-4.3815556 -3.0417974 0.76799488
-4.387763 -3.0478864 0.77587759
-4.3850818 -3.0566466 0.76582271
-4.3756642 -3.0528815 0.7766276
-4.3662367 -3.0649986 0.77629024
-4.3707137 -3.0669854 0.76694673
-4.360508 -3.0687273 0.76472819
-4.3546958 -3.08674 0.77029026
-4.3527675 -3.0905592 0.76755649
-4.3521447 -3.0835059 0.76283592
-4.1952529 -2.9858124 0.84521866
-4.1842875 -3.0055447 0.85045117
-4.1854315 -3.0068572 0.85305518
-4.1766224 -3.003022 0.84555024
-4.177 -3.0140371 0.85204816
-4.1777067 -3.0138166 0.84267336
-4.1677489 -3.0276856 0.85766464
-4.1600018 -3.0400465 0.84074503
-4.1666842 -3.0347912 0.84610218
-4.1560922 -3.0532341 0.84460258
-4.1502128 -3.0492933 0.83970463
-4.1391416 -3.0585756 0.84094256
-4.1428294 -3.0531981 0.84673047
-4.1439056 -3.0632157 0.84221011
-4.1324787 -3.0778236 0.852525
-4.1345453 -3.0773592 0.84890527
-4.1259789 -3.0911655 0.85725516
-4.1224132 -3.0814617 0.83907712
-4.1157594 -3.1026855 0.85198122
-3.9764566 -2.986449 0.92946261
-3.9660842 -2.9995103 0.91950065
-3.960602 -3.0057702 0.9260655
-3.9538739 -2.9999959 0.92381096
-3.9413505 -3.0195835 0.91733581
-3.9533393 -3.0120382 0.92204392
-3.9350059 -3.0308616 0.9330017
-3.9402843 -3.025429 0.91593206
-3.9372051 -3.0407488 0.93433928
-3.9322965 -3.0337405 0.91728985
-3.9144759 -3.0390472 0.9311164
-3.9163654 -3.0581684 0.917431
-3.9082093 -3.0560021 0.9230293
-3.9134808 -3.07131 0.91993952
-3.9009991 -3.0583048 0.92279375
-3.8949847 -3.0815063 0.91871935
-3.9042549 -3.0705998 0.9213413
-3.9025595 -3.089205 0.93491
-3.8979261 -3.0889719 0.91866702
-3.8948779 -3.0880787 0.93493444
-3.8888717 -3.0936215 0.93139136
-3.725069 -2.9899261 1.0114166
-3.7190678 -2.9975369 1.0018933
-3.7274609 -2.9946983 1.0025403
-3.7189362 -3.0036652 1.001665
-3.7075503 -3.0109127 1.0030546
-3.7202315 -3.0117323 1.000811
-3.7102835 -3.0151668 1.0054165
-3.7067595 -3.0182853 0.99570322
-3.6994712 -3.022681 1.0123254
-3.6959083 -3.0454028 1.0088412
-3.6958814 -3.0326247 0.99909085
-3.6930211 -3.0380318 1.006953
-3.6796768 -3.0560257 1.002871
-3.6856785 -3.0496964 0.9950335
-3.6725481 -3.0561895 1.0051541
-3.678021 -3.0595796 0.99965471
-3.6657305 -3.0772445 0.99591464
-3.6688271 -3.0756156 0.99424392
-3.6616299 -3.0909359 0.99335957
-3.6578033 -3.0869379 0.99492919
-3.657454 -3.0871646 0.99444717
-3.6468477 -3.0887902 0.99372214
-3.6483722 -3.1013377 1.0001613
-3.6339717 -3.1041601 0.9980818
-3.487386 -2.997983 1.0718546
-3.4908559 -3.0015211 1.0701784
-3.4798183 -2.9970636 1.0759715
-3.4725142 -3.0000052 1.0885216
-3.4668739 -3.0200589 1.0708736
-3.4621112 -3.0206029 1.0823399
-3.4557722 -3.025121 1.0786895
-3.4699082 -3.0233641 1.0785177
-3.4647627 -3.0274692 1.0708965
-3.453171 -3.0415189 1.0855447
-3.4436524 -3.0333507 1.0713061
-3.4375532 -3.0528436 1.0784138
-3.4331234 -3.0454972 1.0748576
-3.442894 -3.0550516 1.0732324
-3.4401078 -3.0631776 1.0764202
-3.4349627 -3.0707593 1.0839249
-3.4183447 -3.0762269 1.0717664
-3.4253705 -3.0800631 1.0862139
-3.4125612 -3.0829923 1.0813994
-3.4073665 -3.0785758 1.0873724
-3.407517 -3.0888927 1.086345
-3.4018993 -3.0973694 1.0706499
-3.3891675 -3.1056821 1.0871204
-3.3999851 -3.1080382 1.07885
-3.3924212 -3.111887 1.0872612
-3.3816631 -3.1148765 1.0728921
-3.2478311 -3.0003884 1.1550497
-3.2418883 -3.0021884 1.1609614
-3.2414916 -2.9954855 1.1487273
-3.225903 -3.0079007 1.1656872
-3.2243354 -3.004786 1.1571015
-3.2237887 -3.0203798 1.1648045
-3.218931 -3.0275743 1.1489538
-3.2175961 -3.0299261 1.1555003
-3.2045255 -3.0290599 1.1629453
-3.2030375 -3.0417883 1.1521415
-3.1959124 -3.0406065 1.1554085
-3.2038224 -3.0376728 1.1614151
-3.1858146 -3.0385399 1.1586584
-3.1800346 -3.048022 1.1480144
-3.1772885 -3.0601463 1.1650074
-3.1831219 -3.0559402 1.1509227
-3.181246 -3.0710988 1.1541536
-3.1752148 -3.0691514 1.1595373
-3.1626306 -3.0783684 1.1502855
-3.1625955 -3.070339 1.1527978
-3.1533577 -3.079432 1.1609787
-3.1608469 -3.080689 1.1565737
-3.1423235 -3.0881982 1.1557764
-3.1465504 -3.0941939 1.1499658
-3.1414151 -3.101716 1.1564937
-3.1392808 -3.0993505 1.1516843
-3.1312251 -3.1193938 1.1561673
-3.1199322 -3.1176972 1.1670424
-3.1232495 -3.1277139 1.153139
-3.1158125 -3.121999 1.1516981
-3.1058571 -3.1313562 1.1655909
-3.1077149 -3.1325188 1.1626475
-3.1139715 -3.1394796 1.1566094
-3.1010194 -3.1349957 1.1489844
-3.0938716 -3.1497109 1.1582397
-3.1001902 -3.1466324 1.1542573
-3.0913119 -3.1598446 1.1546218
-3.0779445 -3.166117 1.1610674
-3.0736961 -3.1600654 1.1618744
-3.0833452 -3.1709421 1.1527686
-3.074429 -3.1762342 1.1586715
-3.071614 -3.1677613 1.1477721
-3.0717363 -3.1699283 1.1542655
-3.0578909 -3.1835322 1.1495905
-3.1792874 -3.3276231 1.0773427
-3.1836135 -3.3293726 1.0897081
-3.171916 -3.3266511 1.0731903
-3.1598475 -3.3349757 1.0747234
-3.1613274 -3.3434711 1.0866249
-3.161994 -3.3460405 1.0719604
-3.1517603 -3.344125 1.0763084
-3.1556175 -3.343832 1.0734276
-3.150368 -3.3481045 1.072672
-3.1386189 -3.3629808 1.0825982
-3.1315386 -3.356086 1.0859525
-3.1195009 -3.3781645 1.0720086
-3.1150916 -3.3731987 1.0852312
-3.1271939 -3.3808243 1.0745679
-3.1177573 -3.3745959 1.0798411
-3.1164129 -3.3937058 1.0869703
-3.1097269 -3.3872604 1.0804338
-3.0986869 -3.3893569 1.0786028
-3.0905216 -3.3908939 1.076905
-3.0831058 -3.4053788 1.0847301
-3.0857577 -3.4174862 1.0838429
-3.0850496 -3.4222646 1.0852633
-3.078279 -3.4273489 1.0760288
-3.07828 -3.4292567 1.0835416
-3.0689383 -3.426455 1.0816494
-3.0543172 -3.4270422 1.0850067
-3.052561 -3.4256828 1.0791625
-3.179846 -3.5759833 0.99836922
-3.1662526 -3.5850863 0.99757773
-3.174351 -3.5915313 1.0066346
-3.154618 -3.5853913 1.0079106
-3.155766 -3.6033123 1.008728
-3.1554873 -3.5992384 1.0087743
-3.1444371 -3.5999467 1.0112191
-3.1458678 -3.6161005 1.0007657
-3.1291845 -3.6024268 0.9940179
-3.129138 -3.6117964 0.99291593
-3.1149294 -3.6307454 1.0037476
-3.1243091 -3.6211052 1.0099199
-3.1144741 -3.6245735 0.99408436
-3.1155758 -3.6333251 1.0088185
-3.0953958 -3.6482472 1.0100545
-3.0943921 -3.6479194 0.9997803
-3.0933361 -3.6415763 0.9932065
-3.0898292 -3.6417048 0.99488056
-3.0767698 -3.6501975 0.99462301
-3.0704522 -3.6636968 1.0093836
-3.0652304 -3.668047 1.0095756
-3.069171 -3.666842 1.0037813
-3.0669332 -3.6808736 0.99888515
-3.0605249 -3.6810849 1.0095967
-3.1771965 -3.8281813 0.93253911
-3.1746078 -3.8375466 0.91735345
-3.1622872 -3.8309517 0.93284887
-3.1565342 -3.8459513 0.9325465
-3.149101 -3.8329995 0.92807525
-3.1419191 -3.8388433 0.9344213
-3.1399705 -3.8445852 0.9207266
-3.1378238 -3.8593931 0.93253893
-3.1214652 -3.8570952 0.9346146
-3.1299965 -3.8535266 0.92076689
-3.1078105 -3.8739533 0.926085
-3.1054766 -3.8771393 0.92647552
-3.0983222 -3.8733587 0.91789138
-3.0956664 -3.8891857 0.91873038
-3.093307 -3.8829455 0.91693676
-3.0954127 -3.8948965 0.93370712
-3.0911663 -3.8902774 0.92913598
-3.0806086 -3.8888965 0.93414956
-3.0782325 -3.896548 0.92584646
-3.0737748 -3.898128 0.92548966
-3.0631588 -3.9029253 0.92907637
-3.0672185 -3.9107978 0.93383974
-3.1642857 -4.0624642 0.84953946
-3.1563239 -4.0715218 0.85095906
-3.147517 -4.0836473 0.84295857
-3.1404974 -4.0833111 0.84733963
-3.1367013 -4.0841684 0.84066439
-3.1374705 -4.0799131 0.83968717
-3.1332197 -4.0987329 0.8553679
-3.1172659 -4.0985527 0.85377043
-3.1216629 -4.0932193 0.85167003
-3.1224668 -4.0974154 0.84598368
-3.0985014 -4.1107502 0.83844268
-3.1016312 -4.1218076 0.8462736
-3.1033351 -4.1097488 0.84640086
-3.0930336 -4.1163673 0.85127747
-3.0783448 -4.1248932 0.83970261
-3.0703254 -4.1398969 0.85678071
-3.0832772 -4.1363654 0.83942837
-3.0605421 -4.142601 0.84663814
-3.0593987 -4.1389613 0.84355462
-3.1698532 -4.2903495 0.76344144
-3.1562769 -4.2951746 0.77155036
-3.1502357 -4.3088751 0.77295142
-3.1563573 -4.3100309 0.77075273
-3.1423454 -4.3066425 0.76626897
-3.1434507 -4.3143296 0.77758491
-3.1361248 -4.3197665 0.77821445
-3.1317146 -4.3239307 0.76668495
-3.1246507 -4.3311419 0.7732206
-3.1103711 -4.3429971 0.76768899
-3.0991688 -4.3415966 0.76354432
-3.0908744 -4.3526273 0.77900416
-3.094465 -4.3436294 0.76518488
-3.0966485 -4.3467727 0.77462262
-3.0810246 -4.3619294 0.77185285
-3.0698786 -4.3642235 0.76579237
-3.0674107 -4.3652291 0.77868241
-3.064307 -4.3678684 0.77178717
-3.1584647 -4.520689 0.68485242
-3.1601317 -4.5342383 0.68762392
-3.1473243 -4.5426474 0.69614941
-3.1386552 -4.5488296 0.6979897
-3.1345203 -4.5446768 0.69316441
-3.1241984 -4.5487876 0.68952417
-3.1244328 -4.5433602 0.69504678
-3.1274309 -4.5528793 0.70258683
-3.1164832 -4.5660281 0.69342381
-3.1126397 -4.5621772 0.68591547
-3.095685 -4.5728564 0.70106715
-3.08846 -4.5715299 0.68709403
-3.0784574 -4.5837293 0.68912768
-3.0799232 -4.5735993 0.68938565
-3.0795429 -4.58568 0.69819456
-3.0639815 -4.5937905 0.68728197
-3.0520546 -4.5884933 0.68617672
-3.1567187 -4.7462201 0.62272489
-3.1515024 -4.7658501 0.6076858
-3.1354432 -4.768012 0.62085098
-3.1268861 -4.7596011 0.60768151
-3.1231711 -4.7703533 0.62017423
