# .PCD v0.7 - Point Cloud Data file format
VERSION 0.7
FIELDS x y z
SIZE 4 4 4
TYPE F F F
COUNT 1 1 1
WIDTH 1484
HEIGHT 1
VIEWPOINT 0 0 0 1 0 0 0
POINTS 1484
DATA ascii
-0.87004793 -3.0987551 1.9506419
-0.88077945 -3.0892718 1.9478748
-0.8732084 -3.1060524 1.9573941
-0.85404545 -3.096827 1.954017
-0.86380112 -3.1017356 1.9512843
-0.84918427 -3.0976026 1.9532515
-0.84371781 -3.0987601 1.9474888
-0.83797961 -3.1102338 1.943978
-0.84161901 -3.1150494 1.9439456
-0.84179401 -3.1138949 1.9532799
-0.82946694 -3.1182606 1.9622198
-0.8381986 -3.117692 1.9618784
-0.8296957 -3.1138875 1.9459854
-0.81167185 -3.1152575 1.9605411
-0.8170234 -3.1107221 1.9514052
-0.80510616 -3.1159103 1.9476131
-0.81122011 -3.1199746 1.9438684
-0.8030951 -3.1226447 1.9498491
-0.79847944 -3.1132996 1.9522069
-0.79389447 -3.1284771 1.9569057
-0.77997375 -3.1156764 1.9584193
-0.77711147 -3.115958 1.9616764
-0.77458912 -3.1320889 1.9499061
-0.7679581 -3.1345496 1.9579283
-0.76676995 -3.1267178 1.9516423
-0.77471614 -3.1313255 1.9613179
-0.76645285 -3.126406 1.9480735
-0.76193285 -3.1377218 1.953297
-0.75143063 -3.1287837 1.9489974
-0.75856924 -3.1396241 1.950646
-0.74100739 -3.140909 1.9462152
-0.74193048 -3.123698 1.9626163
-0.73959506 -3.1283329 1.9439939
-0.7290284 -3.1307063 1.944012
-0.73043817 -3.1362627 1.9529575
-0.71813256 -3.1341381 1.9583842
-0.71614981 -3.1481242 1.9498134
-0.7074101 -3.1419663 1.9510037
-0.71344548 -3.1496832 1.9622028
-0.7037791 -3.1489177 1.9636261
-0.69246262 -3.1349704 1.9448233
-0.70557564 -3.1463277 1.9442838
-0.70228612 -3.1397331 1.960156
-0.69761759 -3.1469562 1.9546947
-0.69292957 -3.1399751 1.9447111
-0.67929482 -3.1450758 1.95788
-0.68023205 -3.1525826 1.9580843
-0.66973877 -3.1557403 1.9454623
-0.65805382 -3.1493249 1.9461328
-0.65516841 -3.1576362 1.9485722
-0.65085834 -3.1590257 1.9459561
-0.6453498 -3.1579239 1.9529736
-0.64037937 -3.1579301 1.9475708
-0.63953567 -3.1576664 1.9559237
-0.64415187 -3.1571147 1.9522303
-0.63875043 -3.1473296 1.9444026
-0.6401788 -3.1628845 1.9500282
-0.62140161 -3.1523502 1.9534504
-0.61524522 -3.1545362 1.944236
-0.60841709 -3.1582437 1.9476521
-0.61914837 -3.1620488 1.9506143
-0.61249453 -3.1647549 1.9556078
-0.59882188 -3.1669011 1.9615183
-0.59055084 -3.1726155 1.9486097
-0.59392577 -3.1673591 1.9571639
-0.60099292 -3.1611159 1.9564079
-0.59588659 -3.1607168 1.9609958
-0.58515346 -3.1659572 1.9570105
-0.570997 -3.1694596 1.9517255
-0.56605375 -3.170553 1.9636132
-0.57769328 -3.1667986 1.9525695
-0.56636947 -3.1608119 1.9596876
-0.57005113 -3.165576 1.9455211
-0.5478211 -3.1664929 1.9464955
-0.5584985 -3.1752102 1.9535755
-0.54062068 -3.1754215 1.9477416
-0.54349774 -3.1749542 1.9631438
-0.5417859 -3.1681826 1.9541363
-0.52405822 -3.1716845 1.9624507
-0.5316146 -3.1746745 1.9504899
-0.52728218 -3.1737366 1.9630955
-0.51399237 -3.1859083 1.9624937
-0.51358336 -3.1861961 1.9579276
-0.50733995 -3.1886897 1.9532379
-0.50012106 -3.1862977 1.9606179
-0.50582129 -3.1904657 1.948568
-0.49735427 -3.1819499 1.9577602
-0.49348402 -3.176162 1.9544926
-0.49862048 -3.177088 1.9484854
-0.47544149 -3.1900122 1.9602443
-0.48422235 -3.1830475 1.9536914
-0.4803966 -3.1872373 1.9557104
-0.47717175 -3.1954634 1.9581791
-0.45851204 -3.1818924 1.9588857
-0.46454117 -3.18555 1.9627093
-0.46318924 -3.1793561 1.963084
-0.45388636 -3.1891446 1.9526871
-0.45539036 -3.1795132 1.9487845
-0.44016108 -3.1994696 1.9446563
-0.43093812 -3.1806993 1.9482977
-0.42995533 -3.1951635 1.9595916
-0.4355247 -3.1902559 1.9473776
-0.41907409 -3.1865785 1.9476126
-0.42015389 -3.1886978 1.9620878
-0.42052639 -3.2013032 1.9535683
-0.41707435 -3.1970146 1.9518993
-0.41324687 -3.1878822 1.9610922
-0.39981541 -3.2047133 1.9605607
-0.39028579 -3.1907761 1.9607106
-0.40488356 -3.1920772 1.9602625
-0.39583912 -3.1968582 1.9459759
-0.39549991 -3.1916718 1.9572161
-0.3873741 -3.194499 1.9527466
-0.37901241 -3.2028711 1.9467646
-0.37617478 -3.1960814 1.9487776
-0.36185592 -3.1903064 1.9556735
-0.36920533 -3.2051713 1.9522899
-0.36736104 -3.1910734 1.9526569
-0.34604755 -3.1919148 1.9475367
-0.34458342 -3.1918242 1.9616846
-0.34356669 -3.2071595 1.9516145
-0.33683586 -3.2066274 1.9472876
-0.33886415 -3.2024417 1.9606839
-0.32536134 -3.1943674 1.9462526
-0.3378399 -3.2079291 1.9591489
-0.32830474 -3.2116468 1.958352
-0.31187305 -3.2071888 1.9632154
-0.31882423 -3.2053628 1.9626961
-0.30540785 -3.2067001 1.9618483
-0.29711103 -3.2110505 1.961598
-0.29466578 -3.1988626 1.9465127
-0.30229002 -3.2044225 1.9524537
-0.29424059 -3.2164903 1.9630684
-0.29279414 -3.1995354 1.962239
-0.28577843 -3.1995399 1.9483234
-0.28586584 -3.2144909 1.9511592
-0.26674968 -3.2174923 1.9589157
-0.26276949 -3.2119279 1.9489549
-0.25930807 -3.2174304 1.9581074
-0.2566939 -3.2191203 1.9633532
-0.2543295 -3.2028494 1.961225
-0.24704991 -3.2186882 1.9539683
-0.25382879 -3.2109635 1.9550692
-0.24999249 -3.2062788 1.9535438
-0.246985 -3.2190654 1.9524266
-0.23789275 -3.2164271 1.9567647
-0.22596414 -3.2191608 1.9585017
-0.22627854 -3.222403 1.946197
-0.21655326 -3.2066731 1.9487774
-0.21767519 -3.2128189 1.9500494
-0.21355079 -3.2210908 1.9479671
-0.21155418 -3.2065737 1.9504148
-0.19681382 -3.2233272 1.9609498
-0.20097223 -3.220736 1.9565258
-0.18665557 -3.21963 1.9596651
-0.19345577 -3.2139244 1.9457862
-0.17591737 -3.2207835 1.9495112
-0.17664167 -3.212451 1.9503249
-0.16967027 -3.2188873 1.9471931
-0.18011808 -3.2109404 1.9582342
-0.16929363 -3.2233641 1.9613158
-0.16055107 -3.2182868 1.9592201
-0.14936045 -3.2229652 1.9606708
-0.14763451 -3.2162983 1.945006
-0.15033227 -3.2198117 1.9507344
-0.1498905 -3.2146225 1.9624492
-0.14332719 -3.2163925 1.9475794
-0.1330387 -3.2233849 1.9613103
-0.12193624 -3.2279041 1.9488668
-0.13396516 -3.2273698 1.9446261
-0.11495279 -3.2205102 1.9482108
-0.11285865 -3.2094076 1.957116
-0.11285988 -3.2116139 1.9615794
-0.11141017 -3.2165945 1.9529402
-0.10562507 -3.2287731 1.9610119
-0.094111316 -3.2250106 1.9544905
-0.090882547 -3.2191858 1.9464109
-0.082523443 -3.2275739 1.9515442
-0.08043316 -3.2293611 1.9523572
-0.070786133 -3.227679 1.9538972
-0.085379735 -3.2114868 1.9624833
-0.076388374 -3.2177026 1.9623522
-0.058491748 -3.2284224 1.9601885
-0.056131467 -3.2221954 1.9532119
-0.062410265 -3.2146862 1.9542179
-0.060617339 -3.2201667 1.9591414
-0.045345593 -3.2269218 1.9500381
-0.038153443 -3.2298217 1.9526891
-0.045827895 -3.2151351 1.953689
-0.03268918 -3.2153056 1.9565006
-0.038010374 -3.2145739 1.9556282
-0.034745447 -3.2293553 1.9486568
-0.031611532 -3.2307446 1.9510766
-0.010641177 -3.2142785 1.9598281
-0.01664735 -3.228596 1.956187
-0.001647481 -3.2256258 1.9471575
-0.0017242105 -3.2118888 1.9514585
0.0090958299 -3.2154648 1.952939
0.0025669073 -3.2312207 1.9491792
0.017037882 -3.2183435 1.9453157
0.014320549 -3.2152929 1.9622444
0.010730674 -3.2134831 1.9444458
0.020169502 -3.2130451 1.9453057
0.032028127 -3.2161424 1.9626733
0.032638211 -3.2297518 1.9457587
0.029607138 -3.2128673 1.9518435
0.037546452 -3.2205653 1.9516878
0.049786653 -3.2219491 1.9479724
0.04350733 -3.2143679 1.9485111
0.053468145 -3.2168217 1.9619309
0.059565403 -3.2264986 1.9583986
0.062591225 -3.2242715 1.9566674
0.067818373 -3.2171116 1.9553591
0.073905319 -3.2225988 1.9509319
0.077359781 -3.2119818 1.9528677
0.083899483 -3.2289019 1.9516542
0.076523766 -3.2223883 1.9627023
0.088992253 -3.2281401 1.9523197
0.097745173 -3.2246771 1.9494656
0.10703662 -3.2157588 1.9440986
0.10974766 -3.2252486 1.9489889
0.10892627 -3.216218 1.9560347
0.10637346 -3.2264657 1.9501622
0.12251214 -3.2151315 1.9587182
0.11422349 -3.224848 1.9578003
0.12787041 -3.2125297 1.9598655
0.14030351 -3.2120917 1.9483409
0.14378445 -3.22369 1.9509548
0.13688271 -3.2110398 1.9569159
0.1471266 -3.2136025 1.951673
0.15200314 -3.2179582 1.9568119
0.16176976 -3.2276394 1.9508464
0.15858179 -3.2243772 1.9544922
0.16952111 -3.2094798 1.9493247
0.16901603 -3.2273743 1.9542873
0.16759279 -3.216125 1.9514081
0.16823444 -3.2169456 1.9488006
0.17735119 -3.2187879 1.9544221
0.1890815 -3.2120345 1.9525149
0.18677256 -3.2195392 1.9478599
0.19922046 -3.2066693 1.9586576
0.19680679 -3.2085345 1.9595764
0.20842728 -3.2180889 1.9635534
0.2036932 -3.221205 1.9622176
0.21379133 -3.2093272 1.9627705
0.20885152 -3.2233729 1.9543498
0.22103216 -3.221277 1.9448791
0.2306048 -3.2145643 1.9533306
0.22579858 -3.2206209 1.9482939
0.23908478 -3.2134855 1.9555043
0.24771552 -3.218401 1.9553303
0.24714351 -3.2102287 1.9530303
0.24748988 -3.2149339 1.960909
0.25181285 -3.2088706 1.9453982
0.25479946 -3.2172067 1.9614857
0.25833848 -3.2149796 1.9632418
0.27345622 -3.2050683 1.9468014
0.27910283 -3.2100806 1.9567754
0.27320048 -3.2043946 1.9603881
0.28226086 -3.2099178 1.9508253
0.27853113 -3.2113051 1.9560298
0.2946268 -3.2177587 1.949083
0.28842199 -3.2083597 1.9571012
0.2900953 -3.1991313 1.9508464
0.29625723 -3.2114093 1.9559132
0.2985062 -3.2046409 1.9628583
0.30251062 -3.2072465 1.9593598
0.31007412 -3.2086971 1.9504879
0.32761094 -3.200541 1.9469342
0.32875991 -3.2078152 1.9574838
0.32034543 -3.2033088 1.9462659
0.33713475 -3.2071962 1.9482082
0.34697673 -3.2017775 1.9591568
0.34483635 -3.1991737 1.9589347
0.35644051 -3.1948957 1.9460294
0.35311073 -3.2128558 1.9594814
0.35672539 -3.2112982 1.9499098
0.35684088 -3.2066634 1.9584637
0.36808372 -3.208977 1.9547433
0.3757723 -3.1946263 1.9633123
0.37400967 -3.1931744 1.9559447
0.3810285 -3.1994169 1.9442406
0.3899889 -3.2003002 1.9575
0.38989705 -3.2078063 1.9529016
0.38958243 -3.20819 1.9521133
0.39636186 -3.1963844 1.9528905
0.39659244 -3.2054446 1.9547449
0.40725067 -3.1988688 1.9607478
0.40646198 -3.2055292 1.9439441
0.4219521 -3.1889794 1.9609917
0.42601046 -3.1986699 1.9589857
0.42270046 -3.1858184 1.9502256
0.42768559 -3.1884828 1.9600641
0.42592931 -3.1957142 1.9618722
0.43957373 -3.1877353 1.9627663
0.43242905 -3.1974506 1.9549291
0.44606078 -3.1914089 1.9574888
0.44154614 -3.1991811 1.946075
0.46303341 -3.1922138 1.9474452
0.4677161 -3.1942275 1.9448034
0.46944556 -3.1966527 1.951903
0.46916813 -3.1868572 1.95128
0.48012966 -3.1965454 1.9474121
0.48092881 -3.1924574 1.955726
0.48353517 -3.1791918 1.9514259
0.48703465 -3.177537 1.9568111
0.48269603 -3.1867156 1.9476326
0.50091618 -3.1848733 1.9500699
0.50772154 -3.1860073 1.9588567
1.1663129 -4.9921179 1.3236705
1.1743646 -4.9948263 1.3267636
1.1895136 -4.9822693 1.3390155
1.2040373 -4.9832077 1.3409364
1.1946909 -4.987802 1.3262962
1.2136561 -4.9742451 1.3242661
1.2083187 -4.9816422 1.3232291
1.2283641 -4.9778309 1.3323456
1.2392286 -4.9802513 1.3226302
1.2325283 -4.9803171 1.3311006
1.2346122 -4.9766588 1.3379705
1.2428427 -4.9719172 1.3405014
1.2541639 -4.9589934 1.3339489
1.2577345 -4.9585099 1.3248079
1.2632238 -4.9743352 1.3294127
1.2740701 -4.9581547 1.325905
1.282884 -4.9542689 1.3333207
1.2906584 -4.9572926 1.3228589
1.3075467 -4.9564042 1.3282781
1.3147172 -4.9491668 1.3319228
1.3103555 -4.9467931 1.337508
1.3128613 -4.9431343 1.3261067
1.3178954 -4.9550977 1.3258917
1.3363743 -4.9504304 1.3244128
1.3457097 -4.9472127 1.325352
1.3396473 -4.9400835 1.3407049
1.3500745 -4.9510741 1.3381672
1.3679149 -4.9412212 1.3308196
1.375291 -4.9414082 1.3225644
1.3680835 -4.9413505 1.3397415
1.384518 -4.9325771 1.337477
1.386535 -4.9282193 1.3370464
1.3971481 -4.9257455 1.3228182
1.4075435 -4.9317079 1.3314129
1.4164573 -4.9352484 1.3413718
1.4263076 -4.9317613 1.336596
1.4315078 -4.9247546 1.3389564
1.4341677 -4.9268131 1.3292869
1.4294772 -4.9283977 1.3375382
1.4365288 -4.9240899 1.3239453
1.4607546 -4.9102449 1.3372136
1.4627131 -4.9212775 1.3329185
1.4642382 -4.9085884 1.3291664
1.4715323 -4.9123936 1.3375111
1.4874183 -4.9141712 1.3403652
1.4932603 -4.912982 1.3247464
1.4943235 -4.9134741 1.3341644
1.4977443 -4.8981843 1.339545
-2.4902117 -4.7009854 1.3080529
-2.4938848 -4.6956706 1.3124611
-2.4779119 -4.7033272 1.3166864
-2.469991 -4.7131448 1.3028293
-2.4646533 -4.7130232 1.318
-2.4652851 -4.7109137 1.3182944
-2.4542274 -4.7220745 1.3073709
-2.4443305 -4.7183585 1.3080909
-2.4481883 -4.7238336 1.3122838
-2.4380138 -4.7320561 1.3041091
-2.4355738 -4.7402372 1.3137578
-2.4201026 -4.7386613 1.312215
-2.4202182 -4.7476883 1.3065
-2.4161041 -4.735374 1.3144425
-2.4058423 -4.7443066 1.3059726
-2.4004052 -4.7604609 1.3030688
-2.3946688 -4.752152 1.3124516
-2.3798513 -4.7605453 1.3089893
-2.3843093 -4.7594008 1.3034805
-2.3645697 -4.7746902 1.3131692
-2.3529999 -4.7741537 1.3180875
-2.3517771 -4.7647638 1.3079829
-2.3520923 -4.7821131 1.3122436
-2.3381178 -4.7819757 1.3122016
-2.3361964 -4.7782092 1.3066003
-1.4871969 -3.063071 1.9156343
-1.499032 -3.0802453 1.9089068
-1.4814813 -3.069252 1.9171318
-1.4873902 -3.069371 1.9098378
-1.4788047 -3.0764098 1.9105814
-1.4805278 -3.0785427 1.9151795
-1.4773295 -3.0861211 1.9124758
-1.464233 -3.0806878 1.9157221
-1.466873 -3.0879579 1.9223956
-1.4495521 -3.0999887 1.916116
-1.4578296 -3.0852504 1.915674
-1.4444956 -3.0866466 1.9201547
-1.4378861 -3.0947943 1.9177196
-1.443049 -3.0931561 1.9172503
-1.4355028 -3.1072407 1.911821
-1.4272105 -3.1073594 1.9263318
-1.434317 -3.1085939 1.9153309
-1.4241246 -3.1010489 1.911824
-1.4106829 -3.1004634 1.9231017
-1.4105651 -3.1068797 1.9243971
-1.4167242 -3.1058986 1.9224737
-1.4033223 -3.115912 1.9211906
-1.4054371 -3.123647 1.9137902
-1.3899843 -3.1208787 1.9100524
-1.394998 -3.1149011 1.9142483
-1.3854382 -3.1249707 1.9203379
-1.3813649 -3.1264892 1.9071993
-1.3682898 -3.1221602 1.923606
-1.378719 -3.1287377 1.9225922
-1.3778678 -3.1395481 1.9171503
-1.3557184 -3.140871 1.9146712
-1.3554897 -3.1331484 1.9241546
-1.3565415 -3.1318996 1.9078729
-1.3449911 -3.1395595 1.9163231
-1.3371757 -3.1365976 1.9127085
-1.3451618 -3.1484432 1.9209758
-1.3470557 -3.1405854 1.90967
-1.3420856 -3.1440253 1.9246322
-1.3207061 -3.1422696 1.9149501
-1.3203379 -3.1440406 1.9163846
-1.3254089 -3.1480427 1.918417
-1.3129565 -3.1561997 1.9100868
-1.3110181 -3.1497946 1.9249141
-1.3053588 -3.1562278 1.9139839
-1.3112468 -3.1592369 1.9079119
-1.3007467 -3.1546261 1.9118845
-1.3019768 -3.1563058 1.9255991
-1.2945101 -3.1574144 1.9177517
-1.2920787 -3.1615455 1.9135319
-1.2076755 -2.9931443 1.9701492
-1.2137333 -2.99069 1.9838811
-1.1977564 -3.0001931 1.9713093
-1.1901073 -2.9921703 1.9869897
-1.1876285 -3.0029035 1.978078
-1.1960776 -3.003942 1.9679919
-1.1905963 -2.9989011 1.9843452
-1.1811402 -2.9995129 1.9808414
-1.1779671 -2.9970834 1.978045
-1.1626391 -3.0166504 1.9729276
-1.1715287 -3.0078959 1.9814466
-1.1645411 -3.0093856 1.9741179
-1.1638194 -3.0190871 1.9789779
-1.1556672 -3.0053303 1.9735469
-1.1518323 -3.0132883 1.9790629
-1.1369069 -3.013891 1.9852146
-1.1320653 -3.0132105 1.9780757
-1.1308681 -3.0272741 1.9719876
-1.1331725 -3.0223672 1.9699858
-1.1182712 -3.0263374 1.9700679
-1.1284851 -3.0234044 1.9805493
-1.1101776 -3.0176935 1.9711802
-1.1191967 -3.0354726 1.9737428
-1.1033535 -3.0293138 1.9716895
-1.1129392 -3.0235364 1.9832995
-1.0970067 -3.0270522 1.9759225
-1.0949204 -3.029947 1.9708354
-1.0999708 -3.0358682 1.9732887
-1.091107 -3.0283189 1.9822464
-1.0842431 -3.0300958 1.9688258
-1.0772948 -3.0463164 1.9799242
-1.079863 -3.0484617 1.9783137
-1.0717982 -3.0438602 1.9804981
-1.0611687 -3.0476518 1.9704096
-1.0725905 -3.0452678 1.9676609
-1.0524 -3.051192 1.9829528
-1.0595846 -3.0392728 1.9769001
-1.051854 -3.056649 1.9864709
-1.0416682 -3.0494087 1.9851296
-1.0425227 -3.0595539 1.9835439
-1.0367956 -3.0470021 1.9872643
-1.039968 -3.0612721 1.9703602
-1.024749 -3.0517333 1.9795724
-1.0273435 -3.0558226 1.9865018
-1.0200245 -3.0555937 1.9773182
-1.0154521 -3.0594366 1.9837073
-1.015586 -3.0547278 1.9835066
-1.0017705 -3.0665548 1.9674145
-0.99838221 -3.0724645 1.9800419
-0.9963333 -3.0634985 1.9839972
-0.99586815 -3.0730782 1.9819713
-0.99168062 -3.0701046 1.9871364
-0.98439521 -3.0761883 1.9832956
-0.98789567 -3.069145 1.9768144
-0.9844647 -3.0790634 1.9720055
-0.9702155 -3.0686917 1.9847909
-0.96957529 -3.0827384 1.9837162
-0.96913385 -3.0872562 1.9722399
-0.96478254 -3.072674 1.9762732
-0.94780201 -3.0803332 1.9706855
-0.94686431 -3.09182 1.9769255
-0.9479506 -3.0834134 1.9675403
-0.94386995 -3.0920179 1.9734665
-0.94362825 -3.0884209 1.9678252
-0.92986584 -3.0856931 1.9736488
-0.94091058 -3.0930183 1.9712212
-0.91916794 -3.0840073 1.9761181
-0.9184981 -3.0988607 1.9778624
-0.90930295 -3.0936708 1.975548
-0.91607267 -3.0958102 1.9869273
-0.90842831 -3.1013231 1.9681671
-0.91454214 -3.092236 1.9791543
-0.91003937 -3.1033838 1.9828722
-0.89960855 -3.0986068 1.9715163
-0.89481729 -3.1043866 1.9842107
-0.88420069 -3.1055319 1.970897
-0.87600994 -3.1092572 1.967905
-0.88292056 -3.0966375 1.9713645
-0.86808515 -3.0991488 1.9813126
-0.87556243 -3.1127582 1.9704143
-0.87165868 -3.1030529 1.9752893
-0.86651349 -3.1037934 1.9705323
-0.85037923 -3.1043646 1.9759021
-0.85052538 -3.1188402 1.9873172
-0.84202588 -3.1128619 1.9742151
-0.84083027 -3.1206057 1.9812239
-0.83294666 -3.1244993 1.9857577
-0.82805336 -3.1196458 1.9841554
-0.83969891 -3.124301 1.98128
-0.82139474 -3.1207793 1.9860274
-0.81398737 -3.1177011 1.9817059
-0.8217032 -3.113827 1.9778639
-0.81417453 -3.1181698 1.9746646
-0.80127442 -3.1270111 1.9781972
-0.79695761 -3.1317072 1.96891
-0.80574131 -3.1195636 1.9730746
-0.78751457 -3.1238937 1.974535
-0.78475249 -3.1276901 1.9820322
-0.78359115 -3.1274929 1.9860516
-0.78530365 -3.1333542 1.974764
-0.78226721 -3.1361721 1.9677194
-0.7835508 -3.1310716 1.985708
-0.76867479 -3.1428096 1.9805068
-0.75699669 -3.1260169 1.9676111
-0.76178437 -3.1292777 1.9711599
-0.75585783 -3.1456945 1.9679869
-0.74576515 -3.1482582 1.981612
-0.75421065 -3.1324353 1.9725631
-0.73515731 -3.139828 1.9848276
-0.73208314 -3.1333113 1.9723411
-0.74029517 -3.1481383 1.9781406
-0.73555028 -3.1486306 1.9701384
-0.73281538 -3.1386297 1.9714898
-0.71528023 -3.1413352 1.9707196
-0.71063942 -3.1532147 1.967768
-0.72244829 -3.1435549 1.9694729
-0.71742874 -3.1481919 1.9696811
-0.69878274 -3.1456647 1.9867734
-0.70918429 -3.1484761 1.9775281
-0.68731987 -3.152607 1.975848
-0.69794065 -3.1493447 1.9803834
-0.6827606 -3.1457341 1.9854633
-0.67558128 -3.1637862 1.9815742
-0.68704921 -3.1487026 1.9760036
-0.67928606 -3.1533787 1.9795718
-0.67447329 -3.1542659 1.9738115
-0.66795427 -3.154537 1.9844202
-0.66122562 -3.160567 1.9785554
-0.65740341 -3.1614051 1.9708728
-0.64282525 -3.1647861 1.9800464
-0.64992595 -3.163197 1.9734633
-0.63248986 -3.1708386 1.9714658
-0.6299727 -3.1557124 1.9723848
-0.63134331 -3.1564672 1.9693501
-0.63828319 -3.1738734 1.9825957
-0.62165362 -3.1708825 1.9759042
-0.6107831 -3.1657896 1.9698856
-0.60930282 -3.1783867 1.9787749
-0.61368597 -3.1715813 1.9677579
-0.60575062 -3.1746187 1.9742854
-0.60864043 -3.169179 1.9833211
-0.59811217 -3.1707268 1.9856286
-0.58958024 -3.1741824 1.9839693
-0.58012801 -3.1834347 1.9824558
-0.59370935 -3.1840541 1.9844309
-0.57404399 -3.1724727 1.9702851
-0.58106899 -3.1744506 1.9821143
-0.57411134 -3.1793792 1.9822224
-0.55826336 -3.1731234 1.970006
-0.55343121 -3.1833656 1.9756156
-0.56207055 -3.1809323 1.9675223
-0.56167305 -3.1724067 1.9787323
-0.53896689 -3.1797862 1.9873319
-0.53791898 -3.1821516 1.9675179
-0.53838342 -3.1825378 1.9679168
-0.53687173 -3.1876993 1.9807239
-0.52950478 -3.1843274 1.972373
-0.53030759 -3.1784408 1.9799076
-0.53100115 -3.1811502 1.9745058
-0.52391022 -3.1834724 1.9796634
-0.51120865 -3.1788802 1.9680494
-0.50659931 -3.1783378 1.9857503
-0.5107789 -3.1795378 1.9768546
-0.50635803 -3.1841393 1.98637
-0.50175017 -3.1936557 1.9762697
-0.49674228 -3.1861122 1.9817722
-0.47892645 -3.1956544 1.9714044
-0.48946044 -3.1904533 1.9676752
-0.47245896 -3.1904004 1.9819821
-0.4808583 -3.1877124 1.9747062
-0.46409914 -3.19678 1.9727553
-0.45895296 -3.1856959 1.9720738
-0.45610502 -3.2032502 1.9709128
-0.46215191 -3.2008438 1.9858649
-0.45868242 -3.1982901 1.9720085
-0.44531238 -3.1951907 1.9863975
-0.44643894 -3.1987381 1.97194
-0.43793231 -3.1972833 1.9833732
-0.43315408 -3.2032919 1.9755422
-0.43406802 -3.2021654 1.9710761
-0.42225716 -3.2087467 1.9782134
-0.41239625 -3.194649 1.9770993
-0.4232161 -3.202172 1.9790888
-0.415196 -3.2002115 1.9841369
-0.4122231 -3.1992517 1.9723842
-0.40310577 -3.2093933 1.9843705
-0.39959857 -3.2051332 1.9734426
-0.39054811 -3.1968396 1.9845964
-0.39006373 -3.2082417 1.9703623
-0.37740949 -3.2050323 1.977869
-0.36922053 -3.2144878 1.9794028
-0.37389353 -3.1985588 1.975636
-0.35968 -3.1979268 1.9849418
-0.36347616 -3.213753 1.9767977
-0.36222351 -3.2110848 1.9701964
-0.35272282 -3.2037792 1.9740306
-0.35123509 -3.217447 1.9826953
-0.34067458 -3.2065456 1.9802181
-0.33895963 -3.2196417 1.9868968
-0.33147809 -3.2045665 1.9773365
-0.33648911 -3.205786 1.9788665
-0.31996566 -3.2161629 1.9768646
-0.32720831 -3.2168114 1.9760278
-0.3251445 -3.2057419 1.9798917
-0.31122422 -3.2179062 1.9869441
-0.30390456 -3.2050571 1.9818162
-0.31275007 -3.2152085 1.9835286
-0.29293022 -3.2192881 1.976644
-0.29558709 -3.2061422 1.9771587
-0.29156467 -3.2100048 1.9732375
-0.29710189 -3.2233691 1.9685798
-0.28110862 -3.2247016 1.9740217
-0.28711659 -3.2177687 1.9792852
-0.2739608 -3.2132649 1.9760824
-0.27694055 -3.2193341 1.9811729
-0.27286744 -3.2225778 1.9795637
-0.2539216 -3.2191617 1.9682482
-0.25326288 -3.2204208 1.9732921
-0.25948814 -3.208833 1.9719144
-0.24519826 -3.2177191 1.9871004
-0.23482901 -3.2166395 1.969342
-0.22911705 -3.2240641 1.9706647
-0.23796274 -3.2219951 1.9793278
-0.2215443 -3.2112691 1.9728959
-0.22832823 -3.2280223 1.9807894
-0.23002127 -3.2252021 1.9858279
-0.21332306 -3.2279367 1.9746647
-0.20793985 -3.2145135 1.9826182
-0.19751239 -3.231817 1.9825294
-0.20846215 -3.2193325 1.9739178
-0.20422551 -3.2209814 1.9867429
-0.19774689 -3.2214212 1.9724939
-0.18994506 -3.2152104 1.9806584
-0.19347976 -3.2170849 1.979887
-0.18344608 -3.2302477 1.9826945
-0.18551844 -3.2296088 1.9686476
-0.162552 -3.2167766 1.9721855
-0.17074837 -3.2230673 1.9694595
-0.17099085 -3.2234364 1.9697368
-0.15132186 -3.2192621 1.9827988
-0.16026415 -3.2153583 1.974506
-0.15638104 -3.2294831 1.9860611
-0.14674661 -3.220314 1.9841087
-0.14894737 -3.2191877 1.9805567
-0.13191919 -3.2325366 1.9841108
-0.1320833 -3.2324667 1.9685665
-0.12629405 -3.2339396 1.9861106
-0.11696666 -3.2281187 1.977614
-0.11036494 -3.2270503 1.9689919
-0.1034857 -3.2308233 1.9847814
-0.1035442 -3.2280493 1.9847058
-0.11189524 -3.2259033 1.9707302
-0.10869094 -3.2186339 1.9861419
-0.087438911 -3.2180772 1.982892
-0.08973857 -3.225004 1.9864991
-0.088483989 -3.2366073 1.9703757
-0.082773469 -3.2269337 1.9729723
-0.079518728 -3.2324455 1.9815767
-0.064760365 -3.2358685 1.9714302
-0.058624029 -3.2369256 1.9776849
-0.056698054 -3.2225547 1.9868815
-0.054847475 -3.2210486 1.9783859
-0.04697248 -3.2208521 1.9773148
-0.043685544 -3.2239177 1.9769496
-0.043648422 -3.2337973 1.9698001
-0.040004082 -3.2269368 1.9711839
-0.032483157 -3.2388806 1.9823712
-0.022365484 -3.2320845 1.9681705
-0.023643274 -3.2350452 1.9706641
-0.015067573 -3.2363846 1.9722118
-0.020237124 -3.2203135 1.9682353
-0.016209962 -3.2269075 1.9858634
-0.0006783515 -3.2301421 1.9837803
-0.0062177638 -3.2346056 1.9787173
0.0078776227 -3.2235479 1.9838544
0.014823587 -3.2333617 1.9759252
0.0031532736 -3.2201707 1.9761192
0.022670297 -3.2213783 1.9831698
0.027986601 -3.22838 1.9873141
0.01579654 -3.2313223 1.9701668
0.025154149 -3.2239506 1.9691322
0.030535161 -3.2370682 1.981539
0.033544242 -3.2391706 1.9707403
0.034470104 -3.231329 1.9755009
0.050333031 -3.2339087 1.9713356
0.051332977 -3.2340589 1.9773667
0.064403623 -3.230396 1.9765924
0.057668116 -3.2317328 1.9746081
0.05798313 -3.2322698 1.9856131
0.06244231 -3.2295134 1.9736607
0.069754072 -3.2219162 1.9690586
0.076031119 -3.2334542 1.9713112
0.074714884 -3.2264998 1.9714271
0.082599804 -3.2231357 1.9793442
0.095245175 -3.2284253 1.984635
0.10372518 -3.237231 1.9697225
0.098236017 -3.2374825 1.9784135
0.11197241 -3.2289855 1.985702
0.1037242 -3.2246897 1.9723817
0.10648091 -3.2204504 1.9817393
0.11728504 -3.2334154 1.9786097
0.12348686 -3.2246189 1.983851
0.13194101 -3.2216542 1.9759495
0.14051087 -3.2353199 1.9713085
0.13699764 -3.2208557 1.9812682
0.13877493 -3.2224264 1.9823056
0.14563946 -3.2340014 1.9829693
0.14119472 -3.2363546 1.9720011
0.16403827 -3.2314708 1.9851937
0.1535611 -3.2283447 1.9824841
0.17244126 -3.2189283 1.9866618
0.16819148 -3.2278244 1.9794821
0.16918273 -3.23278 1.9751065
0.18227227 -3.2336793 1.9768986
0.19072044 -3.2226052 1.9729818
0.18912786 -3.2342668 1.9873151
0.18857253 -3.2235768 1.9698877
0.18868047 -3.221844 1.9699152
0.19781986 -3.2217798 1.9746282
0.20015147 -3.2167048 1.982263
0.19977306 -3.2172613 1.979103
0.20357199 -3.2265792 1.9868299
0.22019072 -3.2194166 1.9693778
0.21243353 -3.2236755 1.9707965
0.22646795 -3.2239966 1.9830532
0.23658527 -3.2304204 1.9834059
0.24103534 -3.2219093 1.9742001
0.24805765 -3.2177997 1.9864722
0.23510692 -3.2290597 1.9785471
0.24686883 -3.222497 1.9754294
0.24626504 -3.2208209 1.9714812
0.26250085 -3.2198536 1.977935
0.26646304 -3.2267754 1.9712647
0.27297255 -3.2259614 1.9800428
0.28090024 -3.2156198 1.9682006
0.28108421 -3.219667 1.9696293
0.28162044 -3.2237701 1.9792573
0.29295036 -3.2253563 1.9726769
0.29655182 -3.2243981 1.9745121
0.2922276 -3.2161827 1.9825796
0.30478507 -3.2130752 1.9719863
0.29339376 -3.2182353 1.9820169
0.30845568 -3.2239363 1.9847764
0.31684676 -3.2076304 1.967994
0.3140153 -3.2078991 1.9811912
0.31934112 -3.2124853 1.9699727
0.32609499 -3.2210364 1.9742765
0.32247627 -3.2227581 1.976613
0.33227652 -3.2053785 1.9795206
0.34391141 -3.2168224 1.9702499
0.34361312 -3.2202079 1.9836869
0.35272089 -3.2194829 1.9715577
0.35185859 -3.208194 1.973315
0.35375503 -3.213011 1.9709593
0.35886839 -3.2051563 1.9679102
0.35717833 -3.2164717 1.9798434
0.36426908 -3.2055287 1.982788
0.37566292 -3.2026992 1.983567
0.38939264 -3.2145636 1.9812756
0.38602906 -3.1992867 1.9870838
0.39339405 -3.208801 1.9690437
0.39419544 -3.2136998 1.9712596
0.40286684 -3.2039526 1.9842893
0.39329475 -3.1967998 1.9720201
0.40136629 -3.209024 1.9871181
0.40638784 -3.2074275 1.9704064
0.42334187 -3.2032294 1.9841374
0.42323971 -3.2121258 1.9801913
0.42391574 -3.2117796 1.9838678
0.42229959 -3.1992841 1.982302
0.42649075 -3.2039094 1.9706963
0.43264106 -3.1922185 1.9736602
0.44100642 -3.196341 1.9858333
0.44240057 -3.1945193 1.9846148
0.45152479 -3.2091091 1.9706217
0.45574608 -3.2031593 1.977668
0.46325484 -3.2047374 1.9683495
0.46449378 -3.1908982 1.9695652
0.46178564 -3.2008626 1.9705514
0.4827531 -3.1969225 1.9834512
0.48215383 -3.1932695 1.9711378
0.48994803 -3.1879435 1.9699205
0.48070514 -3.1987288 1.9839803
0.48363438 -3.1925957 1.9792548
0.50534427 -3.2018132 1.9793265
0.49306011 -3.1912837 1.9847281
-2.4889519 -4.9214573 1.2979684
-2.4806433 -4.9238195 1.2975581
-2.4811103 -4.9442406 1.2981951
-2.475734 -4.933372 1.2807559
-2.4682226 -4.9478545 1.285288
-2.4605639 -4.9394279 1.2824637
-2.4465597 -4.9469676 1.2957149
-2.4552522 -4.9500947 1.2942364
-2.4459271 -4.9509406 1.2807083
-2.4391277 -4.9556413 1.2790674
-2.4328468 -4.9631796 1.2976197
-2.4268303 -4.9692993 1.2973022
-1.5026422 -3.0733292 1.9328778
-1.4790285 -3.0870538 1.9499638
-1.492851 -3.0801754 1.9360311
-1.4821385 -3.0925512 1.9339787
-1.4742475 -3.0978408 1.9478307
-1.4731022 -3.0987456 1.9419903
-1.4734327 -3.0972528 1.9387286
-1.4672883 -3.0958931 1.9341817
-1.4627819 -3.0951898 1.945502
-1.4597204 -3.0954115 1.9340984
-1.4569736 -3.0969687 1.9325991
-1.4514793 -3.0992246 1.9394709
-1.4488964 -3.0996182 1.935311
-1.4402434 -3.1136172 1.9408587
-1.4336398 -3.1040463 1.9431945
-1.4331815 -3.1176543 1.9466969
-1.4185609 -3.1159194 1.9337575
-1.427199 -3.1123695 1.9442374
-1.4203813 -3.1086459 1.937474
-1.4022404 -3.1261964 1.9325362
-1.4155004 -3.1253381 1.9480824
-1.4102571 -3.1233265 1.943408
-1.398139 -3.1230762 1.9403692
-1.3901783 -3.1185193 1.9453542
-1.396667 -3.1317086 1.9419271
-1.3808172 -3.1287918 1.946903
-1.3814623 -3.1356096 1.9356186
-1.375044 -3.1354237 1.9498827
-1.3781432 -3.1327806 1.949863
-1.3680031 -3.1363602 1.9342794
-1.3627981 -3.1375659 1.9415345
-1.3620441 -3.1378975 1.9327754
-1.3459619 -3.1504827 1.9462348
-1.3529159 -3.1394818 1.9462131
-1.3348823 -3.1593468 1.9349582
-1.3402731 -3.147742 1.9485698
-1.3406854 -3.161165 1.9373072
-1.3323795 -3.152555 1.9481683
-1.3298067 -3.1514323 1.943604
-1.3272512 -3.1645603 1.9373854
-1.3202766 -3.1568768 1.9318801
-1.3060443 -3.1528356 1.9479563
-1.3005686 -3.1571107 1.9333541
-1.3016309 -3.1727414 1.9516536
-1.2299085 -2.9981713 1.9913309
-1.2224889 -2.9898686 2.0051532
-1.2214553 -2.9863877 2.0074346
-1.211682 -2.9990134 2.0002022
-1.211045 -2.9934812 1.9959621
-1.21497 -3.0098109 2.000458
-1.2051113 -3.0035863 1.9944947
-1.2007554 -3.0075521 1.9944242
-1.200321 -3.0104675 1.9919237
-1.1944865 -2.998873 1.9956315
-1.1903502 -3.0127904 1.9991709
-1.1858824 -3.0034745 1.9927381
-1.1675901 -3.0173137 1.9915055
-1.1670141 -3.0055709 1.9993608
-1.1736681 -3.0173845 1.9944557
-1.16456 -3.0173192 1.9949225
-1.1509537 -3.0115933 2.0033097
-1.1633083 -3.0257123 2.0094213
-1.1557312 -3.0235999 1.9943014
-1.1506524 -3.0198584 1.9924543
-1.1418635 -3.0161881 1.9983622
-1.1295329 -3.0322604 1.9952524
-1.1436329 -3.0342526 1.9999638
-1.1389632 -3.0398834 1.9980727
-1.1264361 -3.0363851 2.0060167
-1.1188118 -3.027998 1.995669
-1.1107185 -3.030226 1.992684
-1.1142358 -3.0290325 1.9972111
-1.1116393 -3.044488 2.0054758
-1.1041604 -3.039093 1.999101
-1.0985266 -3.0491397 1.9980099
-1.0869827 -3.0510888 2.002454
-1.0985465 -3.0513728 2.0065076
-1.0853966 -3.0512245 2.0065258
-1.0741358 -3.0427885 1.991632
-1.0749288 -3.0509701 2.0067091
-1.0660675 -3.0553024 2.0011358
-1.0801889 -3.0473981 1.9983279
-1.0697812 -3.0611455 2.0016303
-1.0711068 -3.0516646 1.9918878
-1.058805 -3.0608027 1.9936525
-1.0475922 -3.0626514 1.9950162
-1.0519331 -3.0603211 1.997638
-1.0522184 -3.0691004 2.0019443
-1.0324835 -3.0708797 1.9962165
-1.0276403 -3.0577157 2.0038314
-1.0277181 -3.0599556 2.0086324
-1.033367 -3.0605848 2.0028503
-1.021822 -3.0750759 2.004827
-1.0269723 -3.0751646 1.9977849
-1.0218632 -3.0672255 2.0030992
-1.0149875 -3.0723493 2.0080531
-1.0067461 -3.0660923 1.9968196
-0.99588078 -3.0844007 1.9982835
-1.0007074 -3.0672565 1.9994385
-0.99125975 -3.0695531 1.9952221
-0.9941951 -3.0762141 2.0102241
-0.99232751 -3.0728123 2.0060496
-0.97624016 -3.0821557 2.0088303
-0.97817427 -3.0809417 1.992963
-0.9671486 -3.0789132 2.0064692
-0.9708066 -3.094305 1.9962801
-0.96950895 -3.0857539 1.9937706
-0.95944279 -3.0906379 1.9943691
-0.94791079 -3.0846508 1.9935224
-0.95522195 -3.0935202 1.9917834
-0.9467476 -3.0896311 2.0047817
-0.94326937 -3.0881824 2.0025744
-0.94396383 -3.0949569 1.9924102
-0.94187564 -3.0879772 2.0048401
-0.93565309 -3.094286 2.0006731
-0.9159224 -3.1085684 2.0024822
-0.92637897 -3.1058712 1.9942048
-0.91934329 -3.0974271 2.0023997
-0.91170722 -3.1017728 1.997932
-0.90491611 -3.097753 2.0059388
-0.89986229 -3.1095843 1.9991729
-0.9018082 -3.1022644 1.9951875
-0.88595968 -3.099968 2.0057538
-0.8802737 -3.0999141 2.0046196
-0.88215601 -3.1179705 1.9984906
-0.88820374 -3.1206305 1.9993868
-0.87244052 -3.1180835 2.0042822
-0.86495292 -3.112839 1.9989171
-0.86926877 -3.1242983 2.0104961
-0.85805064 -3.1133084 2.0073783
-0.85882384 -3.121608 1.9937068
-0.84636128 -3.116199 2.0086267
-0.8578825 -3.1192884 2.0071084
-0.83883578 -3.1210406 2.0069032
-0.84092158 -3.1290259 2.0098948
-0.82913476 -3.1274111 1.9914733
-0.83645004 -3.134387 1.9968398
-0.81886828 -3.1182313 2.0086858
-0.8266499 -3.130749 2.0103011
-0.822851 -3.1364076 2.0041292
-0.82216823 -3.1272004 2.0108743
-0.81515533 -3.1298931 2.0042388
-0.81322092 -3.1284714 1.9957186
-0.79280317 -3.1323688 2.0066442
-0.79258913 -3.14272 2.010777
-0.78938192 -3.1456532 1.9977108
-0.78459466 -3.1402729 1.9988484
-0.79443932 -3.1416833 1.9973158
-0.77243644 -3.1352499 2.0044332
-0.76881665 -3.1493931 2.0070539
-0.77136725 -3.1472309 2.0000372
-0.76717132 -3.1424348 1.991477
-0.76960921 -3.1400852 2.005482
-0.76056588 -3.1417 1.9967264
-0.76059532 -3.1474845 1.998751
-0.75649053 -3.1544473 1.9989671
-0.74545056 -3.1410098 2.0056822
-0.73327142 -3.1418054 1.9920996
-0.74262351 -3.1449883 2.0060573
-0.72485667 -3.1489429 2.0069718
-0.72446787 -3.1598413 1.991143
-0.73109436 -3.1509383 2.0011981
-0.7262795 -3.1488695 1.9946847
-0.70745832 -3.1621549 2.0076325
-0.71739119 -3.1598692 1.9958651
-0.70529807 -3.1578791 1.9981986
-0.69298744 -3.1492512 1.9950269
-0.69396025 -3.1528478 1.9921107
-0.68851429 -3.1502016 2.007057
-0.68910939 -3.1541948 1.9990871
-0.68878841 -3.1622076 2.0012517
-0.68429512 -3.1612561 1.9933457
-0.66974539 -3.1599004 2.0085289
-0.66170764 -3.1641359 1.9914409
-0.66072088 -3.1627178 1.9976468
-0.65150005 -3.1736219 2.0068445
-0.65994447 -3.1766315 2.005666
-0.65155929 -3.1650319 2.0018802
-0.64608896 -3.1724057 2.001724
-0.64567125 -3.1647949 1.9985516
-0.63322204 -3.1812851 2.0083375
-0.63860697 -3.1777055 2.0000398
-0.63189662 -3.1640005 1.9940562
-0.63000172 -3.1666839 2.0047896
-0.62519366 -3.1728077 1.9978871
-0.61417848 -3.1741395 2.0010209
-0.61396432 -3.1683455 2.0020785
-0.61492759 -3.1785972 1.9956635
-0.59967536 -3.1878114 2.0027964
-0.60457802 -3.1810417 1.998455
-0.59265196 -3.1862576 1.9985325
-0.59093881 -3.1812949 2.0030928
-0.57752228 -3.1740592 2.0022542
-0.59008813 -3.1893675 1.9996229
-0.57191944 -3.1843078 1.9917519
-0.58065212 -3.1926744 2.0034273
-0.56624991 -3.1852691 2.0017686
-0.57078886 -3.1832707 2.0107236
-0.56174171 -3.1904652 1.9913237
-0.54556066 -3.1870084 1.9995469
-0.55371982 -3.1960728 2.003401
-0.54180038 -3.1878724 1.9930587
-0.54531974 -3.1907051 2.0107865
-0.52967644 -3.1905546 1.9940342
-0.53666347 -3.1966872 2.0031636
-0.53152037 -3.1960056 2.0047424
-0.51470077 -3.1853759 1.9945359
-0.51953888 -3.1837406 2.0071313
-0.51542097 -3.1975145 1.9933294
-0.51070195 -3.1995652 2.0037754
-0.49775872 -3.1942334 2.0059414
-0.50096035 -3.201442 1.9970864
-0.49450338 -3.1966307 2.0061707
-0.49031764 -3.2006383 1.9961718
-0.48288327 -3.1960957 2.0007999
-0.4863185 -3.1908739 2.0068631
-0.48817399 -3.1932976 2.0043032
-0.48023489 -3.2050257 2.0041196
-0.45969951 -3.197103 2.0108967
-0.47296509 -3.2089293 1.9963518
-0.45578384 -3.2122815 2.0078611
-0.45643553 -3.2033057 1.9928776
-0.44594133 -3.2123439 2.0034151
-0.44636184 -3.2016687 2.0106487
-0.43678045 -3.2080321 2.0031223
-0.44257009 -3.2023048 2.0015087
-0.44229567 -3.202908 1.9981558
-0.42458031 -3.2000482 2.0037537
-0.42704773 -3.2011302 1.9979463
-0.42273712 -3.1999552 2.0009787
-0.41297051 -3.2060781 2.0013185
-0.4116939 -3.2173324 1.9912876
-0.40539989 -3.2025728 1.9928657
-0.40856752 -3.2127154 2.00576
-0.40450072 -3.2177591 1.9929255
-0.38795957 -3.2130756 2.0064466
-0.39303139 -3.2126019 1.9999866
-0.38145524 -3.2188981 1.9970022
-0.38428056 -3.2121472 1.9935457
-0.37291241 -3.2055726 1.9918672
-0.37851113 -3.2137191 2.004663
-0.36376929 -3.2050772 2.0067954
-0.35905761 -3.2146306 2.0042715
-0.35276714 -3.2118416 1.9921833
-0.35358164 -3.2094765 1.9956235
-0.3472299 -3.2150619 2.0043128
-0.34735632 -3.2102118 1.9940349
-0.33394209 -3.2182784 1.9980142
-0.34351158 -3.2136643 2.0092912
-0.33653694 -3.2221768 2.007683
-0.33124015 -3.2207835 1.9984629
-0.31314689 -3.2291446 1.9984125
-0.31292063 -3.2172909 2.0093305
-0.31521749 -3.2236443 2.0035529
-0.3096019 -3.2153106 2.0006492
-0.30054557 -3.2251244 1.992663
-0.30279949 -3.2195642 2.0100236
-0.29533055 -3.2250903 1.9998076
-0.28388169 -3.2246869 1.9946897
-0.28115541 -3.2218106 2.0015368
-0.2800366 -3.2181401 2.0102484
-0.26813737 -3.2208796 2.0110643
-0.27628794 -3.2278965 2.0041924
-0.27351999 -3.2217145 1.9914196
-0.25652918 -3.234422 2.0074265
-0.2624414 -3.222579 1.9940598
-0.25633931 -3.2174959 2.0066867
-0.25287616 -3.2294509 1.9942148
-0.23962845 -3.2344644 2.0025671
-0.23149824 -3.2212596 1.9942102
-0.23652042 -3.2314446 2.0099323
-0.23283039 -3.2342396 2.0033169
-0.22832415 -3.2296948 2.0100803
-0.23068926 -3.2268925 2.0034151
-0.22582674 -3.2316098 2.0044255
-0.2049568 -3.2267511 1.9976557
-0.21745324 -3.2203019 1.9963396
-0.19732237 -3.2349019 2.0034328
-0.18966301 -3.2207673 2.0058701
-0.19365092 -3.2230155 2.001864
-0.18599528 -3.2348001 2.008018
-0.18261729 -3.2274086 1.9917159
-0.18585427 -3.240026 2.0002913
-0.18232737 -3.2395236 1.9919955
-0.16546533 -3.2386744 1.9993021
-0.16759254 -3.2414715 1.9917814
-0.1564891 -3.2412815 2.0110171
-0.16670154 -3.2254777 1.9959537
-0.14982057 -3.226532 1.9953198
-0.15050183 -3.2360919 1.9927261
-0.135189 -3.2425146 1.99863
-0.13372186 -3.2300777 1.992201
-0.1285564 -3.2253969 1.9934242
-0.13481526 -3.2417085 1.9954129
-0.12936969 -3.2256777 1.9985076
-0.11661725 -3.2362945 1.9990559
-0.11138535 -3.2403281 2.0000384
-0.1069175 -3.2390947 1.9970623
-0.11751273 -3.2255018 1.9932637
-0.10874155 -3.2371113 2.0001304
-0.10256393 -3.2379298 2.0007935
-0.090482183 -3.2418032 1.9941058
-0.084829241 -3.2450335 1.9923053
-0.077952899 -3.2390451 1.9943931
-0.089087635 -3.2321341 1.9927052
-0.077127449 -3.2369938 2.0005879
-0.064618856 -3.2411449 2.0046182
-0.07112772 -3.2453518 2.0100563
-0.060612362 -3.2446778 2.0092556
-0.053895473 -3.2397568 1.9970074
-0.060311805 -3.2331824 2.0040965
-0.046065018 -3.2390511 2.0074615
-0.038505722 -3.2437913 2.0077393
-0.032746818 -3.2461803 1.9941422
-0.044900019 -3.2442291 2.0075865
-0.038741019 -3.2348428 1.9962951
-0.024699142 -3.2374737 2.0009704
-0.026627032 -3.2311389 2.00155
-0.023116846 -3.2388146 2.0029085
-0.020407179 -3.2442994 2.0092869
-0.009945631 -3.2407265 2.002332
-0.012395019 -3.227433 2.0095947
0.0085206423 -3.2311065 1.9921968
0.0097141517 -3.2335474 1.9924835
0.01731053 -3.2326684 1.9947884
0.018351171 -3.2301567 2.0065403
0.028100446 -3.2381299 1.9957159
0.022524904 -3.2325575 1.9912741
0.037528984 -3.2280021 1.9991986
0.033891674 -3.2452636 2.0016737
0.036632709 -3.2365906 2.0077507
0.032418795 -3.2348938 2.0071442
0.055467498 -3.2368085 2.0028803
0.041118257 -3.2420566 1.9961858
0.04705558 -3.2442353 2.0103743
0.055297781 -3.2299004 2.0070717
0.055291731 -3.2303431 1.9957873
0.064461075 -3.2408884 2.0100598
0.069188647 -3.2409568 2.0088665
0.081840508 -3.2291892 2.0103836
0.076967351 -3.2392073 2.0005398
0.078171164 -3.2379663 1.9923519
0.09876819 -3.2382035 2.0022027
0.095101342 -3.2373164 2.0067523
0.1047397 -3.2350187 2.0090635
0.1085663 -3.2290053 2.0056438
0.10909025 -3.2275245 2.0017092
0.11832955 -3.2414005 2.0071507
0.12184121 -3.2350752 1.9924394
0.12415929 -3.2406242 2.0094044
0.12799433 -3.2355723 1.9962536
0.12198515 -3.2338424 2.00424
0.12778796 -3.2360411 1.9918793
0.14344127 -3.2264323 2.0002892
0.14364383 -3.2317102 2.0108738
0.14615738 -3.2376869 2.0073428
0.14525102 -3.2276647 2.0051572
0.16040976 -3.2329278 2.0089538
0.16100982 -3.2392039 1.9989277
0.16689813 -3.2276864 2.0031981
0.16975115 -3.2368579 1.9923598
0.1794531 -3.2365625 2.0030842
0.17714119 -3.234988 1.9914365
0.18246821 -3.2222836 2.009218
0.19620468 -3.2338998 2.0015354
0.20052552 -3.2275257 2.007684
0.201315 -3.2265804 2.0036559
0.19991857 -3.2349987 1.9941598
0.20231839 -3.227339 1.9981762
0.21469158 -3.2383127 1.9934926
0.21133481 -3.2309551 1.9994135
0.21713923 -3.2384167 2.0053995
0.23366769 -3.2327108 1.9927232
0.23854806 -3.2261987 1.9925084
0.24120954 -3.2304699 2.000428
0.23618801 -3.2349405 1.9944664
0.23731443 -3.2231407 2.0091882
0.25441244 -3.2372568 1.9952234
0.26201385 -3.2334914 2.0086439
0.25363123 -3.2218714 2.0108094
0.26056451 -3.2181258 2.0000455
0.27341816 -3.2330935 2.0015268
0.27225724 -3.2360499 2.008414
0.27841958 -3.2186425 2.0015073
0.28436664 -3.2230899 2.0100167
0.27823275 -3.2170746 1.993737
0.28613675 -3.2344482 2.0089319
0.28876197 -3.2192388 2.0096793
0.29742187 -3.2209423 1.9938545
0.29950157 -3.2155423 2.0093057
0.30374634 -3.2277226 2.0081522
0.31722674 -3.2315624 1.9916743
0.31218773 -3.2210753 1.9918772
0.3140353 -3.2289381 2.0091183
0.32897553 -3.2153652 2.0015364
0.33242458 -3.2124372 1.999588
0.33959323 -3.2261155 1.9998777
0.34195611 -3.2216783 1.9949825
0.34506592 -3.2130904 2.007983
0.35235023 -3.2269318 2.0059762
0.35508516 -3.2210364 1.9913758
0.35666582 -3.2261684 1.992516
0.36176792 -3.2208462 2.0037172
0.36707222 -3.218183 2.0066235
0.36961687 -3.225085 2.0026639
0.38457894 -3.2130435 2.0011876
0.37759188 -3.2183378 2.0055819
0.39089385 -3.2057729 1.9939559
0.39929989 -3.2146015 2.0104537
0.40070564 -3.2206485 1.9926401
0.40010393 -3.2084625 2.0002456
0.404901 -3.219197 2.0022364
0.41083756 -3.2093303 2.0090604
0.40797448 -3.2186589 1.9980526
0.4080168 -3.2099423 1.9996409
0.42409888 -3.210762 1.9927632
0.41870385 -3.2030666 2.000077
0.43770233 -3.2065666 1.9994353
0.42507389 -3.2061565 2.0094383
0.44894248 -3.2088366 1.9928612
0.43499666 -3.2166131 2.007931
0.44865537 -3.2040865 1.9917204
0.44430408 -3.2101169 2.0048251
0.46677598 -3.2035029 2.0080428
0.45823914 -3.2013383 1.9994129
0.47128984 -3.2075827 2.0093925
0.47746184 -3.2037125 2.0064905
0.47094688 -3.205333 1.9995054
0.48378927 -3.2040706 1.9923409
0.48663366 -3.2034273 2.0019007
0.49290007 -3.2012167 2.0030818
0.49423528 -3.2098336 1.9961809
0.4993591 -3.2072868 2.0026352
0.49758655 -3.2067525 1.9950826
-2.4955533 -4.9393678 1.3209707
-2.4874606 -4.9507098 1.3345575
-2.4784076 -4.957489 1.3375933
-2.4766905 -4.9645338 1.3314321
-2.4568985 -4.9602056 1.3228801
-2.4679203 -4.9539876 1.3321323
-2.4419394 -4.9658961 1.338583
-2.4460812 -4.9660668 1.339343
-2.4478974 -4.9774475 1.3294289
-2.436944 -4.9668684 1.3259852
-2.4262545 -4.9822998 1.3212138
-1.4971014 -3.0828569 1.9660511
-1.4976403 -3.0936847 1.9701304
-1.4951404 -3.0897193 1.9706362
-1.4787989 -3.0928907 1.9589318
-1.4710064 -3.094017 1.9568971
-1.4739588 -3.0961008 1.9663963
-1.4704577 -3.1092696 1.9591571
-1.4661937 -3.1112025 1.9639603
-1.4518409 -3.1091347 1.9627556
-1.4609289 -3.1033347 1.9695231
-1.4547855 -3.1159823 1.965435
-1.4412615 -3.1134908 1.9726194
-1.4436555 -3.1128242 1.9658636
-1.4455408 -3.1201441 1.9580249
-1.4391277 -3.1240022 1.9711418
-1.4347464 -3.1151462 1.9642512
-1.420863 -3.1271255 1.966262
-1.4142162 -3.1191804 1.9684039
-1.4227633 -3.1212246 1.9746717
-1.4125124 -3.1367018 1.9687915
-1.4154913 -3.1303837 1.9723094
-1.4025555 -3.1348925 1.9603585
-1.4024324 -3.1261489 1.9711078
-1.3890624 -3.143647 1.976565
-1.3835285 -3.1390915 1.9601855
-1.3848748 -3.1345167 1.9746774
-1.373109 -3.1404235 1.9591993
-1.3793298 -3.1440511 1.9736695
-1.3834059 -3.1405966 1.9680926
-1.3612115 -3.1512644 1.9690293
-1.3648947 -3.149287 1.958269
-1.3650572 -3.1587527 1.9649787
-1.357168 -3.152477 1.9624045
-1.3585267 -3.1572156 1.9642987
-1.3544258 -3.1608074 1.9727089
-1.3467015 -3.150135 1.967648
-1.3444827 -3.1520896 1.9586284
-1.3377395 -3.1646602 1.967923
-1.3365234 -3.1657047 1.962608
-1.3208816 -3.1689556 1.9685547
-1.3243004 -3.1602931 1.9584024
-1.318477 -3.176199 1.9607016
-1.3059415 -3.1686244 1.9711876
-1.3159773 -3.1668198 1.9588401
-1.3041165 -3.1853282 1.9647999
-1.3038429 -3.1805289 1.9633243
-1.2886276 -3.1779301 1.9617807
-1.2824293 -3.1730101 1.9695468
-1.286934 -3.1912982 1.9581424
-1.2767513 -3.1783719 1.965355
-1.2806191 -3.193294 1.963092
-1.2746369 -3.1868253 1.9667785
-1.266353 -3.1922555 1.9598891
-1.2675805 -3.1921592 1.9766473
-1.261153 -3.1846421 1.9767339
-1.2487633 -3.2012939 1.9634506
-1.2578467 -3.1871758 1.9745904
-1.2484713 -3.1913068 1.9724687
-1.2313273 -3.2043929 1.9738709
-1.2455853 -3.2117488 1.9700052
-1.2326282 -3.207428 1.9730169
-1.2219317 -3.2015824 1.9642909
-1.2275463 -3.2119133 1.9719216
-1.2200481 -3.2079346 1.9614296
-1.2157891 -3.2019935 1.9602294
-1.2114412 -3.2081301 1.9641458
-1.2003741 -3.2078207 1.9639425
-1.1981648 -3.2226081 1.9613642
-1.1980748 -3.2247267 1.9674493
-1.1965805 -3.2255807 1.9679219
-1.1789495 -3.2179575 1.9744526
-1.1783044 -3.2241201 1.9685595
-1.1863831 -3.2203822 1.9740602
-1.1668286 -3.233633 1.965258
-1.1777639 -3.2271144 1.9641091
-1.1698972 -3.2207398 1.9585291
-1.1581117 -3.2277923 1.9749582
-1.1465272 -3.2371323 1.958293
-1.1575187 -3.2308812 1.9611961
-1.1424228 -3.2276371 1.9649258
-1.1468521 -3.2312658 1.957953
-1.1447486 -3.2387552 1.9664855
-1.1285357 -3.2388318 1.9604179
-1.12682 -3.2438645 1.9627548
-1.1139042 -3.2443457 1.9732596
-1.1221353 -3.2414749 1.9717817
-1.115944 -3.2513366 1.9648877
-1.1133215 -3.2541332 1.9702841
-1.1073622 -3.2524436 1.9635553
-1.0984974 -3.2601824 1.961688
-1.1059008 -3.2568772 1.9578035
-1.1002749 -3.2559969 1.9680343
-1.0861142 -3.2634351 1.959787
-1.078019 -3.253691 1.9680992
-1.0875847 -3.2555666 1.9575163
-1.0666436 -3.2702107 1.9713835
-1.0671782 -3.2632036 1.9569623
-1.0546048 -3.258116 1.9613113
-1.0566329 -3.2716134 1.9689103
-1.0453876 -3.2607925 1.9703248
-1.0560075 -3.2619236 1.9765921
-1.0505099 -3.2619796 1.965281
-1.0347794 -3.2724276 1.9680667
-1.0272943 -3.2793357 1.9621253
-1.0314949 -3.2803664 1.9758307
-1.0262764 -3.2850156 1.9764078
-1.0271885 -3.2747607 1.9655015
-1.0225199 -3.2764957 1.9611859
-1.0135003 -3.2848246 1.9648697
-1.0168797 -3.2864757 1.960865
-0.9988426 -3.2833166 1.957213
-0.99453622 -3.2792315 1.9749829
-1.001539 -3.2839901 1.9637758
-0.98575413 -3.2858393 1.9671255
-0.99590862 -3.2964671 1.9709028
-0.97235584 -3.2864561 1.971483
-0.96822399 -3.2819395 1.9637637
-0.97499657 -3.2973385 1.9757485
-0.96608275 -3.2883036 1.9608375
-0.95348316 -3.2872362 1.9657016
-0.96488655 -3.2927215 1.9751449
-0.9599399 -3.2984927 1.9700867
-0.95722163 -3.2958605 1.9616771
-0.94570851 -3.3020391 1.972819
-0.93084389 -3.3029704 1.9747274
-0.93220007 -3.3049483 1.9680346
-0.93297422 -3.3073964 1.9672397
-0.92146575 -3.3012207 1.9724211
-0.91797066 -3.3107364 1.9680058
-0.90938479 -3.3122604 1.9660201
-0.91593307 -3.3097968 1.9599046
-0.91303623 -3.3069978 1.9693671
-0.89519584 -3.3060937 1.9628048
-0.90576327 -3.3182917 1.9714
-0.88518703 -3.3202415 1.9603939
-0.8827005 -3.3081663 1.9687331
-0.88690513 -3.3214858 1.9759412
-0.87190288 -3.3279192 1.9706357
-0.87171751 -3.3154817 1.9571183
-0.87594575 -3.3190844 1.9633746
-0.862158 -3.313863 1.9733856
-0.85448402 -3.3303745 1.9674799
-0.8573457 -3.3336768 1.9637567
-0.84676808 -3.3321798 1.9691073
-0.84759355 -3.3347414 1.973773
-0.83942354 -3.3194532 1.9717727
-0.84291261 -3.3330083 1.9577051
-0.83919197 -3.336201 1.9584498
-0.82077521 -3.3238504 1.9728713
-0.81587422 -3.3403716 1.964923
-0.82471526 -3.3277504 1.9634223
-0.82354373 -3.3321023 1.9666299
-0.80827612 -3.3439646 1.9677483
-0.79673022 -3.3298998 1.9715704
-0.79983222 -3.3413124 1.9740312
-0.79826677 -3.3492091 1.9729739
-0.79870009 -3.3452499 1.959549
-0.79319948 -3.3422275 1.9641119
-0.78695256 -3.3454468 1.9621997
-0.7862826 -3.3484256 1.964934
-0.77355945 -3.3449075 1.9614506
-0.76233554 -3.3448813 1.9747699
-0.76790255 -3.3542528 1.9573752
-0.75234962 -3.3567452 1.9751869
-0.75297296 -3.347008 1.9627211
-0.7511341 -3.3603754 1.9634873
-0.75035101 -3.3588476 1.9693345
-0.74299139 -3.3564923 1.9593197
-0.73106736 -3.3525648 1.9671946
-0.72105414 -3.3526435 1.973193
-0.72830522 -3.3646767 1.9638057
-0.71903819 -3.3501654 1.9755337
-0.71645039 -3.3659017 1.9589731
-0.71125597 -3.3507674 1.9609962
-0.70824832 -3.3609402 1.9738263
-0.69770515 -3.3539593 1.9743521
-0.70639443 -3.370882 1.9574624
-0.68923509 -3.3651335 1.9639781
-0.68208915 -3.3721507 1.9754648
-0.68706697 -3.3738456 1.9679098
-0.68604499 -3.3674841 1.9693519
-0.67440909 -3.3765497 1.9663292
-0.67104381 -3.3677227 1.9685875
-0.66423792 -3.3783982 1.9669907
-0.65540749 -3.3707643 1.9762253
-0.65374571 -3.3772869 1.9734383
-0.65155673 -3.3771999 1.9747194
-0.64625615 -3.3646557 1.9627335
-0.63443863 -3.3696694 1.9647083
-0.6311332 -3.384366 1.9659595
-0.63538146 -3.3827472 1.9745369
-0.61818641 -3.3742001 1.9750068
-0.62401277 -3.386997 1.9652551
-0.60757959 -3.3776984 1.9657727
-0.61274201 -3.3842812 1.9748627
-0.60866863 -3.3739152 1.9583619
-0.60738111 -3.3860748 1.9628732
-0.60481125 -3.3776493 1.9608473
-0.59422612 -3.3821232 1.9747196
-0.58166492 -3.3880098 1.9748008
-0.58785129 -3.3828642 1.9573995
-0.58545923 -3.3852444 1.9694375
-0.58259606 -3.3781726 1.9695641
-0.56948352 -3.3793912 1.9598683
-0.55585212 -3.3904963 1.964462
-0.55312967 -3.3822536 1.9602876
-0.54690707 -3.3974502 1.9648128
-0.55617189 -3.3948052 1.958616
-0.54746157 -3.3863039 1.9687912
-0.54487777 -3.389972 1.9739192
