# .PCD v0.7 - Point Cloud Data file format
VERSION 0.7
FIELDS x y z
SIZE 4 4 4
TYPE F F F
COUNT 1 1 1
WIDTH 1509
HEIGHT 1
VIEWPOINT 0 0 0 1 0 0 0
POINTS 1509
DATA ascii
7.0853028 -3.0038633 0.18101561
7.0911694 -3.0030832 0.17932564
7.2652826 -3.0550778 0.10421291
7.2781229 -3.0431173 0.11532139
7.2779384 -3.0317643 0.11058457
7.2930398 -3.0178001 0.1045925
7.2808146 -3.0159123 0.11293127
7.2844305 -3.0125439 0.10432792
7.3081055 -2.989774 0.11784964
6.810194 -4.371067 0.10469455
6.813149 -4.3651037 0.10388637
6.8296819 -4.3541121 0.10839354
6.8303471 -4.3455486 0.10483509
6.8355584 -4.3415737 0.10623492
6.8529196 -4.3103986 0.10739534
6.8529429 -4.3029137 0.10505114
6.8634882 -4.2965651 0.10371386
6.8720808 -4.2746396 0.10681065
6.8916793 -4.2546868 0.10932692
6.8955617 -4.2549076 0.1003713
6.8958721 -4.2359843 0.10586408
6.9154282 -4.2162299 0.10637135
6.9350228 -4.186811 0.1054381
6.923173 -4.1874928 0.10052735
6.9453645 -4.1739392 0.10078821
6.9427414 -4.1620421 0.1026899
6.9596443 -4.1276827 0.10115659
6.8124533 -4.0264244 0.17272092
6.8139772 -4.0109339 0.17201656
6.8277979 -4.0021887 0.16836469
6.828362 -3.9911475 0.17437096
6.8240023 -3.9837551 0.16426277
6.8398895 -3.9694941 0.17145935
6.8516264 -3.9563656 0.17388706
6.8493891 -3.9533253 0.16591386
6.8624902 -3.93488 0.16330752
6.8586931 -3.9336343 0.17518078
6.8725586 -3.9319985 0.15846184
6.8726354 -3.9144509 0.16773468
6.8719945 -3.9086814 0.17624602
6.8876882 -3.8879335 0.1662841
6.8893747 -3.8771176 0.17419241
6.9009399 -3.8759732 0.16683172
6.8996878 -3.8686378 0.16306175
6.9008503 -3.8490722 0.17278667
6.9140263 -3.8419244 0.17140339
6.9245825 -3.8440797 0.16170506
6.9269981 -3.837862 0.16407385
6.9326816 -3.8170466 0.17441396
6.9276247 -3.8023379 0.16093951
6.9310651 -3.7973878 0.15862148
6.9445305 -3.7961898 0.17752004
6.9458904 -3.7888527 0.16795623
6.9598765 -3.7681792 0.1761134
6.9500785 -3.7517421 0.17421427
6.9699922 -3.7475147 0.16983339
6.9685092 -3.7381029 0.17366017
6.977314 -3.7316339 0.17406021
6.8025608 -3.6359768 0.23328725
6.8239236 -3.6197898 0.22990003
6.8317986 -3.6054804 0.24179611
6.8373423 -3.6030107 0.2452157
6.8417711 -3.6044719 0.22629088
6.8366232 -3.5772254 0.23835027
6.8396192 -3.5850408 0.23715022
6.8407025 -3.5581932 0.23047389
6.8573918 -3.5580659 0.24349809
6.8578944 -3.5543573 0.2332729
6.8587837 -3.5446985 0.24012941
6.871223 -3.5187497 0.23367165
6.8802619 -3.5099852 0.23201488
6.8811831 -3.5007231 0.24331251
6.8855109 -3.4920647 0.24362624
6.8909006 -3.4935739 0.24165705
6.8883362 -3.4770937 0.242336
6.9045582 -3.4645231 0.24031906
6.8940902 -3.460243 0.2288789
6.9166331 -3.4604266 0.23158987
6.9089379 -3.444674 0.23439513
6.9080853 -3.4414217 0.23357792
6.9207616 -3.414057 0.23194706
6.9317675 -3.4106836 0.22999331
6.9340577 -3.4078825 0.227106
6.9366479 -3.3845778 0.23311067
6.9372554 -3.3887103 0.22598998
6.9385285 -3.3814805 0.24182753
6.9577713 -3.3695643 0.23232597
6.9455605 -3.3599379 0.23301481
6.9560466 -3.3428261 0.23982349
6.9693251 -3.3313727 0.24024503
6.9617724 -3.3320355 0.2383852
6.9725752 -3.3064711 0.23024583
6.981411 -3.3033819 0.23524836
6.8172894 -3.2218156 0.30155295
6.809103 -3.2052562 0.30638856
6.8137822 -3.1921489 0.30877459
6.8342862 -3.1845107 0.31339076
6.8252749 -3.1737814 0.29794085
6.8369393 -3.1772504 0.30990347
6.8353992 -3.1521125 0.30361381
6.8342671 -3.1391845 0.30694926
6.8512616 -3.1400976 0.30613038
6.8601041 -3.1368055 0.29867542
6.8539352 -3.1121957 0.30241638
6.866394 -3.1202633 0.31321606
6.8636756 -3.108129 0.30761614
6.8633294 -3.0999553 0.30014148
6.8675861 -3.0852442 0.29387671
6.8763795 -3.0633063 0.29461738
6.8771224 -3.067333 0.31096438
6.891562 -3.0569031 0.3107014
6.8893237 -3.0338764 0.29998121
6.8862529 -3.0263922 0.30300283
6.8957138 -3.0294478 0.30107808
6.9089026 -3.0244024 0.30152333
6.9128771 -3.0064204 0.30453426
6.9112387 -2.9931159 0.30614421
7.0947738 -3.0547686 0.24522127
7.0994735 -3.0567951 0.24431314
7.1048994 -3.0423701 0.22978546
7.1066589 -3.0377829 0.23608899
7.1081419 -3.0196986 0.23581469
7.1188903 -3.0089357 0.23341411
7.1126471 -2.9929492 0.23834133
7.1244645 -2.9879985 0.23869149
7.2902017 -3.0562468 0.15973178
7.3055496 -3.0371253 0.17210607
7.3024936 -3.0313144 0.16808376
7.3061633 -3.0250785 0.17214786
7.3089113 -3.0176773 0.16074404
7.3171172 -3.0127637 0.16402832
7.3316121 -2.9906006 0.17549209
7.5000114 -3.0531721 0.10014439
7.5058455 -3.0143886 0.10014389
7.5298619 -3.0111632 0.11006239
6.8366656 -4.7360544 0.1015308
6.8559098 -4.679945 0.10099742
6.8691711 -4.6757355 0.10226224
6.8770738 -4.6671457 0.10324246
6.9446974 -4.5607882 0.10096332
6.9524226 -4.5469651 0.10196318
6.820621 -4.4118567 0.16740876
6.8195372 -4.4105034 0.15578713
6.8288231 -4.4032578 0.15834495
6.8285089 -4.3929572 0.16699654
6.8400898 -4.3850536 0.16845925
6.8382063 -4.3582835 0.16410486
6.8418713 -4.3516655 0.16056022
6.8622084 -4.3566155 0.1533975
6.854804 -4.3412027 0.15380944
6.8594289 -4.3219228 0.15992324
6.8757935 -4.3128009 0.15311961
6.8795509 -4.310926 0.15816891
6.8916731 -4.3059154 0.16095504
6.8863401 -4.2873559 0.16452478
6.8896451 -4.283339 0.16647191
6.8943992 -4.2673159 0.16565508
6.9147854 -4.2537246 0.1619131
6.9116139 -4.2458797 0.16366945
6.9212661 -4.2515097 0.15127899
6.9313169 -4.2385721 0.16859999
6.9274673 -4.2153125 0.16546573
6.9368014 -4.2143264 0.1546209
6.9511709 -4.2072344 0.15919292
6.9483132 -4.1914797 0.15272243
6.9490113 -4.1784096 0.16065827
6.9516435 -4.1665621 0.15499839
6.9734449 -4.1602917 0.15330252
6.8095603 -4.0662684 0.21610194
6.8092141 -4.04563 0.21734115
6.8164644 -4.0408635 0.22186601
6.821022 -4.0258565 0.2199896
6.842432 -4.0274115 0.22943081
6.8329844 -4.0204797 0.21628685
6.8480949 -4.002275 0.22921279
6.8567219 -3.9892275 0.22551526
6.8532715 -3.9793901 0.22396365
6.8641477 -3.9735801 0.21897291
6.8733144 -3.9555387 0.22141336
6.8789816 -3.9635103 0.23499262
6.8858738 -3.9498849 0.22383024
6.8772779 -3.9373417 0.21815954
6.8867922 -3.9290152 0.22141026
6.8857346 -3.9157498 0.22206143
6.8915191 -3.9129736 0.23137815
6.9102163 -3.8871574 0.22419536
6.9052024 -3.8903654 0.21729505
6.9186234 -3.868257 0.22664241
6.9270406 -3.8625286 0.22446065
6.9178843 -3.8566668 0.22472933
6.9422941 -3.8494325 0.22903754
6.9355278 -3.8363006 0.21629538
6.9430776 -3.8191481 0.22227868
6.9538646 -3.8285334 0.23191844
6.9452887 -3.8176005 0.23471768
6.9660163 -3.7934237 0.23370895
6.959548 -3.7997003 0.21986063
6.9661651 -3.7779818 0.2184812
6.9821162 -3.7732594 0.23318331
6.8099017 -3.6733158 0.29037899
6.8237872 -3.6643567 0.29886067
6.8219681 -3.6475368 0.29080445
6.8273935 -3.648526 0.29022378
6.8387885 -3.624074 0.29057324
6.8398104 -3.6135299 0.29216355
6.8436179 -3.6075766 0.28823131
6.8464036 -3.6133969 0.28831559
6.8553276 -3.5978916 0.30040386
6.8628588 -3.5917127 0.28749287
6.8650789 -3.5770426 0.29501981
6.8781948 -3.5736122 0.30200112
6.8797789 -3.5571136 0.29629081
6.8732939 -3.5402889 0.30007234
6.8862143 -3.5371547 0.29877973
6.8994708 -3.5180712 0.29849824
6.8943043 -3.5202394 0.29462984
6.9051924 -3.5046678 0.29539371
6.8961511 -3.5052052 0.30210876
6.9191847 -3.4832304 0.28544116
6.9092937 -3.4840419 0.2938754
6.9269166 -3.4767299 0.29616466
6.9315071 -3.4528129 0.28537026
6.9303737 -3.4603472 0.30181143
6.9330082 -3.4399135 0.29179066
6.9343367 -3.4311624 0.29125026
6.9353704 -3.4125032 0.29893163
6.9525223 -3.4078686 0.29256764
6.9504242 -3.3971744 0.29604265
6.9550276 -3.3883319 0.29186177
6.9629502 -3.3742523 0.29723209
6.9592934 -3.367409 0.30027011
6.9779119 -3.3608203 0.2975741
6.9857225 -3.3601966 0.29768601
6.8199172 -3.2599568 0.35485342
6.8140073 -3.2452304 0.36481458
6.8275433 -3.234262 0.36375687
6.8287477 -3.2309198 0.35764909
6.823575 -3.2144399 0.35254443
6.8418641 -3.2181075 0.36658424
6.8359585 -3.19859 0.364999
6.8354101 -3.1874535 0.36054602
6.8378868 -3.1824086 0.35296398
6.8576536 -3.1742494 0.35628125
6.8575191 -3.1665351 0.36830765
6.8682528 -3.1492865 0.3655605
6.8689337 -3.1430438 0.36427554
6.8685441 -3.1401258 0.35682017
6.8820329 -3.1268964 0.35632566
6.8704038 -3.1198809 0.36263824
6.8928013 -3.1032598 0.35893667
6.8936 -3.0916631 0.35683388
6.8899322 -3.0820527 0.35023203
6.8986692 -3.0771246 0.36223897
6.8907099 -3.076767 0.35240367
6.8947635 -3.0700984 0.35025433
6.9160566 -3.0471582 0.36477876
6.9160509 -3.0490041 0.35264611
6.908577 -3.0417435 0.36416158
6.9205947 -3.0304811 0.35310534
6.9189119 -3.0211775 0.34907675
6.9335136 -2.9954178 0.36704537
6.9259992 -2.9976549 0.3650189
7.1050854 -3.0503201 0.29202268
7.1230536 -3.0401556 0.29605281
7.1111722 -3.0302265 0.29712769
7.1171284 -3.0232797 0.29151317
7.1375942 -3.0206001 0.29441738
7.1259141 -3.0096431 0.29494065
7.1457353 -2.9909034 0.2970787
7.3084259 -3.0712209 0.23258069
7.3132362 -3.0477493 0.23046951
7.3160014 -3.0359862 0.21645615
7.3367257 -3.0225341 0.23495585
7.3307257 -3.0153859 0.23370111
7.3287416 -3.0043766 0.23245084
7.3478184 -2.9916558 0.22821683
7.3412662 -2.9826994 0.21672584
7.5323491 -3.0608449 0.15996306
7.529295 -3.0319226 0.15827794
7.5283642 -3.0384374 0.15947372
7.5292072 -3.0244184 0.15393829
7.547924 -3.0118968 0.14995682
7.5526128 -3.0028994 0.16921256
6.812377 -4.7801976 0.14630735
6.8219609 -4.7733612 0.16151901
6.8185439 -4.7638426 0.16265298
6.8256493 -4.7510576 0.15671305
6.8317809 -4.756897 0.15075861
6.8526497 -4.7376175 0.15379298
6.8585076 -4.7272105 0.1602409
6.8508525 -4.723165 0.15024243
6.8584013 -4.7206397 0.15004264
6.8674526 -4.7115765 0.15701285
6.8798671 -4.6904922 0.15600862
6.8885756 -4.6865087 0.15234043
6.8924828 -4.6726141 0.14868149
6.8975101 -4.6582727 0.14828853
6.8965845 -4.6644444 0.15252814
6.9096909 -4.6363792 0.14650963
6.925818 -4.6290751 0.16135173
6.92838 -4.6360307 0.15068305
6.9209294 -4.6220298 0.15297462
6.9332662 -4.605556 0.154755
6.9325595 -4.6032333 0.14803606
6.9508348 -4.5787535 0.15570797
6.9454284 -4.5769053 0.14767267
6.9563498 -4.5765543 0.14436783
6.9668646 -4.5636411 0.1452709
6.8233275 -4.4405074 0.20951527
6.831892 -4.4315643 0.22652049
6.8352847 -4.4265313 0.22692254
6.8279958 -4.4154067 0.21166907
6.8429852 -4.3983903 0.22322395
6.8397417 -4.3885117 0.22742723
6.8497658 -4.3867755 0.22642685
6.8674483 -4.3768492 0.21758239
6.8570824 -4.3623929 0.21938743
6.8633981 -4.3637986 0.2243956
6.8706036 -4.3568268 0.21920611
6.8771348 -4.3474965 0.21345253
6.8806577 -4.3209658 0.22321634
6.9045691 -4.3279023 0.21458058
6.8932137 -4.306016 0.21342847
6.9133997 -4.2935247 0.21261343
6.9177756 -4.2971492 0.22398469
6.9211378 -4.2892165 0.21572325
6.9356418 -4.2777619 0.2123512
6.9319372 -4.2660909 0.21799764
6.9332275 -4.2532997 0.22103134
6.9493151 -4.2400498 0.22380249
6.9396353 -4.2293363 0.22350343
6.9597058 -4.220757 0.22665778
6.971127 -4.2095647 0.22208074
6.9613829 -4.2042055 0.22036791
6.8088756 -4.1026764 0.29030141
6.8095241 -4.0818024 0.29361886
6.8218975 -4.072403 0.27873901
6.8308859 -4.0726733 0.28587022
6.8255072 -4.0576048 0.276124
6.8431487 -4.0523868 0.28995076
6.8435483 -4.0427737 0.2848061
6.8436356 -4.039001 0.2785477
6.8468637 -4.0297046 0.29377973
6.8655019 -4.016037 0.28466129
6.8624134 -3.9988129 0.28955474
6.8643398 -3.9866612 0.28582206
6.8695703 -3.9878433 0.28198072
6.8799071 -3.9657311 0.28835332
6.8973622 -3.9546788 0.28027055
6.9050574 -3.9516521 0.28787366
6.9065661 -3.9538798 0.27555028
6.9029169 -3.9416616 0.2774519
6.9129953 -3.9318426 0.27909425
6.918293 -3.9090002 0.28484085
6.9144583 -3.9148469 0.27824032
6.9355035 -3.904355 0.27421242
6.9328027 -3.894207 0.27941558
6.9462471 -3.879283 0.27713606
6.9460506 -3.8724511 0.27630669
6.9577579 -3.8634582 0.28889388
6.9570546 -3.8384774 0.28963524
6.9640145 -3.8426533 0.29296938
6.9728622 -3.8222442 0.27648911
6.9633389 -3.8220184 0.29321036
6.8136616 -3.7201614 0.33934161
6.8231301 -3.713877 0.34140298
6.828558 -3.6957335 0.34394845
6.8191752 -3.6895726 0.35174674
6.8274999 -3.6890213 0.35669765
6.8349819 -3.6621628 0.34095484
6.8350382 -3.6613939 0.34049878
6.8558221 -3.6590376 0.34616518
6.8599267 -3.6331928 0.34253144
6.867538 -3.6422167 0.34940687
6.8718567 -3.6203632 0.35748249
6.8773885 -3.6142328 0.34234267
6.8649678 -3.6078529 0.35583916
6.8750792 -3.5960209 0.34598228
6.8729758 -3.5810163 0.34715509
6.8958097 -3.5836682 0.34565774
6.9028878 -3.5713894 0.35539353
6.8894958 -3.5634391 0.35794243
6.9017572 -3.5364826 0.35678604
6.9103713 -3.5270004 0.35704818
6.9058471 -3.5182714 0.34959942
6.9093857 -3.5090697 0.35870972
6.9177704 -3.5173337 0.34462115
6.9196386 -3.5005186 0.35277894
6.9316359 -3.4908254 0.34634885
6.9447927 -3.4833038 0.34766719
6.936439 -3.4736962 0.35165748
6.9378071 -3.4624588 0.35398462
6.9617109 -3.4439256 0.35364768
6.9644446 -3.4417298 0.35316536
6.9674273 -3.4289961 0.35177773
6.9629474 -3.4176493 0.34995052
6.9675641 -3.4028287 0.35021096
6.9780788 -3.3910382 0.35763162
6.8067222 -3.3091762 0.40998894
6.8188219 -3.3022242 0.41529378
6.8122263 -3.2884836 0.42053065
6.829608 -3.278219 0.4073225
6.8293033 -3.2688813 0.42295876
6.8286486 -3.261627 0.41109502
6.8474984 -3.2561939 0.42226234
6.8449469 -3.240031 0.41506743
6.8405552 -3.2240276 0.41297713
6.8564105 -3.2222729 0.41295478
6.859673 -3.2066083 0.42210689
6.8703742 -3.2034647 0.40871271
6.8663664 -3.1915233 0.41955417
6.8675828 -3.186794 0.41114897
6.8755774 -3.16695 0.42256373
6.8791947 -3.1723275 0.41170868
6.8909349 -3.1634095 0.41675624
6.8938293 -3.1415834 0.40842998
6.8895149 -3.1286764 0.40656385
6.9030972 -3.124428 0.41690314
6.8966436 -3.1214178 0.41335106
6.8993287 -3.1121938 0.42338055
6.9086061 -3.0914512 0.41578308
6.9087119 -3.0939534 0.42334023
6.9203987 -3.0729082 0.42116085
6.9234867 -3.0726793 0.40401679
6.9357061 -3.0651309 0.40619761
6.93296 -3.0590954 0.42060518
6.941874 -3.0417676 0.41831425
6.9489083 -3.0352383 0.41066
6.9462681 -3.0195293 0.41639817
6.9400625 -3.0054891 0.42173645
6.9438729 -3.0065114 0.41818732
6.9600725 -2.991755 0.42250016
7.1375761 -3.0644219 0.35331073
7.1392307 -3.0432611 0.33960742
7.1437268 -3.0341666 0.34379852
7.1503901 -3.0320914 0.34436509
7.1514473 -3.0253618 0.3525933
7.1501994 -3.0158434 0.35767898
7.1612835 -2.9931974 0.34879559
7.3325748 -3.0540707 0.2793633
7.3348093 -3.0420003 0.28412449
7.3534803 -3.0379221 0.29394653
7.3564496 -3.0342791 0.27619711
7.3551211 -3.0132504 0.2896587
7.3600745 -3.0119803 0.28225866
7.369205 -3.0082881 0.28697199
7.5340767 -3.0591526 0.2235419
7.552073 -3.0438471 0.22456191
7.55514 -3.041657 0.21824844
7.5493088 -3.0268438 0.21417123
7.5589361 -3.0140698 0.21192956
7.5733099 -3.0068839 0.22352524
7.5774913 -3.000973 0.22851719
7.7397866 -3.0502923 0.15937953
7.7597475 -3.0489576 0.1461587
7.7522936 -3.0426943 0.14636554
7.7695374 -3.0309358 0.15682396
7.7682419 -3.0054538 0.15206693
7.767951 -3.001163 0.15897317
7.7813315 -2.9869463 0.15015955
6.9244552 -4.9957647 0.15103357
6.9374804 -4.976922 0.14690764
6.9483743 -4.9676547 0.16129178
6.9386964 -4.9518547 0.14536081
6.9452195 -4.9414091 0.14163521
6.9615736 -4.9393606 0.15171245
6.8046069 -4.8179946 0.21759246
6.8195777 -4.803884 0.21775851
6.8248553 -4.8053222 0.21378422
6.8337674 -4.7956142 0.20799685
6.8344011 -4.7789278 0.21024908
6.8505726 -4.7761788 0.2216813
6.8626041 -4.769485 0.21270818
6.8690071 -4.7594037 0.20985246
6.8594651 -4.7497215 0.20775035
6.8661847 -4.7305932 0.21799475
6.8829679 -4.7206836 0.2101185
6.8820963 -4.7225308 0.20684779
6.9013777 -4.7058158 0.21262459
6.8966713 -4.6868901 0.21858582
6.9061642 -4.6940188 0.2116999
6.9178958 -4.6716509 0.21802051
6.9210463 -4.6639128 0.22148345
6.9352098 -4.6564207 0.20546629
6.9265041 -4.6451049 0.20956129
6.9356833 -4.6336918 0.22320479
6.9550929 -4.6321034 0.2171692
6.9466128 -4.6179814 0.21968789
6.9548488 -4.6111593 0.20931442
6.9688478 -4.595612 0.20825
6.8105607 -4.4925938 0.2739526
6.823462 -4.4691391 0.26886681
6.8226709 -4.4690619 0.28187498
6.8253293 -4.4613357 0.2727223
6.8319573 -4.4488163 0.28522304
6.8426666 -4.4336052 0.27946585
6.8470068 -4.4254584 0.28561664
6.8652973 -4.4122524 0.27620012
6.8660936 -4.4172578 0.28390706
6.876503 -4.3946977 0.27745393
6.8858347 -4.3986106 0.27976987
6.8773346 -4.3758831 0.2760362
6.8837347 -4.3801942 0.28286648
6.9031301 -4.3680811 0.28790113
6.8933592 -4.3555608 0.27592489
6.9160757 -4.3385386 0.26962036
6.9130211 -4.3233705 0.28191456
6.9161043 -4.316093 0.27785826
6.9297576 -4.3141866 0.27923149
6.9311042 -4.3080249 0.2735911
6.9459839 -4.2986727 0.27445519
6.9431663 -4.2839484 0.28845593
6.9566016 -4.2689381 0.28854609
6.9568534 -4.2606335 0.27114138
6.9621267 -4.2481866 0.27664033
6.97541 -4.2390976 0.26953655
6.8204517 -4.1404023 0.35148823
6.8195596 -4.1236186 0.3475545
6.8145981 -4.119215 0.33587667
6.830997 -4.0994859 0.34070143
6.8417416 -4.0908833 0.34521106
6.8333373 -4.0910916 0.33476919
6.8389201 -4.0838451 0.34965375
6.8445802 -4.0623126 0.34315079
6.8528218 -4.0614605 0.33939365
6.8665495 -4.0532641 0.33501649
6.8731599 -4.0440283 0.34089619
6.8781872 -4.0214591 0.33406049
6.8792677 -4.029613 0.34212056
6.8886566 -4.0071163 0.34039453
6.8828568 -3.9996095 0.33774737
6.9015536 -3.9862285 0.3453601
6.9097953 -3.9929729 0.35067993
6.9129076 -3.9797523 0.34798446
6.9095035 -3.9639714 0.33658585
6.9223289 -3.9601314 0.34382007
6.9307642 -3.9353359 0.35071859
6.925065 -3.9311547 0.35060698
6.9325171 -3.9315214 0.33275461
6.9480157 -3.908114 0.34780401
6.9417744 -3.8961074 0.34075737
6.9528728 -3.8909924 0.33748093
6.95157 -3.8832107 0.33784175
6.955574 -3.8778777 0.34179693
6.9768686 -3.8614964 0.35189897
6.9667511 -3.8578241 0.33619925
6.8179388 -3.7593839 0.39916661
6.8217988 -3.7442358 0.41313678
6.8255339 -3.7271299 0.39707533
6.8314037 -3.7200065 0.41474885
6.8323092 -3.7245913 0.41474861
6.8461547 -3.7035313 0.41017559
6.8367109 -3.6892145 0.40368888
6.8476143 -3.6963203 0.41283211
6.8624597 -3.6875446 0.40864593
6.8673935 -3.6742861 0.39841393
6.8566141 -3.6693106 0.40504244
6.8652682 -3.6457193 0.39731756
6.8678784 -3.6436238 0.39718965
6.874414 -3.640877 0.41466916
6.8786101 -3.6224291 0.39804047
6.882792 -3.6153269 0.41294089
6.9023876 -3.6028466 0.41262037
6.8954835 -3.5846279 0.39564875
6.8977089 -3.5767152 0.39790034
6.9157348 -3.5690067 0.40385088
6.9235148 -3.5572021 0.40521038
6.9179101 -3.5618551 0.40058723
6.9245672 -3.5489957 0.40847835
6.9310827 -3.5346854 0.4095282
6.9350643 -3.5212507 0.39943072
6.9424038 -3.5086918 0.40683317
6.9446301 -3.5015817 0.39710632
6.9465227 -3.506407 0.39598185
6.9514298 -3.4940248 0.41314656
6.9585748 -3.4686213 0.40838927
6.9716573 -3.4604282 0.40579918
6.9660854 -3.4628172 0.40891159
6.9758768 -3.4435132 0.41523194
6.973546 -3.4426441 0.40620434
6.8221636 -3.3388531 0.46446744
6.8106408 -3.3367612 0.46209618
6.8265076 -3.317353 0.47715607
6.832634 -3.3209493 0.47770467
6.8376222 -3.3045218 0.46094278
6.8397622 -3.3058188 0.45988503
6.8371315 -3.2788897 0.47731403
6.8518972 -3.2823749 0.46264094
6.8497624 -3.2608979 0.477552
6.8539343 -3.2665675 0.46360558
6.8690658 -3.2583337 0.45983952
6.8589253 -3.2462943 0.46866301
6.8664002 -3.2230465 0.46738562
6.8689218 -3.2183177 0.47299644
6.8719783 -3.2132318 0.46551293
6.8782601 -3.2106245 0.46720409
6.8834705 -3.1952527 0.46628952
6.8860965 -3.189707 0.4723483
6.8940358 -3.1708746 0.47033638
6.8968725 -3.1724355 0.47310072
6.9057498 -3.1634171 0.4745383
6.9108477 -3.1490777 0.47844851
6.9047556 -3.1317885 0.47603321
6.9173722 -3.1164894 0.46876743
6.9155865 -3.122632 0.47700176
6.9263039 -3.1069784 0.47825143
6.9386988 -3.0905859 0.46527439
6.9301658 -3.0960262 0.46823856
6.9476776 -3.0779717 0.46042421
6.9431643 -3.0615118 0.46143198
6.941402 -3.0605927 0.46183491
6.9610639 -3.0389807 0.46694794
6.964622 -3.0478523 0.45971477
6.9657516 -3.0284846 0.47813898
6.9596014 -3.0152671 0.46077278
6.9616723 -3.0156834 0.46940646
6.9649796 -3.0080421 0.46477252
7.1494875 -3.0682402 0.40151137
7.162859 -3.0600111 0.41015381
7.1684022 -3.0405922 0.4055782
7.1549392 -3.0272188 0.41223755
7.1618652 -3.0184541 0.41081899
7.1738901 -3.0103872 0.41083297
7.178668 -3.0054336 0.40051264
7.1818566 -2.9908593 0.41370192
7.3626828 -3.0514622 0.33324012
7.3572121 -3.0396833 0.33422118
7.3670936 -3.0417769 0.34026098
7.3772202 -3.0347784 0.34455532
7.3759751 -3.0065022 0.3382881
7.3901405 -3.0159407 0.33540753
7.3909502 -3.0026908 0.35129941
7.566051 -3.0529578 0.28173858
7.565527 -3.0510929 0.27064812
7.5746679 -3.0302358 0.28412181
7.5769835 -3.0277524 0.28000894
7.5823436 -3.0150089 0.27740839
7.5886703 -2.9966397 0.28244212
7.6010218 -2.9923847 0.28419617
7.774065 -3.0431983 0.22042112
7.7845111 -3.0342157 0.22043881
7.7720613 -3.0286207 0.2234105
7.7754884 -3.0278323 0.21713163
7.7928605 -3.0118361 0.22216451
7.7991271 -2.990953 0.21749561
7.9758415 -3.0601101 0.16122405
7.9715338 -3.0397673 0.15064618
7.9846096 -3.0373075 0.14786084
7.9827037 -3.0266907 0.15874813
7.9825363 -3.003623 0.15783055
8.0021 -2.9943714 0.15505499
6.9532995 -4.9814358 0.22047012
6.8178296 -4.8661113 0.28325257
6.8126903 -4.8499947 0.28214839
6.8235559 -4.8494177 0.28461328
6.8269348 -4.8369675 0.28369898
6.8357511 -4.8227906 0.2841337
6.8457155 -4.8121939 0.27673304
6.8440981 -4.8110142 0.27965429
6.8604712 -4.7916155 0.28043148
6.8732467 -4.7758207 0.27026016
6.8724937 -4.7809601 0.27956033
6.8756456 -4.7739663 0.28378946
6.8794327 -4.7588959 0.27463552
6.8821025 -4.7397308 0.27654958
6.9072242 -4.7439442 0.28139496
6.9114175 -4.7260861 0.27088949
6.9160323 -4.7249942 0.28144303
6.9132333 -4.7122378 0.28362957
6.9333415 -4.6898127 0.2756587
6.9342136 -4.6813035 0.2739172
6.944901 -4.6802244 0.27746135
6.9448752 -4.6626587 0.27841493
6.9490647 -4.6679559 0.28484526
6.964087 -4.6572213 0.28083792
6.96101 -4.6479897 0.28300482
6.8045878 -4.5157261 0.33554217
6.8156762 -4.5111151 0.33740717
6.8173046 -4.4958878 0.34238875
6.8211069 -4.4871225 0.34014642
6.8369246 -4.4840426 0.33675525
6.8509874 -4.476819 0.3447755
6.8485813 -4.4761515 0.3406854
6.8471155 -4.4578114 0.34161222
6.8520665 -4.4509525 0.34357899
6.8729968 -4.4336605 0.34507364
6.8760805 -4.4210906 0.3436698
6.889555 -4.4237475 0.33737582
6.884881 -4.411078 0.33679944
6.8851748 -4.4008961 0.33546954
6.9032135 -4.3811717 0.34769231
6.8978472 -4.3736472 0.33760253
6.9204879 -4.3747783 0.33863518
6.9190245 -4.3636112 0.32845435
6.9184752 -4.3537154 0.33557019
6.919879 -4.3490987 0.33040699
6.9427633 -4.3275943 0.34823433
6.944231 -4.3187976 0.33381632
6.9393911 -4.3208447 0.34247065
6.9539609 -4.308753 0.33170152
6.9671879 -4.2847657 0.33104232
6.9726238 -4.2922735 0.32828486
6.9679561 -4.2832561 0.33476514
6.8222694 -4.1623912 0.40490627
6.8282876 -4.1478038 0.39316112
6.8214087 -4.137888 0.39637578
6.8293533 -4.1311493 0.39142972
6.8351121 -4.1289916 0.40560624
6.8464394 -4.1177092 0.4080537
6.8464079 -4.1178775 0.3929019
6.8555937 -4.0908279 0.39203849
6.8641071 -4.0843363 0.39395982
6.8698497 -4.0884933 0.39518252
6.8820591 -4.0622659 0.40813315
6.8822627 -4.0558348 0.40616503
6.890708 -4.0420852 0.4045983
6.8823543 -4.0461788 0.40024772
6.8890409 -4.0302892 0.40852422
6.9098911 -4.0288348 0.39854476
6.9131751 -4.0131602 0.39884993
6.9212937 -3.9940352 0.3966504
6.908536 -3.9921191 0.39137965
6.9176855 -3.990169 0.39238131
6.9280448 -3.9817052 0.41003171
6.9313407 -3.9587195 0.40452629
6.9326553 -3.9529572 0.40317643
6.9523897 -3.9412041 0.40813023
6.9477596 -3.9284055 0.3993631
6.9513931 -3.9203856 0.40243256
6.9650331 -3.9146967 0.3915503
6.9589648 -3.9064908 0.41015902
6.9706836 -3.896631 0.40104216
6.8111877 -3.7904239 0.46635926
6.818481 -3.792423 0.46834955
6.823411 -3.776674 0.46366039
6.8228226 -3.7651451 0.45506057
6.8408709 -3.7594028 0.46853346
6.8438597 -3.7437975 0.46511641
6.838068 -3.7300534 0.46002334
6.8553329 -3.7281497 0.4709155
6.8617015 -3.7177808 0.46030241
6.8666658 -3.7011468 0.46983024
6.8625002 -3.7035184 0.46306637
6.8615041 -3.6838937 0.46480095
6.8824854 -3.6846225 0.45277476
6.8787642 -3.6712103 0.46276045
6.8864298 -3.6650066 0.46896392
6.8875546 -3.6410582 0.46124053
6.9052491 -3.6481316 0.45772213
6.8978372 -3.623158 0.46656111
6.9013038 -3.6170194 0.45621502
6.914144 -3.6111069 0.45294189
6.9164987 -3.5945377 0.45772901
6.9120755 -3.5841279 0.45256531
6.9293742 -3.5778875 0.45709011
6.9346328 -3.5805058 0.46543729
6.9298635 -3.5605822 0.47039092
6.9512844 -3.5446441 0.46968886
6.9449682 -3.5361087 0.47230178
6.9551201 -3.5400689 0.47026992
6.9540977 -3.5256324 0.46475115
6.9627156 -3.5234127 0.45551214
6.9680467 -3.5038817 0.45320269
6.9781513 -3.4938033 0.47165614
6.9830785 -3.4914429 0.46669617
6.8024902 -3.383796 0.53159076
6.8201442 -3.3911762 0.52460754
6.8227382 -3.3821115 0.52388763
6.8246169 -3.364326 0.52202147
6.8290949 -3.3613374 0.5265066
6.8315282 -3.3443072 0.51573253
6.8484292 -3.3435812 0.5174759
6.8360782 -3.3224328 0.52904093
6.841404 -3.3160746 0.52096814
6.8451705 -3.3096707 0.52553266
6.8639631 -3.298696 0.52298331
6.8655038 -3.2948036 0.52355462
6.8600473 -3.2730396 0.52368468
6.873858 -3.2741063 0.5320881
6.8857894 -3.2553909 0.53396118
6.8821921 -3.2389247 0.52333903
6.8878078 -3.2302272 0.52391088
6.895153 -3.2385371 0.5160926
6.8940501 -3.2261636 0.52508742
6.904861 -3.214654 0.53093469
6.9002228 -3.2089674 0.51819867
6.913022 -3.1863437 0.51979071
6.9063787 -3.1737652 0.53357583
6.9198523 -3.1719525 0.51671696
6.9217157 -3.1627715 0.52899009
6.9254389 -3.161737 0.52813917
6.9385266 -3.1396234 0.52638948
6.9321723 -3.1346869 0.52672732
6.9379864 -3.1153629 0.5298295
6.9527817 -3.109724 0.51482612
6.9534111 -3.1132059 0.51588762
6.9612904 -3.0883577 0.52994525
6.9507484 -3.0746083 0.52694714
6.9539781 -3.0718277 0.51612151
6.9603357 -3.0716121 0.52483046
6.9789524 -3.052089 0.52492112
6.9767046 -3.0438802 0.51746666
6.9726939 -3.0264142 0.52528363
6.989007 -3.0275087 0.52275342
6.988409 -3.0181696 0.51618487
6.992794 -3.0125492 0.51645124
6.9982271 -3.0033834 0.53187633
7.1724219 -3.0640008 0.46922195
7.1689916 -3.0505319 0.46178034
7.1747212 -3.0349994 0.46484667
7.1891465 -3.0251303 0.45772272
7.1836481 -3.0217752 0.46908808
7.190681 -3.0066845 0.46819425
7.2055173 -2.9995198 0.45647436
7.1978092 -2.9971793 0.46435651
7.3790622 -3.0476298 0.40598243
7.3851256 -3.0436375 0.40915844
7.3865995 -3.0243533 0.39688233
7.3875384 -3.0327754 0.40807047
7.4010215 -3.0197294 0.40478045
7.3975558 -2.9965067 0.40134293
7.4069524 -2.9830163 0.39123762
7.5839486 -3.0579574 0.34406117
7.5838866 -3.0507774 0.3361485
7.5920906 -3.0354977 0.34053615
7.6081614 -3.0186865 0.3373909
7.6079769 -3.0200777 0.34794095
7.6109538 -3.004246 0.34747213
7.7984791 -3.0614781 0.26613867
7.8004355 -3.0394373 0.26966974
7.799087 -3.0450697 0.28610286
7.7942858 -3.0254991 0.28569978
7.7993636 -3.0093606 0.27126777
7.8193836 -2.9975479 0.27343103
7.8114758 -3.0017807 0.2802836
8.0054531 -3.0422113 0.21121739
7.9988518 -3.038764 0.21229127
8.0027847 -3.0365446 0.21858865
8.0062342 -3.0278294 0.20680559
8.0104675 -3.00143 0.20619655
8.0182161 -3.0006368 0.20908229
8.2004585 -3.0554318 0.15852612
8.204299 -3.0425825 0.15535724
8.2136917 -3.0339248 0.1531105
8.2052317 -3.0173717 0.15573436
8.2236071 -3.0085351 0.15505943
8.2150354 -2.9905608 0.14667574
6.8077946 -4.8875504 0.34007809
6.8275862 -4.8831034 0.34587336
6.8207655 -4.8636346 0.33694389
6.8395138 -4.8650584 0.33840936
6.8358493 -4.8484163 0.34039024
6.8497524 -4.8430719 0.33455464
6.8589034 -4.8410335 0.33504432
6.857717 -4.8259354 0.34094083
6.8762631 -4.8165865 0.33076939
6.8760276 -4.8081365 0.34486195
6.878016 -4.7935772 0.33817083
6.8774676 -4.7860527 0.34642395
6.9027014 -4.7721629 0.3446334
6.8989921 -4.7663245 0.3318966
6.9167352 -4.7509375 0.34627065
6.9164453 -4.7484212 0.33644804
6.9303064 -4.7435141 0.33911303
6.924644 -4.7265401 0.34731624
6.9248643 -4.7177539 0.33529899
6.9348998 -4.7159233 0.34215313
6.9390144 -4.6988115 0.33397827
6.9564242 -4.6889415 0.34373012
6.9620738 -4.6805177 0.33776513
6.965919 -4.6624699 0.32802218
6.8187599 -4.5471916 0.40478322
6.8240671 -4.5452051 0.39368322
6.8195386 -4.535984 0.39784646
6.8376622 -4.5190387 0.38932994
6.8439751 -4.5084724 0.39993706
6.8382578 -4.5144572 0.40270296
6.8593812 -4.5029001 0.39289978
6.8523164 -4.4804921 0.40327662
6.8749905 -4.478981 0.39237791
6.8716855 -4.4601564 0.38981852
6.8786244 -4.4567552 0.40667886
6.8815689 -4.4544039 0.39602014
6.8933997 -4.442925 0.40506807
6.88938 -4.4396529 0.40153795
6.896831 -4.4163852 0.39904171
6.914875 -4.405139 0.40101969
6.9156718 -4.3990598 0.40500492
6.926652 -4.386323 0.4018392
6.9279957 -4.3771763 0.39061746
6.938427 -4.3775849 0.38864422
6.9462852 -4.3572917 0.40048701
6.9509907 -4.3602781 0.40508756
6.9450235 -4.3376446 0.39156488
6.948091 -4.3252277 0.39170304
6.9676147 -4.3315434 0.4054893
6.9646287 -4.3059855 0.40089363
6.8216047 -4.2054605 0.45348269
6.8244147 -4.2006526 0.46842071
6.8240461 -4.1806307 0.46285141
6.8324418 -4.1762948 0.46721086
6.8388515 -4.1702032 0.46219233
6.8370905 -4.1654963 0.46450749
6.8399167 -4.152833 0.45976809
6.8492069 -4.1431646 0.45774904
6.8586221 -4.1200218 0.45970878
6.8618102 -4.1259007 0.45751292
6.8803887 -4.0988235 0.46579289
6.870801 -4.0948048 0.44937694
6.8761377 -4.0970106 0.46347019
6.8958917 -4.0766621 0.45237911
6.899992 -4.0757332 0.45785069
6.8990598 -4.0623808 0.45849225
6.9004297 -4.0520043 0.46225244
6.9170465 -4.0381265 0.46612778
6.9116311 -4.0406094 0.46358478
6.9281621 -4.0256662 0.46559364
6.9224834 -4.0178933 0.46510252
6.9250712 -4.005444 0.45904484
6.9312296 -3.9933801 0.46118829
6.951468 -3.9872711 0.45407882
6.9606013 -3.9827573 0.45828918
6.955193 -3.9648578 0.4662348
6.9704127 -3.9512568 0.45493177
6.9693789 -3.9466941 0.46787348
6.9722071 -3.9331887 0.46869147
6.8065476 -3.8350937 0.51554602
6.8086839 -3.822211 0.51977426
6.8303156 -3.8123419 0.52678728
6.8258762 -3.8019025 0.5161919
6.8435669 -3.7967997 0.52202541
6.8341351 -3.7881243 0.52268463
6.8489003 -3.7704048 0.51154792
6.8515978 -3.7629998 0.52430868
6.8629789 -3.7621489 0.51192099
6.8672886 -3.7439768 0.52331978
6.8724027 -3.7310269 0.52939993
6.8636155 -3.7212899 0.51886028
6.8790431 -3.7152572 0.52867961
6.8814702 -3.6989863 0.51942092
6.8932886 -3.6903341 0.52574033
6.8909273 -3.6964097 0.51120293
6.8892117 -3.6730032 0.52484542
6.8963461 -3.6721685 0.51634598
6.9162273 -3.6652091 0.51914299
6.903708 -3.6591828 0.51055026
6.9225736 -3.6332722 0.52533859
6.927506 -3.6213648 0.52028745
6.9218855 -3.6192329 0.51168549
6.9260707 -3.619863 0.50976336
6.9409838 -3.5938509 0.5268954
6.9422026 -3.5953627 0.52834642
6.9488707 -3.5837395 0.52359152
6.9491677 -3.570118 0.51005149
6.9609518 -3.5617373 0.51384401
6.9555192 -3.5509851 0.51402861
6.9614801 -3.546463 0.51048273
6.9822164 -3.5420904 0.52919573
6.9778876 -3.5284073 0.52038538
6.8148732 -3.4296489 0.58202487
6.8198733 -3.4272022 0.57926458
6.8219919 -3.4085648 0.58531576
6.8255486 -3.4082744 0.57330656
6.824337 -3.3926885 0.58522826
6.8295722 -3.3703065 0.57583308
6.8385868 -3.3783314 0.58748531
6.8477721 -3.3653562 0.57394832
6.8533988 -3.3565922 0.57506537
6.8577247 -3.3370907 0.58014035
6.8532271 -3.335454 0.58829618
6.8696132 -3.3136039 0.58939725
6.8632255 -3.3144083 0.57962745
6.8828754 -3.2964163 0.5806331
6.8705029 -3.2843831 0.58770317
6.890039 -3.2918484 0.58762693
6.8801661 -3.2750199 0.58999097
6.9019322 -3.2737129 0.57578897
6.8901477 -3.2514732 0.58080298
6.8994675 -3.249588 0.57576388
6.9138479 -3.2368679 0.58280057
6.9163713 -3.2324154 0.58211988
6.9199824 -3.218991 0.57106066
6.9138098 -3.2105439 0.58841276
6.9286299 -3.1990831 0.58821118
6.9305062 -3.1926866 0.57095081
6.9322929 -3.1807499 0.58091909
6.93643 -3.1716208 0.5825882
6.9463515 -3.1588364 0.57688421
6.9412737 -3.1412795 0.58344632
6.9511433 -3.1338749 0.57310337
6.9480362 -3.1284673 0.57758117
6.9642348 -3.1239552 0.58584517
6.9693604 -3.1101089 0.57291216
6.9718246 -3.1059222 0.58178949
6.9740739 -3.0843256 0.58740646
6.9790492 -3.0853949 0.57529694
6.973979 -3.0667663 0.58264726
6.9905643 -3.0626416 0.57310659
6.981432 -3.0480072 0.57144129
6.9988484 -3.0479021 0.58749259
7.005908 -3.0352893 0.57925761
6.9974322 -3.0308499 0.5858345
6.9972062 -3.0056429 0.57655174
7.004034 -3.0023165 0.5817433
7.0197253 -3.0010719 0.57881325
7.1962552 -3.0540223 0.52434701
7.2055311 -3.0412495 0.51952153
7.2021432 -3.0361817 0.52908415
7.2092009 -3.0245228 0.52353889
7.2145786 -3.0197108 0.52835047
7.2159944 -3.0120885 0.51602042
7.2291603 -2.9971783 0.51836956
7.4048481 -3.0598524 0.45541695
7.3953824 -3.0465257 0.46676132
7.4110937 -3.0417023 0.44957232
7.4038606 -3.0397658 0.46450165
7.4228897 -3.0128255 0.46216932
7.4170785 -3.013531 0.4548645
7.4208155 -2.9914234 0.44917229
7.6156578 -3.0595803 0.39749742
7.6187315 -3.0588784 0.40412918
7.6094608 -3.049212 0.39560717
7.6225243 -3.0240042 0.4074775
7.6333628 -3.0125377 0.40235323
7.6355309 -3.0096214 0.3917248
7.6404948 -2.9981847 0.39269954
7.817728 -3.0616348 0.32953283
7.8153567 -3.0451834 0.33605784
7.825665 -3.0291986 0.33433962
7.8302665 -3.0192254 0.34552035
7.8239198 -3.0104525 0.3467935
7.8441896 -2.9952097 0.34711763
7.8359227 -2.991148 0.34202817
8.0175371 -3.048424 0.27703521
8.0160809 -3.0395517 0.28506801
8.0239792 -3.0299153 0.27389821
8.0328379 -3.0045855 0.27831626
8.0392551 -3.0058944 0.26828715
8.0521832 -3.001147 0.28333846
8.2219667 -3.0424881 0.21670999
8.2244186 -3.0276952 0.2086807
8.2281265 -3.016839 0.22497194
8.2321434 -3.018441 0.2143967
8.2510548 -3.0006313 0.22355789
8.4247484 -3.0537381 0.14966029
8.4275007 -3.0377316 0.15494722
8.4390669 -3.0370913 0.15436378
8.4350348 -3.014241 0.16126527
8.4409561 -3.0026557 0.16170217
8.4419136 -3.0040543 0.15603274
8.6398067 -3.0071034 0.10416722
6.8098302 -4.9189596 0.39465857
6.8244843 -4.9184952 0.39084032
6.8220439 -4.9079165 0.39846933
6.8351612 -4.8854547 0.40086681
6.8363519 -4.889431 0.39754725
6.8495092 -4.8675208 0.40621242
6.8597355 -4.8583937 0.40404189
6.8531623 -4.8587103 0.39416701
6.8759131 -4.8477612 0.40750355
6.8804226 -4.8367877 0.39741057
6.8891525 -4.8221126 0.3896181
6.8818808 -4.8196526 0.39278427
6.8907771 -4.8064885 0.39701346
6.9072895 -4.7870498 0.39417976
6.9061856 -4.7932491 0.39783517
6.9217486 -4.7731075 0.39385697
6.9259634 -4.7695417 0.3894524
6.9279943 -4.7593379 0.39516792
6.9401369 -4.7531595 0.40225998
6.9456019 -4.7292337 0.39074373
6.9409614 -4.7233276 0.40431118
6.948514 -4.7114286 0.3907378
6.9592199 -4.7173562 0.40071821
6.815969 -4.5864315 0.45986611
6.8078938 -4.5905757 0.46383706
6.8234606 -4.5658393 0.45831165
6.8350363 -4.5635571 0.46670434
6.8421936 -4.5458989 0.45564365
6.8350534 -4.5427408 0.46109518
6.8549919 -4.5407453 0.46079671
6.8634005 -4.5300059 0.45671964
6.8653636 -4.5183148 0.4548471
6.8737397 -4.5025058 0.45734406
6.8720832 -4.4983501 0.45400447
6.8902125 -4.4886813 0.45701975
6.8922997 -4.4698439 0.45526177
6.8888478 -4.465816 0.46626759
6.8937755 -4.4610023 0.46540374
6.9076285 -4.4496875 0.4581618
6.90692 -4.4447794 0.46337
6.9258995 -4.4377942 0.44976351
6.9207888 -4.4151645 0.45828509
6.9337916 -4.4104638 0.45304364
6.9292779 -4.3937116 0.46237722
6.9414115 -4.3851085 0.45179024
6.9565468 -4.3806829 0.45044246
6.9499102 -4.3659611 0.46351555
6.9542661 -4.37255 0.45178652
6.9777446 -4.3515105 0.46174791
6.8120146 -4.2361536 0.52633268
6.8132911 -4.2294784 0.5089125
6.8209476 -4.2140994 0.52447164
6.8371124 -4.2118883 0.51507241
6.828023 -4.2003489 0.51275772
6.8482533 -4.2028203 0.50936997
6.8378835 -4.1762877 0.52072263
6.8461523 -4.1825085 0.51710367
6.8674812 -4.1704769 0.51719379
6.8570676 -4.1610575 0.50861299
6.8766022 -4.1414919 0.52443278
6.8813596 -4.1465716 0.51742625
6.8886838 -4.1299038 0.51628935
6.8915534 -4.1229658 0.50784552
6.8850107 -4.1110005 0.52141517
6.8961396 -4.1046729 0.5229792
6.9038672 -4.0945711 0.52153361
6.9029346 -4.0820427 0.52431661
6.9183693 -4.0740142 0.50957203
6.9138803 -4.0622149 0.51468003
6.9207973 -4.0566835 0.50977874
6.9435205 -4.0321832 0.51021445
6.9392238 -4.0261345 0.51772708
6.9537768 -4.0229783 0.52257794
6.9598722 -4.012114 0.50978714
6.9595242 -3.9958558 0.51370817
6.9607263 -3.9975917 0.51810759
6.9604692 -3.9859693 0.52540433
6.9829817 -3.9646075 0.51109016
6.8048177 -3.8588171 0.57827628
6.8175344 -3.8666086 0.58199042
6.8253365 -3.8573315 0.58054155
6.8335614 -3.8379927 0.57547033
6.8292851 -3.8297291 0.58387637
6.8298469 -3.8209844 0.57346016
6.837604 -3.8181889 0.56960744
6.8492694 -3.7997787 0.57431626
6.8653207 -3.7871993 0.58093727
6.8686552 -3.777668 0.57920218
6.8576622 -3.7659292 0.57893282
6.8744936 -3.7668748 0.58137035
6.8750262 -3.7454064 0.58357549
6.8740959 -3.7410882 0.57560259
6.8880816 -3.7264073 0.58636904
6.8904595 -3.7165132 0.57634836
6.9024081 -3.7241967 0.57958388
6.9104905 -3.7055368 0.57168281
6.9032679 -3.6961339 0.56680685
6.9226532 -3.6886914 0.5819006
6.92029 -3.6775234 0.57916421
6.917644 -3.6747921 0.58590573
6.9374218 -3.6567836 0.58453202
6.9393911 -3.6449466 0.57788551
6.9333744 -3.6443522 0.57632142
6.9381108 -3.6265948 0.57504565
6.9528127 -3.6220901 0.57647341
6.9507365 -3.6146913 0.56694096
6.9607458 -3.5996892 0.57718402
6.9658656 -3.5904632 0.58523488
6.9660654 -3.5887482 0.57481176
6.9835157 -3.5748136 0.57747072
6.9876938 -3.566222 0.56848198
6.820385 -3.4739115 0.64101523
6.8163943 -3.459806 0.64512384
6.8308268 -3.4460447 0.63731235
6.8239698 -3.4426486 0.64432073
6.8385272 -3.4263823 0.62903613
6.8435388 -3.4251466 0.63905466
6.8387804 -3.4038177 0.62859333
6.8420596 -3.4073014 0.63013399
6.8549023 -3.3783348 0.63588941
6.8503904 -3.3701758 0.64050961
6.8568764 -3.3641987 0.64084989
6.8565345 -3.3670495 0.64579254
6.8802872 -3.3402927 0.63498646
6.8762155 -3.3452039 0.63805968
6.8791385 -3.3403554 0.62787586
6.8867636 -3.3152795 0.62939769
6.8843942 -3.3197334 0.64271164
6.8915496 -3.3056662 0.64299816
6.9002323 -3.2835011 0.64270121
6.8946571 -3.2905788 0.64100641
6.9136887 -3.2758884 0.6357255
6.9130468 -3.2662451 0.63802373
6.9173346 -3.25754 0.63750237
6.9308023 -3.2375846 0.64248669
6.92733 -3.2393706 0.64273
6.9336605 -3.2181828 0.63845301
6.9414992 -3.2240024 0.64011955
6.9426384 -3.2072909 0.62624419
6.9440508 -3.1865077 0.6449185
6.9451528 -3.1958973 0.62689298
6.9445462 -3.1708398 0.63392943
6.9586449 -3.1709945 0.64097452
6.9550285 -3.1514192 0.62708354
6.9708772 -3.1429195 0.64350051
6.9716969 -3.1424227 0.62847745
6.9727464 -3.1201122 0.64498216
6.9895048 -3.1144664 0.64600068
6.9879165 -3.1121716 0.63405788
6.8179731 -3.0152276 0.69256747
6.8210483 -3.0196018 0.69265378
6.8260846 -3.0090325 0.68810618
6.8181438 -2.9888 0.69370604
7.0121326 -3.0533445 0.62982917
7.0174265 -3.0494673 0.64409006
7.0191236 -3.0491657 0.62913162
7.025784 -3.0321968 0.62676114
7.0289359 -3.0228374 0.64030784
7.033092 -3.0194211 0.62641478
7.0252919 -2.9958231 0.64201164
7.0366397 -2.9933696 0.64373112
7.2238035 -3.0648651 0.56716275
7.2107663 -3.0534689 0.58066022
7.2233152 -3.0271609 0.57683033
7.2313218 -3.0198317 0.56710696
7.2335749 -3.0150647 0.56790829
7.2408552 -3.0078828 0.57589585
7.2457514 -3.0017817 0.58345413
7.4206462 -3.0488005 0.5252859
7.4252691 -3.0545194 0.52026337
7.4254751 -3.0330818 0.50788826
7.4273858 -3.0244014 0.50898492
7.4320617 -3.0130255 0.51141429
7.4502211 -3.0133545 0.51008236
7.4445357 -2.989917 0.5260042
7.6262841 -3.0597823 0.4572635
7.6317472 -3.0550008 0.46496573
7.6451831 -3.029521 0.44867629
7.6461625 -3.0297956 0.44832733
7.6483068 -3.0097184 0.45190826
7.6454139 -3.0136919 0.46656969
7.6501307 -2.9999971 0.45954856
7.8337898 -3.055449 0.39418596
7.8421001 -3.0471115 0.39746773
7.8490629 -3.0286582 0.39380625
7.8519325 -3.0098121 0.40122309
7.8453946 -3.0097718 0.40278137
7.8665433 -3.0005503 0.39917365
8.0298243 -3.0626919 0.34529102
8.034399 -3.0385613 0.34017628
8.0425396 -3.0415337 0.34042433
8.0453253 -3.0239837 0.34369767
8.0610743 -3.0048149 0.33043888
8.0707932 -3.0015976 0.33458796
8.2427797 -3.0622697 0.28690666
8.2521801 -3.0374482 0.28647831
8.2489815 -3.023381 0.27514261
8.2473249 -3.0123656 0.2820752
8.2620449 -3.0006917 0.28401002
8.2622147 -2.9887083 0.27886102
8.4568062 -3.0579381 0.22017138
8.4521675 -3.0432615 0.22715396
8.4507856 -3.0170541 0.22207345
8.4561291 -3.0053303 0.22897223
8.4656038 -3.0048079 0.23056072
8.4667301 -2.9991491 0.22547121
8.6475039 -3.044534 0.16359526
8.6569214 -3.0319581 0.16057152
8.6532545 -3.008878 0.15770429
8.6715059 -3.0098281 0.15529728
8.6645908 -2.9999232 0.1572351
8.8588495 -3.0412536 0.10271547
8.8596296 -3.0256171 0.10195989
8.8553114 -3.0288627 0.10113067
8.8778753 -3.0068417 0.10902016
8.8820095 -2.9878867 0.11075925
6.8212695 -4.9490805 0.46945429
6.824945 -4.9347601 0.46114632
6.8283854 -4.9333067 0.45026848
6.8331938 -4.9290619 0.45666304
6.8488297 -4.9208112 0.45868436
6.858881 -4.9108348 0.45301875
6.8640642 -4.8893738 0.45583823
6.8737173 -4.8830843 0.45211056
6.8763142 -4.8807955 0.45282879
6.8743691 -4.8751245 0.46830913
6.8810186 -4.8504515 0.46048748
6.8870983 -4.8490143 0.45747867
6.9048572 -4.8310342 0.46640581
6.9117246 -4.8351302 0.47005039
6.904973 -4.810461 0.45240924
6.9202294 -4.8025985 0.45519796
6.9298067 -4.7963972 0.46989179
6.9221897 -4.7873735 0.46131009
6.9308319 -4.7825713 0.46544224
6.9401789 -4.7665181 0.46566054
6.9449925 -4.750607 0.46095791
6.9619708 -4.7553935 0.46808919
6.9559269 -4.7491856 0.46358764
6.82057 -4.6151299 0.52331865
6.8269205 -4.6225152 0.52013594
6.8356166 -4.6013684 0.51517439
6.8270879 -4.5973554 0.52676368
6.83324 -4.5876565 0.51771635
6.8507967 -4.5759988 0.52380216
6.8524728 -4.5616651 0.51626223
6.8543534 -4.5491743 0.51494563
6.8715181 -4.5463486 0.51914525
6.8758011 -4.5361962 0.51984626
6.8755689 -4.5297904 0.517156
6.8771033 -4.5234871 0.51757616
6.8954415 -4.5149264 0.50962985
6.8888049 -4.5013204 0.51617467
6.893744 -4.4879751 0.52288759
6.9096227 -4.4834719 0.51171792
6.9115734 -4.4636793 0.52533323
6.925971 -4.4683785 0.52188146
6.9190383 -4.4422722 0.51168877
6.9362922 -4.4382296 0.52207273
6.9342332 -4.4207516 0.50927776
6.9494705 -4.4280581 0.51319313
6.9451141 -4.4033327 0.51606685
6.9527984 -4.4115362 0.52293557
6.9670138 -4.4010797 0.51352984
6.9679284 -4.3810101 0.51899862
6.8156276 -4.2633243 0.57257372
6.8188186 -4.259624 0.57385278
6.8185449 -4.2490816 0.57158327
6.8280649 -4.247498 0.58369321
6.8479552 -4.2341714 0.58360904
6.8550377 -4.2317934 0.56653732
6.8460221 -4.2199426 0.5845018
6.8598671 -4.2065659 0.58456481
6.8605676 -4.1851187 0.58537781
6.8718486 -4.1888876 0.57654518
6.8685851 -4.1690426 0.57375687
6.8809323 -4.171968 0.58516306
6.8945456 -4.1611161 0.57759726
6.8858757 -4.1466794 0.58209258
6.8893023 -4.1382742 0.57038325
6.9126315 -4.128695 0.57151312
6.9188752 -4.114027 0.57494617
6.92307 -4.1113958 0.58220023
6.9273148 -4.0939336 0.58133781
6.9323587 -4.0910454 0.56713444
6.9285564 -4.0772624 0.58319592
6.9419527 -4.076961 0.56674331
6.9467411 -4.0688615 0.57154602
6.9439507 -4.0552344 0.58118075
6.945642 -4.0439687 0.56960803
6.9556103 -4.0351491 0.57799363
6.9666948 -4.0258474 0.57141858
6.9811993 -4.0180988 0.57783753
6.8170519 -3.8963342 0.63002491
6.8177872 -3.8909853 0.63749665
6.824306 -3.8951464 0.62909019
6.8268733 -3.8716061 0.63131624
6.8329744 -3.8689582 0.63196462
6.8438649 -3.8547685 0.63655561
6.844377 -3.8445415 0.64271945
6.853303 -3.8299868 0.62800223
6.8506012 -3.8299747 0.63287818
6.861311 -3.8210716 0.63578624
6.8584261 -3.8160241 0.6352281
6.8697648 -3.7956944 0.63051862
6.8685617 -3.7942855 0.63214004
6.8789387 -3.7757363 0.62778622
6.8915286 -3.7764995 0.63655716
6.8847532 -3.7717724 0.62998718
6.9025555 -3.75192 0.62410581
6.906508 -3.7485154 0.64323342
6.91573 -3.7331727 0.63282001
6.9098144 -3.7324669 0.64174885
6.9267936 -3.7199795 0.6261571
6.9232011 -3.701474 0.64131957
6.9348855 -3.6894782 0.62830776
6.9281783 -3.692399 0.62425458
6.9371033 -3.6680102 0.62984031
6.9347858 -3.6756635 0.63054806
6.9458852 -3.6507678 0.64149553
6.9510894 -3.6471593 0.6262278
6.9554076 -3.6395552 0.63667554
6.9692988 -3.62308 0.63819426
6.9721055 -3.6148252 0.64255857
6.9793067 -3.6153493 0.6357795
6.981657 -3.5893614 0.63133985
6.8208666 -3.5074759 0.6922667
6.8260026 -3.4898129 0.68996078
6.8167105 -3.4796 0.69032371
6.8281131 -3.463407 0.68589723
6.8304496 -3.4671152 0.69538695
6.8375053 -3.4515972 0.68278122
6.8349957 -3.4472661 0.6969443
6.853991 -3.4251935 0.68964857
6.8573375 -3.4209709 0.69210821
6.8538918 -3.4194357 0.69082803
6.8659925 -3.4136002 0.69393414
6.8610563 -3.3875172 0.68519896
6.8738008 -3.3956013 0.69716579
6.8868947 -3.3771443 0.69580781
6.8755488 -3.3611991 0.701217
6.8936796 -3.3630335 0.69261295
6.8991909 -3.3521998 0.69880182
6.8988519 -3.3471789 0.69751859
6.8912034 -3.323607 0.69090641
6.9060016 -3.3282626 0.696271
6.9195061 -3.3055861 0.69790632
6.9161029 -3.2926009 0.69605297
6.9239511 -3.2916133 0.69653749
6.9237533 -3.2822602 0.68589413
6.9221835 -3.2689683 0.70160443
6.9260092 -3.2622478 0.68588239
6.9412179 -3.2547045 0.69138962
6.9426017 -3.2321751 0.69230652
6.9426885 -3.2219558 0.68717784
6.9561501 -3.2215865 0.68776917
6.9549623 -3.2123475 0.70140654
6.9553967 -3.211133 0.69839191
6.9739642 -3.1866779 0.68672127
6.9730024 -3.1870158 0.69475371
6.9813838 -3.1735041 0.68642163
6.9854617 -3.1607342 0.69514728
6.973804 -3.1573098 0.70174718
6.8132205 -3.0581789 0.75915164
6.8078499 -3.0625949 0.75914288
6.8173375 -3.0380633 0.74981511
6.8274031 -3.0392194 0.74003172
6.8310924 -3.0244281 0.74176204
6.8317542 -3.0155427 0.75824034
6.8407321 -3.0120785 0.74466771
6.837729 -3.0046792 0.75488704
7.0216703 -3.0745444 0.69019979
7.0191412 -3.0633311 0.69715589
7.0231986 -3.0426872 0.69464159
7.0266957 -3.0316954 0.69821066
7.0301704 -3.0354846 0.69680476
7.0443034 -3.0134633 0.68473017
7.0486398 -3.0119944 0.69792843
7.0546923 -2.9940927 0.69048774
7.2333479 -3.0663757 0.63902992
7.242383 -3.0506706 0.64338619
7.2416239 -3.0505028 0.62524527
7.2541137 -3.0371463 0.62852478
7.2535462 -3.0240016 0.64264971
7.2504497 -3.0116148 0.63796175
7.2509084 -2.9999952 0.63967395
7.2699471 -2.9984701 0.63359082
7.4338613 -3.0497983 0.58120316
7.4540973 -3.0460517 0.57483995
7.446878 -3.0439746 0.58130682
7.446137 -3.0171394 0.57339269
7.449738 -3.015327 0.57555449
7.4551835 -3.0052736 0.58097482
7.4638939 -3.0000234 0.56943589
7.6443834 -3.0533326 0.52222306
7.662601 -3.0388997 0.51446515
7.6625161 -3.0296206 0.51811087
7.656333 -3.0175705 0.51327622
7.6756983 -3.0095506 0.52180761
7.6686854 -2.9930017 0.52202988
7.8463836 -3.0511825 0.46074405
7.8579907 -3.0399847 0.46882334
7.8717446 -3.0275495 0.45655194
7.870903 -3.0305977 0.4591209
7.8785076 -3.0150039 0.46920711
7.8768349 -3.0054562 0.46305647
7.8873887 -3.0002427 0.45550898
8.0605059 -3.0534525 0.41137925
8.0699348 -3.0432603 0.4025327
8.0678797 -3.0242853 0.39954144
8.0660305 -3.0100605 0.39742151
8.0808315 -3.0085001 0.39554524
8.0836954 -2.9974422 0.39514402
8.2737684 -3.0579712 0.34277791
8.2669916 -3.0283663 0.35298446
8.2702847 -3.0246446 0.34176069
8.2874107 -3.0145638 0.34476665
8.2769737 -2.9944785 0.35157928
8.2803411 -2.9892232 0.33733875
8.4748936 -3.035265 0.29287112
8.4664812 -3.0421331 0.28932196
8.4759331 -3.0184126 0.29607016
8.4834929 -3.0160241 0.2826072
8.490634 -3.0072389 0.28384486
8.6638393 -3.0532284 0.22520521
8.6868277 -3.0361738 0.23670098
8.6785755 -3.0262182 0.2267343
8.6933117 -3.0109088 0.22530392
8.6948442 -2.9964247 0.23757394
8.8830566 -3.0540907 0.17928901
8.8838844 -3.0416889 0.18026862
8.8811464 -3.0240698 0.17314473
8.8851395 -3.0231099 0.17657943
8.8956518 -2.9992104 0.17696345
9.0687532 -3.0480003 0.10530557
9.0798655 -3.0365925 0.11655346
9.0824556 -3.0176773 0.10565146
9.0950613 -3.008249 0.11794734
9.0862188 -3.0014954 0.11261
6.8186359 -4.9765859 0.51579934
6.824367 -4.9645395 0.53027946
6.8410397 -4.9714341 0.52391118
6.8311539 -4.9436603 0.51247299
6.8518524 -4.9406085 0.52666318
6.8426118 -4.9409966 0.52229953
6.8568463 -4.9188881 0.52826142
6.8705721 -4.9224019 0.51826584
6.8632131 -4.9049902 0.52578753
6.8872337 -4.8959136 0.52323782
6.8775105 -4.8948383 0.51778334
6.8883553 -4.8749852 0.51486611
6.8936667 -4.8653984 0.51553535
6.9125962 -4.8526235 0.51444978
6.9200745 -4.8460622 0.52687806
6.9217291 -4.8356414 0.52937031
6.9190068 -4.817872 0.52441317
6.9422331 -4.8132501 0.52637517
6.9354501 -4.802846 0.51617223
