# .PCD v0.7 - Point Cloud Data file format
VERSION 0.7
FIELDS x y z
SIZE 4 4 4
TYPE F F F
COUNT 1 1 1
WIDTH 1547
HEIGHT 1
VIEWPOINT 0 0 0 1 0 0 0
POINTS 1547
DATA ascii
6.1637878 3.5377707 0.92757416
6.164485 3.5411081 0.92650419
6.1608119 3.5575228 0.91520554
6.1533813 3.5640152 0.9145295
6.1458297 3.5844398 0.91199917
6.1424356 3.5809453 0.92035282
6.1418333 3.5991757 0.90834534
6.2912474 3.701649 0.86024624
6.29742 3.6993999 0.8603909
6.2886477 3.7188253 0.85955298
6.2875972 3.73436 0.86558354
6.2823424 3.7355216 0.86635834
6.2760053 3.7379518 0.85496163
6.258357 3.757905 0.86147803
6.2600207 3.7552729 0.85984677
6.4235125 3.8731403 0.80960506
6.4108367 3.8767083 0.80558574
6.4061413 3.8892267 0.79841393
6.4098845 3.8930669 0.80021799
6.3937597 3.913296 0.81267923
6.3967848 3.9176481 0.81191409
6.385828 3.9219308 0.80355686
6.3756332 3.9250741 0.80888325
6.5372849 4.0365257 0.74887341
6.5420446 4.0543447 0.7540499
6.5251598 4.056519 0.74945301
6.5145717 4.0714025 0.73947734
6.5199513 4.0669875 0.7530809
6.518146 4.0917253 0.74159312
6.4981327 4.0857601 0.74141049
6.4905677 4.1082549 0.75666356
0.44244397 3.4374671 1.9839674
0.43098918 3.4447107 1.9894544
0.43174917 3.4306548 2.000948
0.43555668 3.4277072 1.9992592
0.42741957 3.4290798 1.9981799
0.41320223 3.4396756 2.0019505
0.41501194 3.4321558 1.9914888
0.39965433 3.4384065 1.9856883
0.41287404 3.4310315 1.9937677
0.40009031 3.4384494 1.9914992
0.40278825 3.4485009 1.9831183
0.39987096 3.4518745 2.00138
0.38243985 3.4407856 1.9849911
0.37650165 3.4382832 1.985067
0.36887389 3.4524231 1.9859344
0.38016611 3.4371257 1.9968232
0.37522829 3.4484193 1.9996245
0.359828 3.449137 1.9881154
0.35862654 3.4478571 1.988677
0.34550387 3.4385769 1.996109
0.35011193 3.4367785 1.9930513
0.34633848 3.4568479 1.9928328
0.34082597 3.444272 2.000998
0.33892399 3.4505441 1.98614
0.33709732 3.4539754 1.9849075
0.31613737 3.4534869 1.9878702
0.32606572 3.4528489 2.0016255
0.31879476 3.4415998 1.9956048
0.30001411 3.4539394 1.9878163
0.3017945 3.4579468 1.990267
0.29100621 3.4513533 1.9904455
0.29715964 3.4457784 1.9902259
0.28309408 3.4594834 1.9969697
0.27719328 3.4560795 1.9895316
0.2764338 3.4556429 1.9850777
0.27444133 3.4590406 1.9996947
0.2754111 3.4571619 1.99324
0.27013576 3.4528077 1.9951091
0.25883898 3.454469 1.9888972
0.25975338 3.4627075 1.986279
0.24311794 3.4449553 1.9966605
0.24666047 3.4581542 2.0010664
0.24998301 3.4620862 1.9987841
0.24004887 3.4649162 1.9927111
0.22267622 3.4517865 1.9858211
0.2208492 3.4614644 2.0019555
0.21363875 3.4569125 1.9958444
0.21997315 3.4518867 1.9850191
0.2081763 3.4603653 1.9955018
0.21016721 3.4545605 1.9938765
0.20953953 3.456923 1.9941589
0.19929285 3.4676311 1.9873071
0.19345193 3.466465 1.9840609
0.18532822 3.4601688 1.9833249
0.19113107 3.4613044 1.9891462
0.17004366 3.4654179 1.984339
0.16509037 3.4671261 1.9946805
0.17402561 3.4599743 1.999703
0.17213519 3.4658318 1.9929183
0.1607272 3.4584866 2.0000494
0.14769359 3.4553206 1.98927
0.15494211 3.4667151 1.9889327
0.13533862 3.4570763 1.9871702
0.13248856 3.4641218 1.998859
0.12890236 3.4617784 1.9914377
0.13113719 3.4631562 1.9878905
0.12856461 3.4643896 1.9858192
0.11633325 3.4593675 1.9963706
0.10912422 3.4572647 1.9925604
0.11513016 3.4685638 2.0011928
0.10826694 3.4716394 1.9864539
0.11062427 3.466774 1.9829106
0.092644162 3.4671159 1.9895366
0.092901401 3.4694185 1.9830227
0.084847294 3.4529464 1.9939868
0.089371622 3.4635205 1.9861568
0.070348687 3.4563339 1.9993953
0.069254324 3.4617276 1.9874532
0.058711138 3.4647248 1.9932567
0.064357691 3.4585402 1.9902143
0.058636621 3.4703047 1.9901093
0.058176465 3.4692397 1.9850074
0.054173015 3.4550073 2.0001225
0.036795456 3.4658453 1.9974226
0.032903928 3.4534423 1.9981391
0.039976444 3.4703772 1.9893252
0.03921897 3.4531028 1.9932268
0.031699855 3.4595478 1.9824312
0.012238694 3.4602633 1.9945482
0.01858099 3.4714391 2.0004029
0.0018808615 3.4617081 1.9979515
0.0050757267 3.456331 1.9943707
0.0031687191 3.4717646 1.9965
-0.0036230593 3.4546351 1.9894167
-0.013114832 3.4584284 1.9898865
-0.021890063 3.4541085 1.9872539
-0.019479154 3.4538455 1.9873164
-0.033166625 3.4708781 1.9937999
-0.037649665 3.453264 2.0009818
-0.030015603 3.4668069 1.9993296
-0.036526702 3.4684639 1.9879426
-0.045489158 3.4581306 1.9911816
-0.038032334 3.4707046 1.9898642
-0.048446033 3.4613016 1.9914337
-0.065942965 3.4672213 1.99682
-0.06296996 3.4691799 1.9979163
-0.062629357 3.4583642 1.9987868
-0.062226132 3.4586751 1.9967332
-0.075339206 3.4593174 1.9971157
-0.081270121 3.4524081 1.991098
-0.088853225 3.4638016 1.9868013
-0.087823153 3.4710469 1.9922415
-0.10355385 3.4705629 1.9903331
-0.10060173 3.464479 1.9991055
-0.096079797 3.4657118 1.993888
-0.10617146 3.4547315 1.9907269
-0.11516647 3.468905 1.9968539
-0.12329087 3.4682949 1.983403
-0.1334686 3.4593849 1.9907118
-0.12326348 3.469357 1.9912356
-0.13907576 3.4565589 1.983284
-0.13918455 3.4696033 1.9827154
-0.15385281 3.4517295 2.0018072
-0.15042919 3.4616201 1.9949664
-0.15823291 3.4608443 1.9895164
-0.1512537 3.4547889 1.9932506
-0.16743533 3.4645498 1.9913296
-0.17748953 3.4509976 1.9889768
-0.18099441 3.4520788 1.9978989
-0.17719005 3.4481759 1.9969847
-0.17286158 3.4532712 1.9834706
-0.19648431 3.4630678 1.983206
-0.20067529 3.463006 1.9852793
-0.20577402 3.4511776 1.9974616
-0.19771318 3.4563546 1.9890934
-0.21510191 3.45332 1.9949017
-0.20875609 3.4589124 1.9907095
-0.2243308 3.4592588 1.9932106
-0.22225787 3.4609082 1.9970449
-0.23126237 3.4511697 1.9972351
-0.22118062 3.450567 1.9827859
-0.24461249 3.4511485 1.9984058
-0.24830849 3.4523454 1.9942429
-0.24993069 3.4532497 1.9985372
-0.25937015 3.4470205 1.988301
-0.25717723 3.4482079 1.9953293
-0.26917559 3.460546 1.9882559
-0.26536554 3.4621139 2.0018413
-0.27905387 3.4505584 1.9973958
-0.26890737 3.4548023 1.9835377
-0.27857015 3.4539309 1.9894096
-0.28268144 3.4544301 1.9962023
-0.29117236 3.4560356 1.9845382
-0.28382561 3.4408207 1.9941312
-0.29218397 3.4409673 1.9978546
-0.31077787 3.4481075 1.9831316
-0.30234289 3.4480493 2.0011199
-0.32098076 3.4566011 2.0010555
-0.32603249 3.4562633 1.9898224
-0.3155292 3.4508708 1.9832261
-0.31888336 3.4406135 1.9961582
-0.3363649 3.4510422 1.9899964
-0.32705304 3.4377768 1.9858532
-0.34940469 3.4366546 1.986915
-0.34216264 3.4519694 1.9885499
-0.3511965 3.4534857 1.9977586
-0.35495254 3.4482312 1.9873493
-0.36071971 3.4491327 1.9859383
-0.36655048 3.4497759 1.9846432
-0.36361364 3.4457147 1.9984157
-0.36727232 3.4430914 1.9823977
-0.37799808 3.447778 1.997282
-0.37488499 3.4465668 1.9993813
-0.39591432 3.4477942 2.0008452
-0.39588112 3.4410527 1.9981178
-0.3942121 3.4300659 1.997407
-0.40333369 3.4401109 1.9919487
-0.4028638 3.4291761 1.9879059
-0.40380406 3.4371967 1.9850265
-0.42603859 3.43294 1.9986132
-0.41449976 3.4298096 1.9901105
-0.41897807 3.4407375 1.9868349
-0.42857119 3.4395621 1.9828953
-0.43606418 3.4421399 2.0007367
-0.44209236 3.429533 1.9923975
-0.45084709 3.4233761 1.9936388
-0.4603118 3.432878 1.985499
-0.45523381 3.4276292 1.987005
-0.45419779 3.426219 1.9971191
-0.4560402 3.4273522 1.9835703
-0.46429497 3.4248011 1.9874918
-0.4810515 3.4225481 1.9829488
-0.48108283 3.4354773 1.9978442
-0.48505276 3.4256878 1.9959383
-0.49118018 3.434644 2.0020528
-0.48564589 3.4196179 1.9826444
-0.49886939 3.4198992 1.9933788
-0.50023162 3.4300294 1.9995117
-0.50008684 3.4259658 1.9848886
-0.50982708 3.4248288 1.9920592
-0.51311493 3.4202054 1.9973464
-0.5324803 3.4235923 2.0010545
-0.53638774 3.4117146 1.9983724
-0.52539867 3.4206324 1.9865884
-0.53631449 3.4281869 1.9844545
-0.54111475 3.4260395 1.9879955
-0.5453223 3.4154308 1.9925252
-0.55879438 3.4082215 1.9878992
-0.56613243 3.4259171 1.9999301
-0.56809247 3.4186323 1.9915515
-0.56288075 3.412818 1.9992833
-0.57238078 3.4123957 1.991143
-0.57817161 3.4128225 1.9918722
-0.58664334 3.4089935 1.982273
-0.58689791 3.419003 2.0009892
-0.58928519 3.4089656 1.998325
-0.5881303 3.4194727 1.9858261
-0.60244453 3.4012587 1.9868984
-0.60138363 3.4004567 1.9864537
-0.60829055 3.4024434 1.9995179
-0.60357499 3.4143896 1.9875684
-0.61112636 3.4015825 1.9960036
-0.62681687 3.4077301 1.9856794
-0.62177688 3.4101503 1.9923465
-0.62633485 3.397059 1.9898503
-0.63217539 3.4063225 1.9981501
-0.64067882 3.4014819 1.9977974
-0.64167994 3.4070668 2.0000775
-0.64160752 3.3984511 1.9824091
-0.66197842 3.4076657 1.9875877
-0.66928381 3.406332 1.9855794
-0.66853744 3.4021819 1.9916372
-0.67935449 3.3870749 1.9847227
-0.68049455 3.4017406 2.0011151
-0.67496604 3.3965793 1.9853094
-0.6919325 3.3903074 1.999667
-0.68059772 3.4002609 1.9900906
-0.68961442 3.3939407 1.9870121
-0.69634956 3.3924191 1.9962375
-0.70075166 3.3952515 1.9956039
-0.69997376 3.3955021 1.9945695
-0.72120285 3.3812213 1.9903246
-0.71637261 3.3808444 1.9919188
-0.71845549 3.384047 1.9891313
-0.72414464 3.3774965 1.9821419
-0.72563809 3.3786967 1.9898466
-0.73277229 3.375947 1.9884772
-0.7494815 3.388895 2.0017667
-0.74926776 3.3798208 1.9945204
-0.75982714 3.3710558 1.9910986
-0.75101864 3.367779 1.9889263
-0.76324302 3.3679817 1.9934787
-0.75971091 3.377722 1.9986662
-0.77458298 3.3700852 1.9880749
-0.77224106 3.381464 1.9919584
-0.77688706 3.3760521 1.9980737
-0.77382684 3.3682077 1.9824778
-0.79213446 3.3683543 2.0008748
-0.79715091 3.3734133 1.9912488
-0.7894122 3.3726101 1.9939163
-0.80509371 3.3653111 1.9943713
-0.80294591 3.370482 1.9961002
-0.81624418 3.3638778 1.9886472
-0.8243534 3.3670928 1.9946418
-0.82305217 3.3573394 1.9931059
-0.81786585 3.3676281 1.9872557
-0.82656258 3.3656635 1.994665
-0.83085364 3.3500769 1.9833314
-0.8367461 3.354157 1.9981738
-0.85226274 3.3506579 1.9933368
-0.84511042 3.3561578 1.9823309
-0.85750133 3.3484845 1.9976325
-0.84816164 3.35219 1.9874732
-0.86627328 3.3524621 2.0016787
-0.8583886 3.3587093 1.987287
-0.87203813 3.3548152 1.984347
-0.8715362 3.3468955 2.0006118
-0.88362318 3.3393536 1.9824659
-0.88704199 3.3505869 1.9895825
-0.89561665 3.3509693 1.9943891
-0.88902658 3.3431685 1.9858911
-0.89344072 3.3476391 1.9909216
-0.90255135 3.3461103 2.0008664
-0.90181947 3.3311293 1.992298
-0.90688038 3.3286901 1.9911985
-0.9263311 3.3372574 1.9874331
-0.92872018 3.3309805 1.9969825
-0.93484253 3.3372691 2.000231
-0.93910903 3.3247895 1.9959604
-0.936257 3.3283839 1.9933264
-0.9485966 3.3232157 1.9841522
-0.94943231 3.3182786 2.0007157
-0.94523561 3.3288743 1.9970239
-0.95109242 3.3248439 1.9996312
-0.96551561 3.3203926 2.001086
-0.96103644 3.3211286 1.9924009
-0.96032071 3.3241119 1.9987385
-0.97005379 3.3256075 1.9926709
-0.97653645 3.3274693 1.995436
-0.9872877 3.3168142 1.9831145
-0.98067099 3.3184483 1.9869503
-0.98322666 3.3238742 1.9871808
-0.9892168 3.3181219 1.9993455
-0.99889672 3.3111365 1.9888247
-1.0059675 3.3143494 1.9952037
-1.0115814 3.3066611 1.9836766
-1.0058786 3.3043065 1.996497
-1.0138359 3.2968347 1.9921837
-1.027859 3.3074942 1.9911094
-1.0391148 3.3120146 2.0007634
-1.0426903 3.3077617 1.9934416
-1.0424278 3.3055615 1.9929421
-1.0419327 3.3019774 1.9880933
-1.0492709 3.2933176 1.9976684
-1.0471278 3.3021894 1.9918721
-1.0586036 3.2900474 1.9998099
-1.0616046 3.2882068 1.9868217
-1.0717831 3.2830052 1.9877967
-1.0662727 3.2883751 2.0008726
-1.0818347 3.2870812 1.999917
-1.0877404 3.2868023 1.9961629
-1.0809659 3.291374 1.9916694
-1.0946887 3.2810271 1.9850588
-1.093258 3.2879262 1.991262
-1.1022502 3.2815504 1.987817
-1.0970366 3.2882791 1.9937166
-1.103883 3.2765846 1.9992683
-1.1037154 3.2792876 2.0011177
-1.1225706 3.2720747 1.9898425
-1.1283476 3.2738717 1.9987854
-1.1350781 3.2743323 1.9889677
-1.1255603 3.2661352 1.9852465
-1.140534 3.2687805 1.9927096
-1.142116 3.2574196 1.9886093
-1.1374925 3.2616277 1.9996773
-1.1563119 3.2556083 1.999024
-1.1492293 3.2672992 1.988233
-1.1565927 3.2637122 2.001708
-1.1621045 3.2658222 1.9895395
-1.1588892 3.2467055 2.0007439
-1.1667289 3.2454064 1.9939909
-1.1843837 3.2581708 2.0006294
-1.1857576 3.2605052 1.9915079
-1.179666 3.2457986 1.9926269
-1.1976724 3.2402549 1.9995614
-1.1846085 3.2404284 2.0020902
-1.1921954 3.2522192 1.9979304
-1.2105711 3.2411788 1.99181
-1.2154694 3.2491567 1.9894326
-1.2125337 3.2448778 1.9895778
-1.2183915 3.2372847 1.9900694
-1.2109997 3.2365596 1.9849774
-1.2169671 3.238982 1.9838777
-1.2320535 3.2320142 1.9897361
-1.2260185 3.2315562 1.9917215
-1.2330465 3.2286763 1.9955578
-1.2375433 3.2227206 1.9928682
-1.2461976 3.2228987 2.000828
-1.2609698 3.2226853 1.998462
-1.2581168 3.229912 1.9935192
-1.2551163 3.2157831 1.982692
-1.2716217 3.2135456 1.9928547
-1.2732166 3.2098382 1.9871609
-1.2759087 3.215539 1.996227
-1.2727399 3.2117674 1.9865689
-1.2875831 3.2054579 1.9957709
-1.2785876 3.2191393 2.0007639
-1.2922791 3.2086518 1.9876875
-1.2980082 3.2078745 1.9961566
-1.306101 3.2144306 1.9936175
-1.2991338 3.2084651 1.998721
-1.3029914 3.2104695 1.9833648
-1.3166835 3.1953518 1.9860849
-1.3160669 3.2020123 1.9962962
-1.3263816 3.1963098 1.9845324
-1.3263518 3.2002292 1.9882618
-1.3371174 3.1976073 1.9874815
-1.3428875 3.1857538 1.9980288
-1.3417313 3.1926293 1.9896203
-1.3521034 3.1758673 1.9895955
-1.3450118 3.1905251 1.9854391
-1.3528141 3.1857753 1.9851271
-1.35597 3.1717811 1.9915438
-1.3564031 3.1828487 1.9864736
-1.3666223 3.1680436 1.9975595
-1.3686025 3.1777084 1.9944301
-1.3668507 3.1810446 1.9905496
-1.3858764 3.1630454 1.9966933
-1.3943523 3.1706343 1.9915959
-1.3912338 3.1722806 1.9916261
-1.3881373 3.1654451 1.9882102
-1.3891947 3.1552312 2.0019467
-1.4105613 3.1662829 1.9835974
-1.4055085 3.1613202 1.99823
-1.4055231 3.1505544 1.9999783
-1.4144489 3.1622217 1.9933181
-1.4265014 3.1600516 1.9919273
-1.4224316 3.1432636 1.9944764
-1.4322153 3.1424053 1.9865599
-1.4270936 3.1490676 1.9822409
-1.4419389 3.1432266 1.9930443
-1.4401972 3.1407251 1.9955975
-1.4447162 3.1412516 1.9911724
-1.4475816 3.1312222 1.9837608
-1.4558117 3.1455674 1.9875655
-1.4622905 3.1353726 1.985026
-1.4554267 3.1375089 1.9823109
-1.4699509 3.1280954 1.9848083
-1.481923 3.1332757 1.9884541
-1.4818088 3.1279528 2.0007753
-1.4860106 3.1321566 1.9892744
-1.4794061 3.1224716 1.997297
-1.4902456 3.1126339 1.9878774
-1.485507 3.1242943 1.9904656
-1.5081773 3.1120856 1.9894425
-1.5070398 3.1177559 2.0002742
-1.5084389 3.1146452 1.9952976
-1.5125504 3.1013625 1.9829692
-1.5141612 3.100457 1.9978889
-1.5121233 3.104012 1.9895594
-1.5177612 3.1077089 1.9875138
3.4125884 -4.8596854 1.2600043
3.4208438 -4.8676004 1.2625992
3.4324276 -4.864193 1.2602382
3.4239836 -4.8632665 1.2591214
3.4458649 -4.84794 1.2567858
3.4500115 -4.843998 1.2602807
3.4542608 -4.8446655 1.2508479
3.453974 -4.8327818 1.2641518
3.4689977 -4.8266664 1.2638737
3.4719322 -4.8187103 1.2497576
3.4695785 -4.8213663 1.249234
3.4893866 -4.8225665 1.2560436
3.4917829 -4.8189754 1.2614988
3.4918113 -4.8106151 1.2631097
3.5107162 -4.8071532 1.2552668
3.5072787 -4.8063178 1.2665757
3.5273292 -4.7879996 1.2524174
3.4045556 -4.6419826 1.3218844
3.4082475 -4.6225982 1.3160983
3.4316549 -4.6270261 1.3134402
3.4409394 -4.6205478 1.3232889
3.4296937 -4.6209941 1.3070911
3.4452507 -4.6057701 1.309628
3.4462564 -4.5972376 1.3156599
3.4488664 -4.5965128 1.3202789
3.4636264 -4.5859313 1.3208491
3.4696889 -4.5819983 1.3148441
3.4815862 -4.5941472 1.3152083
3.4863935 -4.5890727 1.3102027
3.4854078 -4.5670543 1.3160065
3.5017574 -4.5622077 1.303517
3.5079486 -4.5550561 1.3058002
3.5179355 -4.5587902 1.3185171
3.5104523 -4.5479546 1.3149678
3.5289943 -4.5409389 1.3073354
3.5321481 -4.5455861 1.3054674
3.5358658 -4.5305862 1.3227063
3.5335712 -4.5300989 1.322962
3.5516341 -4.5312066 1.3234479
3.5446846 -4.5196958 1.3210996
3.5635319 -4.5182247 1.3187366
3.5698829 -4.5169439 1.3186544
3.5785098 -4.5120525 1.3099585
3.5798471 -4.5010128 1.3072095
3.5776279 -4.4977927 1.3065788
3.5877693 -4.4977736 1.316395
3.5960357 -4.5003853 1.3162956
3.6015341 -4.4916329 1.3117598
3.6072812 -4.4711518 1.3211834
3.6135073 -4.4839478 1.3171761
3.6173778 -4.4642172 1.3096895
3.6188784 -4.4644494 1.3185239
3.6402898 -4.4623613 1.3072817
3.632998 -4.4652357 1.3221024
3.6429503 -4.4566226 1.3151572
3.6522648 -4.4441538 1.3232363
3.6513884 -4.449698 1.3037003
3.6704056 -4.4360151 1.3079048
3.6648798 -4.4228506 1.3075694
3.6687703 -4.429718 1.3094081
3.6886466 -4.4189658 1.3059391
3.6810291 -4.4129567 1.3171908
3.7022386 -4.4117737 1.3054746
3.7121987 -4.4041119 1.3058193
3.7169726 -4.3927207 1.3097038
3.7147939 -4.3982306 1.3209749
3.7206872 -4.3908253 1.3216115
3.7270372 -4.390605 1.3108313
3.7375846 -4.3821044 1.3081077
3.7477891 -4.3759007 1.3134001
3.739825 -4.3760009 1.3043195
3.7483847 -4.3698916 1.3161137
3.748189 -4.3487387 1.3039485
3.7562695 -4.3437839 1.314294
3.7646875 -4.3402071 1.3108709
3.7769825 -4.3449531 1.3167694
3.7805417 -4.3299432 1.304896
3.78473 -4.3347125 1.3080575
3.7981305 -4.3350573 1.3145254
3.8088005 -4.3113132 1.3219942
3.804755 -4.321641 1.3041517
3.8116217 -4.3095098 1.3071984
3.8102751 -4.303668 1.30617
3.816756 -4.2958317 1.3048594
3.833575 -4.2856565 1.3218802
3.8269632 -4.289258 1.3089013
3.8462427 -4.2753644 1.3056703
3.853641 -4.2833395 1.3123988
3.8641937 -4.2639637 1.3135034
3.8612068 -4.2599602 1.3130645
3.8656809 -4.2660365 1.3170017
3.8723052 -4.2512741 1.3077655
3.8819685 -4.2438784 1.3190582
3.8905959 -4.2360139 1.3128655
3.8979053 -4.2373362 1.3115183
3.9022279 -4.2312675 1.3212316
3.893564 -4.2319098 1.3194919
3.9016614 -4.2311368 1.304422
3.9164798 -4.2257862 1.3233647
3.912395 -4.2093906 1.3209393
3.9278638 -4.2144814 1.3070573
3.9272621 -4.1989007 1.3225495
3.9374168 -4.1996021 1.3200411
3.9388564 -4.1976137 1.3199919
3.9540956 -4.1942463 1.3132074
3.9479799 -4.1724796 1.3070699
3.9515698 -4.1652913 1.3148602
3.9734123 -4.1759138 1.3179857
3.9801772 -4.1576176 1.3210152
3.9858773 -4.1492987 1.3149859
3.9891441 -4.1513958 1.3184029
3.9985211 -4.1399713 1.3119296
4.0033827 -4.1442623 1.3192757
4.0057278 -4.1329756 1.3231226
4.0080161 -4.1323037 1.3048412
4.0035124 -4.1235943 1.322823
4.0128632 -4.1171336 1.3224808
4.0299964 -4.1146617 1.3059962
4.0302472 -4.111248 1.3222795
4.0335197 -4.1079507 1.3213453
4.0507555 -4.0871944 1.3127695
4.0513997 -4.0828614 1.3100653
4.0455632 -4.0794597 1.3175095
4.0670648 -4.0794973 1.3106717
4.0724053 -4.0830235 1.3189286
4.0794568 -4.0768232 1.3103102
4.0844822 -4.0670338 1.3225592
4.0891571 -4.0658646 1.3116791
4.0973396 -4.05019 1.3186032
4.1017976 -4.0369811 1.3232076
4.1053133 -4.0322671 1.322943
4.1002455 -4.0326309 1.3213782
4.1124649 -4.0245461 1.317574
4.1121211 -4.0206661 1.3080829
4.1249313 -4.0171437 1.3094083
4.1259904 -4.0122614 1.3112689
4.138423 -4.0080366 1.3172461
4.1430964 -4.0048118 1.3187115
4.1368818 -3.9990718 1.3101622
4.1575837 -3.9945328 1.3091249
4.1628814 -3.9921293 1.307097
4.1679063 -3.9804373 1.3189925
4.1713586 -3.9621606 1.3132527
4.1709986 -3.9698551 1.3056644
4.1811395 -3.9503591 1.3158618
4.1925974 -3.955415 1.3051975
4.1859083 -3.9536419 1.313006
4.1851878 -3.9327903 1.3182794
4.2059245 -3.9437404 1.3035254
4.1981034 -3.939568 1.3075349
4.2092376 -3.9156692 1.3081646
4.2183352 -3.9123082 1.3146955
4.2193203 -3.9110501 1.3137044
4.2345572 -3.9156988 1.319212
4.222198 -3.8957453 1.3184013
4.2400274 -3.8898647 1.3067126
4.2471848 -3.8961961 1.3109674
4.2421422 -3.8887625 1.3102365
4.2623644 -3.8860981 1.3127102
4.2678251 -3.8767529 1.3135033
4.2572865 -3.8617637 1.3123347
4.2673693 -3.8631585 1.3086588
4.2839746 -3.8490417 1.3203653
4.2795811 -3.8451536 1.3215395
4.2806859 -3.839082 1.3167759
4.3009725 -3.8406296 1.3119943
4.2895617 -3.820461 1.3149748
4.3023977 -3.8307674 1.3194751
4.3144941 -3.8262756 1.3207178
4.3090558 -3.8017395 1.3053768
4.3244019 -3.8131495 1.3190882
4.3185716 -3.799876 1.3054605
4.3290567 -3.795388 1.3199977
4.3312397 -3.7806771 1.3124638
4.334589 -3.7902353 1.3050345
4.3531661 -3.7848735 1.3100832
4.3469529 -3.7762802 1.3093185
4.3637118 -3.7602007 1.3122582
4.3649626 -3.7573659 1.3136929
4.3674474 -3.7453022 1.3136594
4.3745828 -3.7432165 1.3162042
4.3754215 -3.7322772 1.3060032
4.3826237 -3.7361605 1.3142635
4.3843546 -3.72316 1.3112006
4.3985429 -3.712101 1.312538
4.4052935 -3.7077475 1.3131884
4.3970842 -3.7148809 1.316376
4.4081016 -3.710521 1.3095795
4.42205 -3.6901674 1.3195468
4.4174252 -3.6925774 1.3154995
4.4327574 -3.6930919 1.3074524
4.4306264 -3.6779997 1.3042514
4.4382858 -3.6809285 1.311067
4.4341965 -3.667341 1.3047756
4.4470358 -3.6647711 1.3234283
4.4412041 -3.6606481 1.3203125
4.4560137 -3.6499236 1.3039337
4.4540029 -3.6333618 1.3057783
4.4651861 -3.6280234 1.3218327
4.4663286 -3.6324737 1.3093261
4.4834146 -3.6267459 1.3101465
4.472445 -3.6082954 1.3198936
4.4782658 -3.6073234 1.3205394
4.4908934 -3.5955694 1.3085928
4.497221 -3.5960963 1.3130289
4.5021925 -3.5875666 1.3153939
4.5040393 -3.5893302 1.3222822
4.5094986 -3.5781996 1.3195237
4.5167937 -3.5809708 1.3158882
4.5201344 -3.567677 1.3215797
4.5309596 -3.5623653 1.3067694
4.5225968 -3.5530827 1.3041725
4.543972 -3.5430305 1.316304
4.5459838 -3.5453928 1.3139384
4.5360408 -3.5264611 1.3047879
4.5505247 -3.5275831 1.3179018
4.5473652 -3.5118742 1.3229802
4.551085 -3.5157132 1.3129103
4.4202285 -3.3999691 1.3703333
4.4173727 -3.3833725 1.3782068
4.4201999 -3.3809323 1.365092
4.4282084 -3.3718274 1.3749528
4.4336109 -3.3663111 1.368552
4.4311366 -3.3637373 1.3734679
4.4462881 -3.3560529 1.3709878
4.4522805 -3.3388214 1.3610511
4.4513779 -3.3496783 1.3604816
4.4555454 -3.3417346 1.3697248
4.4496341 -3.3377497 1.37107
4.4645867 -3.3213584 1.3628615
4.4674044 -3.3268695 1.3709366
4.4770985 -3.3090935 1.3619533
4.4766445 -3.310627 1.3723164
4.4897809 -3.2993388 1.3790766
4.4878249 -3.2975943 1.3673382
4.4833798 -3.294544 1.3666416
4.4889894 -3.2770741 1.3688921
4.4940205 -3.2801061 1.3728833
4.508286 -3.2737103 1.3746504
4.5038886 -3.2570133 1.3665929
4.5112734 -3.2621424 1.366802
4.5267243 -3.2422118 1.3785584
4.5331836 -3.2473614 1.3625461
4.5299969 -3.2439914 1.3715804
4.5335617 -3.2271862 1.376111
4.5453792 -3.2194259 1.3774374
4.5364914 -3.2106473 1.3699726
4.5498452 -3.2014198 1.3732084
4.5471811 -3.2025003 1.3765664
4.5462756 -3.1925433 1.3703409
4.5573039 -3.1997578 1.3727
4.568532 -3.1760683 1.3686966
4.4143043 -3.0605075 1.4297948
4.4211054 -3.0628335 1.4314069
4.4169326 -3.0661161 1.4235122
4.4172816 -3.0420933 1.4170595
4.4189482 -3.0514619 1.4330609
4.4331417 -3.0319717 1.4319588
4.430562 -3.0396309 1.4234394
4.4513321 -3.0326731 1.4185333
4.4458675 -3.0191553 1.4200633
4.4427538 -3.0188687 1.418927
4.4556279 -3.0000567 1.4170383
4.4530416 -2.9987319 1.426675
4.4720583 -2.9858599 1.4268744
4.6223445 -3.1039891 1.3683856
4.6271458 -3.0974126 1.3709117
4.6279397 -3.0808964 1.3667556
4.6476221 -3.0712047 1.3687615
4.6387763 -3.0649798 1.3715409
4.6450152 -3.0684466 1.3616475
4.6527753 -3.0592465 1.3658445
4.65939 -3.041383 1.3626511
4.6641068 -3.050308 1.3745745
4.6584516 -3.0444098 1.3731561
4.6729865 -3.0315824 1.3744677
4.6655736 -3.0182791 1.375908
4.6806779 -3.0084984 1.3674105
4.691617 -3.0033424 1.3621445
4.6845531 -3.0113306 1.3766375
4.6802592 -2.9973688 1.3611914
4.6860633 -2.9999273 1.3684672
4.8577242 -3.0834138 1.3105721
4.8646574 -3.0829482 1.3138125
4.8635044 -3.072391 1.3164552
4.8809237 -3.0715425 1.3054233
4.8796449 -3.0623415 1.3211867
4.879797 -3.0622618 1.320217
4.8914423 -3.0554597 1.3178837
4.8978119 -3.0399289 1.3210367
4.898665 -3.0328903 1.3116201
4.9040623 -3.0242374 1.3131076
4.8967261 -3.0297728 1.307837
4.9080358 -3.0126903 1.3162571
4.902576 -3.0010664 1.3084537
4.9197493 -2.9963195 1.3147118
4.9258814 -2.997138 1.3233781
5.0915637 -3.0819447 1.2487748
5.0926094 -3.079282 1.2507192
5.0913124 -3.074508 1.2613837
5.0931578 -3.0731292 1.25227
5.105577 -3.0505922 1.2649866
5.099474 -3.0596209 1.2653391
5.1080899 -3.0415599 1.2559396
5.1251163 -3.033169 1.2513236
5.1143293 -3.0318058 1.2646083
5.1297908 -3.028502 1.2502222
5.1339083 -3.0074942 1.2640347
5.1399627 -3.0097523 1.2534173
5.1479516 -2.9976091 1.2604753
5.146595 -2.9879122 1.2618074
5.3218322 -3.0867202 1.2020158
5.3241935 -3.0790296 1.2026291
5.3268967 -3.0669844 1.1941807
5.32019 -3.0621645 1.2069947
5.3288569 -3.0523739 1.1940373
5.3307981 -3.0513537 1.1972435
5.3383431 -3.0304384 1.194311
5.3396902 -3.0276804 1.2019684
5.3504095 -3.0211356 1.1946108
5.348176 -3.0201395 1.2097862
5.3472648 -3.0138056 1.1956261
5.3631015 -3.0094175 1.2017498
5.3595409 -2.9866228 1.1925055
5.5349665 -3.0884395 1.1441113
5.535881 -3.0720122 1.1346332
5.543828 -3.057909 1.1387441
5.5549703 -3.0605159 1.1363333
5.5431695 -3.04602 1.1492376
5.5590148 -3.0450394 1.1412377
5.567492 -3.0305159 1.1467791
5.5711336 -3.021117 1.1511936
5.5606046 -3.0200844 1.1525295
5.5761881 -3.0068047 1.1491878
5.5825167 -3.0097263 1.1501698
5.5769906 -2.9960351 1.1398611
5.7509646 -3.0694888 1.0793811
5.7601757 -3.0650446 1.0851147
5.7669654 -3.0566714 1.077608
5.7666478 -3.0567114 1.0833398
5.7783194 -3.0525224 1.0958474
5.7755213 -3.0289292 1.0899999
5.7771258 -3.0200918 1.0774251
5.7800555 -3.0198863 1.0903645
5.7996321 -3.0175574 1.0926107
5.8001795 -3.0049486 1.0807707
5.7904067 -2.9915385 1.078494
5.9670568 -3.0814099 1.0360857
5.9791884 -3.0603476 1.0305699
5.9838018 -3.063879 1.0369771
5.9941354 -3.060004 1.0395298
5.9969649 -3.0431817 1.0376267
5.9939351 -3.0289969 1.0365063
5.9983191 -3.0361145 1.0275302
5.9956303 -3.0278757 1.0328162
6.0151768 -3.0032983 1.0226381
6.002871 -2.9926918 1.0377915
6.0082769 -2.999985 1.0231832
6.1995115 -3.0650122 0.96475875
6.1936398 -3.0639055 0.97101897
6.1941628 -3.05674 0.97281379
6.1972265 -3.0510085 0.98308486
6.1983757 -3.032558 0.9791882
6.2183919 -3.0339634 0.97981602
6.2094197 -3.0222857 0.98031861
6.2257218 -3.0152783 0.97702837
6.2318335 -3.0047815 0.97596908
6.2330866 -2.9930718 0.97923476
6.4125953 -3.0691693 0.91810262
6.4174576 -3.0520241 0.92599434
6.4085679 -3.0586329 0.91241229
6.4214602 -3.0464425 0.91591674
6.4246111 -3.0373559 0.90922046
6.4238529 -3.0124941 0.91246164
6.4237099 -3.0208328 0.91871762
6.4440575 -2.997086 0.92331207
6.441102 -2.9914322 0.90972859
6.6109819 -3.0697007 0.86262375
6.6303205 -3.0642908 0.87044716
6.6250644 -3.0583026 0.86648184
6.6276875 -3.0454757 0.86696804
6.6367154 -3.0240154 0.87069893
6.6492348 -3.0236509 0.85456455
6.6350451 -3.0082784 0.85433441
6.6440835 -2.9972701 0.85680217
6.6593647 -2.990124 0.85404712
6.8341393 -3.0689213 0.81142032
6.8405156 -3.0568941 0.79907721
6.8363242 -3.0498128 0.80291408
6.8399429 -3.0322585 0.80350327
6.8395829 -3.0163403 0.80767739
6.8596959 -3.0156395 0.80406404
6.8635263 -3.0066521 0.8115617
6.8712091 -2.9960744 0.80517226
7.0344291 -3.057498 0.74397498
7.0444298 -3.0507555 0.75720292
7.051662 -3.0483313 0.74114776
7.0528035 -3.0438082 0.74759227
7.0615888 -3.027741 0.75158495
7.0541968 -3.0123062 0.74359238
7.0673804 -3.0014694 0.74197298
7.0647244 -2.9947443 0.75150317
7.2550688 -3.0632646 0.68391329
7.2563739 -3.0531886 0.6938886
7.2512755 -3.0398579 0.68970442
7.2615161 -3.0208044 0.68244249
7.2649703 -3.0187838 0.68777883
7.2723556 -2.999872 0.68780613
7.2861705 -2.9964123 0.69406259
8.6551914 0.26259333 0.52381194
8.6512976 0.28134194 0.53513551
8.6533966 0.29769132 0.52332807
8.6512594 0.30631933 0.52020288
8.6643 0.30490562 0.52074063
8.4551516 0.31566086 0.58329713
8.4699183 0.31885517 0.58015293
8.4572754 0.33435762 0.57485902
8.4594059 0.35137811 0.58357799
8.4693632 0.35750362 0.57590997
8.4660711 0.37710795 0.58488345
8.4509726 0.39318049 0.58053213
8.4671812 0.39173105 0.58045727
8.4515657 0.40854004 0.57693809
8.4528084 0.41880143 0.5799334
8.4545727 0.43246347 0.58859009
8.4637299 0.44132853 0.58863872
8.4497261 0.45800346 0.59238809
8.2584505 0.46681473 0.63650376
8.2678547 0.47626317 0.63979757
8.2695742 0.4829222 0.63089603
8.260251 0.49500087 0.64626795
8.2665596 0.50382274 0.6483922
8.252779 0.51758033 0.63552785
8.2554617 0.53314847 0.64112818
8.2611246 0.53106481 0.64859462
8.2554274 0.55873901 0.63313097
8.2497625 0.5730269 0.64254802
8.2478313 0.56863445 0.63944614
8.2548532 0.59428072 0.63426822
8.2651529 0.6022976 0.64422572
8.2465343 0.60165852 0.63473928
8.0715513 0.61379892 0.69769984
8.0704174 0.6268028 0.6877504
8.0564032 0.62320536 0.70184934
8.0679731 0.64600188 0.70234591
8.0669947 0.64384902 0.69899893
8.0505362 0.65679544 0.69842315
8.0634794 0.66859043 0.7019394
8.0533047 0.6882028 0.69958746
8.0579367 0.69892633 0.693739
8.0525103 0.71185941 0.69573933
8.0575819 0.72237402 0.69258219
8.0504522 0.73259431 0.69118679
8.0533562 0.74965602 0.69495296
8.0503445 0.75915939 0.69027585
8.0478125 0.76857078 0.6922074
7.8505383 0.76420158 0.75099486
7.8640785 0.77165169 0.75519449
7.8611197 0.7698614 0.74777168
7.8557935 0.79365271 0.73983908
7.844604 0.79298317 0.75360745
7.8553991 0.81836629 0.7466597
7.8430219 0.81761575 0.75870299
7.8492341 0.84078205 0.75658
7.8391972 0.84196413 0.75273389
7.8444676 0.86165851 0.74707419
7.8516545 0.87651819 0.74404675
7.8424668 0.88596749 0.75751454
7.8374634 0.8935225 0.75823861
7.8450222 0.89683133 0.75180209
7.8446326 0.91004556 0.75374568
7.8379965 0.91516536 0.75012344
7.653471 0.90653807 0.80995029
7.6519318 0.9274928 0.80685085
7.6482539 0.93956685 0.8139894
7.6407156 0.93808293 0.8098799
7.6475024 0.94497269 0.80968922
7.631247 0.96387661 0.80800867
7.6484447 0.97899437 0.80294573
7.6463513 0.98290312 0.81025589
7.6378069 0.98767024 0.79984623
7.6311908 1.007064 0.80362409
7.6409378 1.0141368 0.81033975
7.6353498 1.0209318 0.80734801
7.6266475 1.045326 0.80576992
7.6250691 1.0434734 0.81204945
7.6193662 1.049714 0.79456192
7.6334577 1.0610205 0.80532342
7.625854 1.0708606 0.80054963
7.4428339 1.072938 0.86418027
7.4374857 1.0745913 0.86678189
7.4217134 1.0910094 0.85813004
7.4297042 1.0985701 0.86590546
7.424396 1.1019533 0.84983248
7.4160819 1.1180595 0.86751229
7.4261756 1.1340274 0.85269988
7.422534 1.1457472 0.85349071
7.4213905 1.1530284 0.85495269
7.4109941 1.1541904 0.85562152
7.4158092 1.1641703 0.85475695
7.4090939 1.1702782 0.86518234
7.4049654 1.1821042 0.86166453
7.4121709 1.2034265 0.85534811
7.4071379 1.2009604 0.86205775
7.4060168 1.2117144 0.85451865
7.4025612 1.2341102 0.85259455
7.4042788 1.2344275 0.85203964
7.2171736 1.2233835 0.92356437
7.2211599 1.2350653 0.91075802
7.205801 1.2331686 0.91758758
7.2095633 1.2461774 0.92018318
7.2037368 1.2566931 0.92426538
7.2143788 1.2760638 0.91933268
7.1986904 1.272065 0.92159903
7.2096972 1.2886238 0.92428678
7.1931515 1.3034198 0.91904032
7.1946673 1.3016406 0.9237833
7.1956143 1.3240771 0.91895199
7.192925 1.3321912 0.91574425
7.1974154 1.3466517 0.9205839
7.1887212 1.3465941 0.90837878
7.1826086 1.3624437 0.91663826
7.1805644 1.3706826 0.91421986
7.1935735 1.3849945 0.91775644
7.1888351 1.392089 0.90780807
7.1867704 1.4044271 0.9226144
7.1794448 1.4000843 0.90560287
6.9882112 1.3814294 0.97613847
6.9808216 1.3987299 0.96960765
6.9902105 1.4023664 0.96750623
6.9844255 1.4191684 0.97531867
6.9864221 1.4117314 0.9689548
6.9766645 1.4241376 0.96080667
6.9844747 1.4314544 0.97694987
6.9758081 1.455948 0.9701696
6.9771795 1.4603063 0.96571207
6.9733434 1.4792826 0.96689922
6.9724827 1.47762 0.97649825
6.9669967 1.4904871 0.97365409
6.9749665 1.4946762 0.96470535
6.9608216 1.515027 0.96282023
6.9544749 1.5193342 0.96376252
6.9617515 1.5358574 0.96737826
6.960866 1.542178 0.96858066
6.9561105 1.5418328 0.96454942
6.944561 1.5648732 0.97515196
6.9485402 1.5661057 0.9750092
6.9536934 1.5685186 0.963485
6.760962 1.5449101 1.0302589
6.7529025 1.5536687 1.0163621
6.7558813 1.5703645 1.0331059
6.7569613 1.5628096 1.0244495
6.7589712 1.5846401 1.0226121
6.7445831 1.5877081 1.0173941
6.7513843 1.6081566 1.0221324
6.7341413 1.5992054 1.0202159
6.747488 1.6163968 1.0298394
6.7406783 1.620918 1.0321866
6.7423315 1.6423682 1.0238296
6.7355986 1.637903 1.01481
6.7349558 1.6585737 1.0330675
6.7310438 1.6624953 1.0343546
6.718462 1.6706098 1.02806
6.72403 1.6865331 1.015424
6.7243667 1.6914676 1.0338303
6.7294288 1.701382 1.0338821
6.7125611 1.7068789 1.0217253
6.7253041 1.7278154 1.024693
6.7203813 1.7326673 1.019717
6.707088 1.7330618 1.0208852
6.704762 1.7551018 1.0333368
6.7006807 1.7555311 1.0203255
6.5119362 1.7168458 1.0811949
6.5228896 1.7346442 1.0734631
6.5211945 1.7351202 1.0812913
6.5178928 1.7430122 1.0896628
6.5146303 1.7564036 1.0741632
6.4991984 1.7649177 1.0702356
6.5067215 1.770902 1.0817988
6.5092559 1.7859994 1.0843985
6.4929461 1.8011903 1.0796838
6.4890747 1.7947319 1.0860473
6.4921799 1.8079114 1.0732255
6.4809947 1.8144344 1.0891174
6.4820652 1.8216648 1.076404
6.4909515 1.8280088 1.0825046
6.4881964 1.8535181 1.072922
6.4899292 1.8460362 1.0827824
6.4877214 1.8685304 1.0895594
6.4770646 1.876025 1.0823694
6.4689951 1.889688 1.0813094
6.4761977 1.881971 1.0847336
6.4697514 1.8998628 1.0722836
6.4704709 1.9090859 1.0773062
6.4670696 1.9219084 1.0805122
6.4509425 1.9261585 1.0810189
6.4609032 1.9302077 1.0779952
6.4612689 1.9385564 1.0784534
6.2674403 1.8917133 1.1275202
6.2644958 1.9121121 1.1399057
6.2543492 1.9070458 1.1369289
6.2631307 1.9317995 1.1372135
6.2553239 1.9327369 1.1263719
6.255055 1.9370359 1.135739
6.2597966 1.9605887 1.1289181
6.2477317 1.9506817 1.1373403
6.2361617 1.9734156 1.1408086
6.2415557 1.9792076 1.1436263
6.247396 1.9779184 1.1261691
6.2471437 1.9963247 1.1403757
6.239265 2.0072367 1.1407847
6.2283974 2.0095942 1.13722
6.237802 2.0268214 1.1258689
6.2363529 2.0264685 1.1300969
6.2242594 2.0335577 1.1291614
6.2253323 2.0512953 1.1296064
6.2148151 2.0601878 1.1440766
6.2077546 2.0572116 1.1356341
6.2034993 2.0828247 1.1372012
6.2017751 2.0909474 1.1284775
6.2142453 2.0939648 1.1419724
6.2071123 2.1089003 1.1291355
6.1964025 2.1160383 1.1448404
6.1943297 2.1245375 1.1315106
6.1964731 2.1237648 1.1365926
6.1976686 2.126899 1.1307384
6.179297 2.1423626 1.1251069
6.0137415 2.0906556 1.1829804
6.0014615 2.1002786 1.1826587
5.990737 2.1110597 1.1818017
5.9912772 2.1172056 1.1953084
5.9853005 2.1191256 1.1951011
5.9864755 2.1332545 1.1933864
5.9833436 2.1282413 1.1915294
5.9868703 2.1483142 1.1802622
5.9754672 2.1525376 1.183496
5.9781985 2.1613562 1.1935644
5.9752865 2.1692405 1.186269
5.9750896 2.187748 1.1802295
5.9745593 2.1784453 1.1966082
5.9731603 2.1926091 1.1907737
5.9652567 2.2037342 1.198504
5.9571338 2.2189837 1.1920124
5.9472852 2.2140625 1.1921612
5.9555674 2.2356405 1.1840403
5.9525709 2.2288001 1.1918043
5.9527969 2.2476871 1.2000529
5.9430795 2.2466698 1.1878557
5.9460554 2.2684748 1.18584
5.9429803 2.2727804 1.1862001
5.9362721 2.2787297 1.1924069
5.9237175 2.279829 1.1814256
5.9188824 2.2958717 1.197385
5.9275436 2.3051424 1.2001187
5.9163423 2.3057845 1.1961303
5.9170084 2.3265307 1.1970057
5.9054275 2.3306146 1.1884766
5.9020829 2.3281047 1.1906428
5.9065299 2.3517056 1.1863315
5.9089499 2.3553779 1.1980474
5.7331696 2.2842326 1.2425854
5.7222328 2.2947209 1.2448065
5.720304 2.3035553 1.2548051
5.714323 2.324244 1.2458138
5.7110653 2.3169358 1.2492086
5.7038074 2.3335094 1.2450976
5.6974144 2.3417294 1.2368234
5.7024808 2.3498442 1.2377968
5.6897025 2.3456562 1.2541329
5.6926017 2.3671501 1.2459078
5.6872058 2.3746858 1.2495759
5.6911898 2.37447 1.2357572
5.6773839 2.3955214 1.2428023
5.6735654 2.3937998 1.2425697
5.6807451 2.3920383 1.247067
5.671308 2.4062488 1.240181
5.6777492 2.4173069 1.2535622
5.6759048 2.416683 1.2471099
5.6550231 2.4265435 1.248526
5.6704659 2.4425771 1.2434968
5.6576734 2.4565001 1.2380689
5.6485372 2.4577029 1.2444954
5.6455717 2.4684072 1.2440481
5.6496406 2.478611 1.2539585
5.6534653 2.4793236 1.2541915
5.6417766 2.4939394 1.2407236
5.6431913 2.4983473 1.2504071
5.6379757 2.5042734 1.2515647
5.626297 2.512691 1.2546858
5.6360235 2.5199358 1.245948
5.6207099 2.5377831 1.2432452
5.619957 2.5299008 1.2538623
5.6256204 2.5424702 1.2473053
5.6108251 2.5425365 1.2430788
5.6059294 2.5498669 1.2516962
5.6012554 2.5689588 1.2470655
5.6031032 2.5729263 1.2389839
5.5946236 2.5751503 1.2489741
5.4127722 2.5085428 1.2946794
5.4086618 2.5155478 1.3046384
5.4158034 2.5307446 1.3046051
5.4002314 2.5287044 1.3088548
5.415266 2.5358543 1.2978443
5.4037333 2.5517471 1.2990752
5.4079638 2.5462928 1.2998168
5.4008007 2.5597243 1.2918357
5.5626035 2.6611545 1.2448651
5.5625916 2.6553481 1.2474606
5.5525594 2.6658008 1.2362846
5.5530748 2.6756337 1.2445626
5.5435386 2.6761086 1.2404909
5.5539579 2.6845231 1.2468379
5.5486164 2.6914942 1.2527982
5.5322533 2.7104647 1.2471195
5.5371103 2.7172084 1.2484599
5.5226989 2.7203422 1.2357103
5.5202947 2.7352359 1.2542937
5.5260563 2.7338076 1.2393167
5.5144029 2.7460477 1.2470437
5.6836419 2.848232 1.1817129
5.6889486 2.8391247 1.1842656
5.6901731 2.8641694 1.1874995
5.6777334 2.8676162 1.1899763
5.6712427 2.8784542 1.1837009
5.6590629 2.8779147 1.1964515
5.6682119 2.886739 1.184624
5.6646004 2.896946 1.199983
5.6595612 2.8967118 1.1862121
5.659534 2.908632 1.1969849
5.647223 2.9215307 1.1965333
5.8154597 3.0120363 1.1439016
5.8153715 3.0196147 1.1435412
5.7985063 3.0387244 1.1387128
5.8041067 3.0353258 1.1368133
5.8034201 3.0437405 1.1264704
5.7954731 3.0453086 1.137054
5.7956872 3.0672805 1.129952
5.7912488 3.0682397 1.134729
5.7730284 3.073209 1.1435453
5.7855697 3.0899155 1.1373845
5.777648 3.0881751 1.1255093
5.941596 3.2015028 1.0779629
5.9356794 3.2114446 1.0765765
5.9249229 3.2112029 1.0837009
5.9322553 3.2145021 1.0711551
5.9292336 3.234093 1.0720984
5.9167838 3.2381477 1.0869408
5.9172206 3.2420256 1.0746752
5.9024224 3.2519555 1.0793178
5.8964295 3.2587101 1.0726119
5.904264 3.2618382 1.0761166
6.0682912 3.3771727 1.0187969
6.0516977 3.3779519 1.0182925
6.0537062 3.3924303 1.0292791
6.0428271 3.3987088 1.015304
6.0393901 3.4064443 1.0326649
6.0368853 3.4062204 1.0258323
6.0292106 3.4109349 1.0346353
6.0292587 3.425365 1.0251324
6.013938 3.4383271 1.0341548
6.178793 3.5390825 0.96293521
6.1801138 3.5451443 0.96066219
6.1792502 3.5593019 0.97072315
6.1778698 3.5601692 0.96682423
6.1674643 3.5748706 0.96077186
6.1630716 3.5908599 0.9740296
6.1560278 3.5890808 0.97864473
6.1421394 3.6043754 0.97956234
6.137042 3.6044784 0.96650475
6.3081107 3.7115443 0.92286342
6.3023729 3.7240741 0.91130984
6.3005495 3.7428534 0.91719967
6.2964411 3.7457094 0.9086358
6.2823815 3.7521374 0.91233468
6.284411 3.7531242 0.92213738
6.2803755 3.7746947 0.91933876
6.2695856 3.7742095 0.90617746
6.4279804 3.8841929 0.86458725
6.4225597 3.8949642 0.84967721
6.4240694 3.896147 0.85575831
6.4170718 3.9167643 0.86558247
6.3985085 3.9207428 0.86540627
6.4058223 3.9258094 0.85931367
6.4045596 3.9420254 0.85088414
6.3869839 3.9454918 0.85468364
6.5426593 4.0513449 0.79615617
6.5519214 4.070693 0.80354738
6.5280089 4.0691118 0.81282943
6.5376406 4.0875187 0.80392462
6.5323491 4.0928559 0.80725223
6.5131264 4.0966296 0.80225396
6.5237155 4.1072855 0.81229877
0.42294264 3.6424775 1.9637741
0.4171012 3.6406012 1.9540099
0.41075322 3.6352682 1.9605765
0.40946677 3.6444986 1.9613106
0.40042144 3.6327949 1.962083
0.39620796 3.6488602 1.9525574
0.39144757 3.6405175 1.9564145
0.39018321 3.6364675 1.9606518
0.37516165 3.6416042 1.9648824
0.3789286 3.6374183 1.957571
0.36715636 3.648484 1.9707131
0.37364554 3.6387691 1.9614068
0.37036985 3.6477678 1.9662024
0.35365999 3.640542 1.9596702
0.35768363 3.6493342 1.9608835
0.34247893 3.6389766 1.9576181
0.33774811 3.6489232 1.9654732
0.33687359 3.6426706 1.9687486
0.34023568 3.6464624 1.9566377
0.32782787 3.6390882 1.9598253
0.32810798 3.645009 1.9535704
0.32152972 3.6424873 1.957099
0.30564451 3.6417584 1.9691319
0.31455421 3.6493895 1.953452
0.29693124 3.6461143 1.9660839
0.30052096 3.6527054 1.9678851
0.28084478 3.6596372 1.959167
0.2890231 3.6507666 1.9637374
0.28047621 3.6503308 1.9716479
0.27981797 3.6625607 1.9717393
0.26234683 3.6601448 1.9573139
0.25862017 3.6562254 1.9599361
0.25842172 3.6614959 1.9614064
0.25025567 3.6607521 1.9700912
0.24640921 3.6474614 1.9550917
0.23519422 3.6628377 1.9662811
0.24578004 3.6636152 1.9640071
0.22764722 3.6576493 1.9524747
0.23408434 3.6482151 1.9601257
0.22843152 3.6632016 1.9596329
0.22286972 3.6657968 1.9563575
0.22288215 3.6497455 1.9688032
0.20551646 3.6585763 1.9661669
0.20962054 3.6643221 1.9624414
0.20240912 3.6513033 1.9650872
0.2001978 3.6521516 1.9627781
0.18917549 3.6486683 1.9609225
0.1758789 3.6521349 1.9527841
0.17104949 3.6671224 1.9549015
0.17387077 3.6615407 1.9717029
0.17619891 3.6554816 1.9708039
0.15525141 3.6545196 1.953565
0.16674925 3.6612768 1.9648756
0.15561055 3.6572237 1.9616579
0.14074606 3.6510451 1.9651543
0.14852707 3.6677413 1.9692388
0.13399871 3.6585019 1.969587
0.13761453 3.6610527 1.9531561
0.13309166 3.6638613 1.9714739
0.13068601 3.6545789 1.9639785
0.12508154 3.6527126 1.9701995
0.11857781 3.6549869 1.9552411
0.11483502 3.6538475 1.9668298
0.10240267 3.6666582 1.9541624
0.10675248 3.6696935 1.9551202
0.094598427 3.6655993 1.9525853
0.086528741 3.6520662 1.9606292
0.078807093 3.667239 1.9710493
0.074654475 3.6629786 1.9641106
0.06881953 3.6614032 1.9677289
0.075489059 3.6593139 1.9693276
0.068379469 3.6558115 1.9530543
0.046311378 3.6536572 1.9555026
0.05583192 3.6641617 1.9706298
0.052684896 3.6641073 1.9686675
0.050495639 3.6569905 1.9624932
0.025771501 3.6668956 1.9626752
0.029091217 3.6541708 1.9579264
0.022830963 3.6623855 1.968821
0.029631898 3.669857 1.958051
0.020051157 3.6690905 1.9651095
0.012069046 3.6663065 1.9685905
0.0078137023 3.6665468 1.9698493
0.0060067349 3.6614003 1.9615521
-0.00067304022 3.6581991 1.9531468
-0.009315107 3.6579015 1.9575782
-0.024131466 3.6579723 1.9718752
-0.018765759 3.6664557 1.9534152
-0.018148819 3.6537714 1.9631445
-0.026637144 3.652981 1.9603274
-0.025895435 3.6677027 1.9567329
-0.038095213 3.6595352 1.9703505
-0.046813861 3.6722052 1.9642118
-0.054273479 3.6681609 1.9529371
-0.050030272 3.6625297 1.9584788
-0.054192185 3.6533494 1.9637475
-0.073922619 3.6544452 1.9691188
-0.079355888 3.6659997 1.9630125
-0.08324904 3.6632636 1.964268
-0.07741268 3.6571317 1.9647862
-0.094393201 3.6568339 1.9600865
-0.094968125 3.6694291 1.9672865
-0.10192519 3.6583977 1.967231
-0.095020682 3.6649988 1.963213
-0.099390753 3.6609354 1.9536525
-0.11821889 3.6578019 1.9550076
-0.1117781 3.6600296 1.9575615
-0.11996569 3.661916 1.9717798
-0.13425943 3.6650007 1.9633794
-0.12729739 3.659013 1.9689715
-0.13981681 3.6611359 1.9543973
-0.1370357 3.6677749 1.9525568
-0.14705421 3.6525476 1.9598308
-0.1571279 3.6493156 1.9538586
-0.15121931 3.6668036 1.9639829
-0.15487085 3.6505535 1.9711409
-0.17716706 3.6658342 1.960701
-0.176909 3.6580169 1.9523286
-0.1824322 3.6609952 1.9672292
-0.1763555 3.6560249 1.9563378
-0.18468632 3.6636238 1.967772
-0.18759087 3.6590924 1.9660549
-0.1923355 3.6496305 1.9693274
-0.20980589 3.6551833 1.9695917
-0.21324797 3.651732 1.9675753
-0.20656528 3.6497164 1.969547
-0.21272421 3.6504917 1.9670447
-0.22932266 3.6566117 1.9569776
-0.23429303 3.6622946 1.9701486
-0.24436224 3.6591401 1.9586155
-0.24532242 3.6527402 1.9549552
-0.23484793 3.6485212 1.9670445
-0.24609001 3.6446421 1.96996
-0.25405905 3.6483769 1.9587231
-0.26176324 3.6537535 1.9643371
-0.27148342 3.6508963 1.968245
-0.27923137 3.6469631 1.9532447
-0.269481 3.6515143 1.9646877
-0.28979716 3.656177 1.9621444
-0.2769419 3.6558523 1.9567842
-0.29561901 3.6596487 1.9653693
-0.29795587 3.6590002 1.9700871
-0.30820292 3.6521897 1.9712847
-0.31553388 3.6424901 1.9565835
-0.3141011 3.6501653 1.9676321
-0.3070536 3.6531992 1.9562038
-0.31609753 3.653563 1.96123
-0.32014123 3.6487551 1.9712018
-0.33274123 3.6487079 1.966238
-0.32788393 3.6465924 1.9613583
-0.34838602 3.6508758 1.9606907
-0.34030241 3.6378975 1.9597976
-0.34750035 3.6397469 1.9525242
-0.35349983 3.6393394 1.9559882
-0.35419995 3.6454384 1.9675719
-0.36385071 3.6436574 1.9626405
-0.36492896 3.6379051 1.9585316
-0.38098034 3.6331804 1.9700801
-0.38705921 3.6409268 1.9620541
-0.37810105 3.6386008 1.9523923
-0.39402187 3.6408422 1.9675007
-0.39060941 3.6362362 1.9701246
-0.40808931 3.6295004 1.955099
-0.41284183 3.6418328 1.960174
-0.4141295 3.6385317 1.9718629
-0.42383277 3.630646 1.9622933
-0.41846651 3.6467474 1.9675004
-0.43720829 3.6318622 1.9685194
-0.42440069 3.6359618 1.9578284
-0.43961823 3.6340826 1.9653617
-0.44449669 3.641345 1.9556941
-0.45426595 3.6370814 1.9619851
-0.46141034 3.6403985 1.9621123
-0.46357954 3.6240232 1.9551505
-0.46067283 3.6314194 1.9654737
-0.46607623 3.6341705 1.9685041
-0.48104835 3.6273453 1.968236
-0.47081229 3.6268351 1.9536897
-0.47955626 3.6241882 1.9638573
-0.47899041 3.6313789 1.9527669
-0.49089026 3.6187449 1.9695674
-0.49245673 3.6213951 1.9627396
-0.50773114 3.621953 1.9598714
-0.50287747 3.6253932 1.9612775
-0.50498456 3.6167903 1.9707363
-0.51676744 3.6278338 1.9636099
-0.52551883 3.6289537 1.9703292
-0.53453732 3.6253574 1.9572159
-0.53810096 3.6180639 1.9621407
-0.53149605 3.6163819 1.9549478
-0.5359804 3.627845 1.9558201
-0.54366326 3.6227853 1.9600483
-0.55817282 3.6274941 1.9655476
-0.55554938 3.6220984 1.9552071
-0.57151884 3.6196365 1.956991
-0.57802832 3.6104314 1.9705526
-0.57166308 3.6175139 1.9659753
-0.57857746 3.6206155 1.9585501
-0.57860392 3.6051903 1.9645866
-0.59370446 3.6214054 1.9697036
-0.59599674 3.6181707 1.9670529
-0.59741551 3.6122868 1.9601191
-0.59460485 3.616926 1.9586775
-0.60629374 3.6092196 1.9526309
-0.60832196 3.6105738 1.9649198
-0.62856501 3.6104479 1.9688084
-0.61524534 3.6017151 1.9605908
-0.62650162 3.6110947 1.9562936
-0.62518191 3.6054735 1.9573967
-0.63782442 3.6097763 1.9555477
-0.64534873 3.5968103 1.9713039
-0.65552241 3.6074476 1.9620229
-0.6526286 3.6059165 1.9582347
-0.65117496 3.5977163 1.9676007
-0.65576673 3.5925066 1.9591891
-0.66806823 3.5920711 1.9715263
-0.67647994 3.5899715 1.9560124
-0.6731078 3.6016304 1.9707671
-0.69403154 3.599623 1.9607965
-0.69385082 3.5899851 1.9560314
-0.69551778 3.5978343 1.9592103
-0.7014271 3.6005197 1.9539433
-0.69661605 3.5911074 1.9680691
-0.71559197 3.5881562 1.9549257
-0.70520031 3.585619 1.9575102
-0.72321886 3.5957851 1.9606043
-0.72889888 3.5825429 1.9625506
-0.73009133 3.5776749 1.9571148
-0.73652762 3.5768838 1.9706373
-0.7329331 3.5812728 1.955495
-0.75410211 3.5889928 1.9691817
-0.75209081 3.5758002 1.9665405
-0.75534505 3.5724137 1.9554808
-0.76447201 3.5750451 1.9624708
-0.76674092 3.5730608 1.9679314
-0.7664237 3.5780487 1.9645729
-0.7830109 3.5823464 1.9689939
-0.77765024 3.5704398 1.9695756
-0.77772385 3.5770838 1.9704019
-0.78427339 3.5723073 1.9566598
-0.78596371 3.5713458 1.9716874
-0.79396582 3.577378 1.9545789
-0.80460757 3.5651369 1.9551474
-0.80630732 3.568748 1.9594179
-0.8210156 3.5750682 1.9627817
-0.81026161 3.5666821 1.9522178
-0.82286453 3.5666838 1.967043
-0.83104479 3.5570192 1.9710599
-0.8386417 3.572253 1.9628261
-0.84541065 3.5659075 1.9709282
-0.84592003 3.5628405 1.959188
-0.85140026 3.5567384 1.9546061
-0.85398728 3.56496 1.9589161
-0.85600412 3.5564461 1.9679774
-0.85374868 3.5581863 1.9645059
-0.86812788 3.5556412 1.9538021
-0.87306923 3.5454524 1.9642608
-0.8831836 3.5520408 1.9662228
-0.88927925 3.5559883 1.9645933
-0.88360703 3.558121 1.9577999
-0.88983101 3.544697 1.969128
-0.9077934 3.5507438 1.9555495
-0.91033596 3.5391529 1.9713951
-0.90856671 3.5504928 1.9599361
-0.91773438 3.5490339 1.9714335
-0.91037178 3.5381401 1.9616089
-0.91371107 3.5472474 1.9628255
-0.92658985 3.5311813 1.9718677
-0.93750483 3.5339584 1.9661012
-0.93004751 3.5473452 1.9637182
-0.94938165 3.5394435 1.969169
-0.95738584 3.5385134 1.9619312
-0.95896673 3.5399725 1.9643739
-0.96470004 3.5281315 1.9594349
-0.96189052 3.5320511 1.9543222
-0.96758175 3.52826 1.959608
-0.96309561 3.5260544 1.9553001
-0.97739094 3.5358932 1.9562321
-0.98264223 3.5197382 1.961254
-0.99365813 3.51596 1.9609824
-0.987055 3.5177653 1.9541358
-0.99499911 3.5164819 1.9676924
-1.0101792 3.5185316 1.9640485
-1.0029144 3.5197599 1.9699106
-1.0205868 3.5087078 1.9610463
-1.0233699 3.5168729 1.969752
-1.0208652 3.51443 1.9576198
-1.0226662 3.5225964 1.9567012
-1.0235335 3.5104139 1.961009
-1.0393765 3.5121162 1.962927
-1.0354892 3.5053201 1.9680454
-1.0384465 3.5154765 1.9532825
-1.0478452 3.5153475 1.9619782
-1.0608858 3.507376 1.953318
-1.0680621 3.5066228 1.9550283
-1.0641005 3.5079753 1.9663329
-1.0714313 3.4967194 1.9566311
-1.0708921 3.4885468 1.9565387
-1.0712694 3.50439 1.9657137
-1.0873368 3.4892707 1.9580476
-1.0814841 3.5029175 1.965049
-1.0905108 3.4984834 1.9636772
-1.0942982 3.4895253 1.9636536
