# .PCD v0.7 - Point Cloud Data file format
VERSION 0.7
FIELDS x y z
SIZE 4 4 4
TYPE F F F
COUNT 1 1 1
WIDTH 1516
HEIGHT 1
VIEWPOINT 0 0 0 1 0 0 0
POINTS 1516
DATA ascii
-3.7393765 4.038455 1.9888874
-3.7442651 4.0328121 1.9789345
-3.7531047 4.0199327 1.9798295
-3.7610743 4.0267491 1.976683
-3.7582586 4.0228782 1.9924556
-3.7716866 4.0104165 1.9753932
-3.7835312 3.999752 1.9848059
-3.7752223 4.0015965 1.9846408
-3.7838247 3.9967856 1.9743488
-3.7987335 3.9936252 1.9763247
-8.8138075 1.9596447 1.3320752
-8.8346233 1.9487927 1.3143307
-8.8260098 1.9318234 1.3237193
-8.8375435 1.9118183 1.3335934
-8.8393526 1.9024634 1.3256111
-8.8391676 1.9000164 1.3296453
-8.8295755 1.8729481 1.3264291
-8.8509769 1.8713053 1.3327376
-8.8510008 1.8559833 1.3262082
-8.837574 1.8438354 1.3152566
-8.8493023 1.8306342 1.3320471
-8.8533745 1.8193176 1.3303204
-8.8551741 1.7992982 1.3239627
-8.8475676 1.7904108 1.3299421
-8.850069 1.7823634 1.3189126
-8.8605366 1.777132 1.3177859
-8.8669519 1.7641076 1.3219439
-8.8765659 1.7522793 1.316816
-8.8598547 1.723007 1.3287266
-8.8696556 1.7097239 1.3208535
-8.8703909 1.7072581 1.3321469
-8.8743181 1.6832485 1.324495
-8.8799553 1.6799505 1.3291984
-8.871932 1.6667529 1.3173925
-8.8779125 1.6535296 1.329921
-8.8949041 1.6522986 1.3296034
-8.8930063 1.6270938 1.32865
-8.8869324 1.6146992 1.3282602
-8.8859701 1.6014234 1.3309935
-8.8930788 1.6007369 1.3328425
-8.8880434 1.581688 1.3246278
-8.8916979 1.5610676 1.3248087
-8.9029865 1.5571487 1.3141005
-8.9095545 1.5435736 1.3226064
-8.9079103 1.526322 1.3303044
-8.9137211 1.5143644 1.3291895
-8.8998318 1.5065738 1.3152915
-8.9068785 1.4871085 1.3214235
-8.9142971 1.4908406 1.3267076
-8.9189653 1.4696805 1.3237361
-8.9217672 1.4557555 1.3141497
-8.9127665 1.4403588 1.3163801
-8.9235678 1.4358386 1.3271316
-8.9250593 1.426898 1.3167512
-8.9180279 1.4017315 1.3215655
-8.9232807 1.3928676 1.326871
-8.9296312 1.3799887 1.3168381
-8.929862 1.3621413 1.319795
-8.9239435 1.3589356 1.3189416
-8.932724 1.3531051 1.3293891
-8.944458 1.3264987 1.318375
-8.9457617 1.3109018 1.3244307
-8.9448166 1.3064953 1.3184352
-8.9331026 1.3025709 1.3159713
-8.9517517 1.2876348 1.3208154
-8.945569 1.2693849 1.3292731
-8.9540644 1.2667062 1.317332
-8.9525738 1.2457008 1.3200263
-8.9481096 1.2325009 1.3320004
-8.9444809 1.2123904 1.330632
-8.950388 1.2023979 1.315148
-8.9472904 1.1929371 1.3165603
-8.9581203 1.1862383 1.326062
-8.9549284 1.1730531 1.3241376
-8.9541836 1.1630013 1.319778
-8.9685764 1.1408969 1.3296717
-8.9544935 1.1320456 1.3293926
-8.9723349 1.1264147 1.3206162
-8.9674644 1.1069607 1.3311505
-8.970603 1.0928304 1.3140874
-8.975091 1.0744715 1.3195471
-8.9750462 1.0608698 1.3280636
-8.9735718 1.0580809 1.3224014
-8.9825783 1.0401094 1.3160764
-8.9734917 1.0244914 1.332224
-8.9687471 1.0160711 1.318794
-8.9740906 1.0033063 1.3290417
-8.9796963 0.9942556 1.3261895
-8.974061 0.97161359 1.3164167
-8.9778738 0.96735424 1.3250493
-8.9787312 0.96010935 1.3278605
-8.994113 0.93439484 1.3296096
-8.9809599 0.9316231 1.3211116
-8.9934511 0.92129576 1.3271859
-8.9922504 0.90148848 1.330188
-8.9948835 0.8878417 1.3173176
-8.9909306 0.89024919 1.3242321
-8.9967117 0.86843169 1.3146476
-8.9853268 0.85361302 1.3149747
-9.0036983 0.83632749 1.3235979
-8.9934187 0.83951193 1.3175337
-9.0003109 0.80862612 1.3183142
-9.0054359 0.8121866 1.328884
-8.9990425 0.78453118 1.3216894
-9.0065565 0.7793349 1.327252
-9.0110502 0.77274531 1.3317342
-9.0083971 0.75133246 1.331192
-8.9988127 0.74534404 1.3214021
-8.9987946 0.73192805 1.3293649
-8.9984322 0.72131169 1.3326154
-9.009428 0.70212752 1.3316249
-9.0064716 0.69718677 1.332325
-9.002717 0.68823856 1.3291634
-9.0083742 0.66678488 1.3309259
-9.0012093 0.65890014 1.3200731
-9.0084639 0.64758641 1.3152132
-9.0112181 0.61997336 1.3215244
-9.0144978 0.62297535 1.3144325
-9.0075493 0.60700804 1.3265115
-8.8164158 0.57976139 1.3572229
-8.818202 0.57540685 1.3646793
-8.820961 0.55496925 1.3597858
-8.8230028 0.53922904 1.3585365
-8.8281889 0.53875607 1.368427
-8.8315945 0.52635568 1.3630278
-8.8258371 0.50759053 1.3589109
-8.8249216 0.48694292 1.3597784
-8.8176775 0.48387063 1.3562465
-8.8175087 0.46858376 1.3693469
-8.825243 0.44904524 1.3604387
-8.8189096 0.4485054 1.3595041
-8.8251028 0.42597392 1.3504611
-8.8361712 0.42215085 1.3580081
-8.8284731 0.41387466 1.3574134
-8.8308668 0.40290791 1.3567507
-8.8386421 0.37839776 1.3696561
-8.8305168 0.37548435 1.354248
-8.8215075 0.36047885 1.3681029
-8.8360128 0.34628946 1.359007
-8.8374004 0.32499525 1.3627095
-8.8276787 0.31064713 1.3582102
-8.8388739 0.31070143 1.363518
-8.8390961 0.30026469 1.3573422
-8.8317528 0.27808765 1.3552307
-8.8249874 0.27406088 1.3544934
-8.8388681 0.26278514 1.3615879
-8.8398256 0.2401436 1.3581114
-8.836174 0.22700372 1.3519727
-8.8386507 0.21983358 1.3639886
-8.8302059 0.21173364 1.3670549
-8.8380404 0.19379576 1.3681183
-8.8303576 0.18508537 1.3615818
-8.8373499 0.17655948 1.3569549
-8.8305006 0.15576512 1.362498
-8.845746 0.14210765 1.3563619
-8.841711 0.13492432 1.3512979
-8.8305645 0.12712051 1.3559408
-8.6462784 0.10107395 1.3964534
-8.6447096 0.095342584 1.4054847
-8.6311073 0.078341782 1.3987658
-8.6344233 0.073774144 1.4064592
-8.6366577 0.057140302 1.3977928
-8.6454124 0.053748097 1.3929513
-8.6387768 0.037421826 1.3996667
-8.6465816 0.02604991 1.405076
-8.6405058 0.018895106 1.3956538
-8.6394768 0.0030518703 1.3907797
-8.6337881 -0.0049561965 1.3944256
-8.6442308 -0.031267732 1.404418
-8.6456251 -0.043866802 1.3894877
-8.6337214 -0.039687093 1.4020679
-8.6341066 -0.057665206 1.3900926
-8.6431427 -0.064337641 1.4068036
-8.6370029 -0.084331192 1.3992667
-8.6441307 -0.092102788 1.3924366
-8.6458321 -0.11378862 1.3905301
-8.8335276 -0.11745395 1.3681985
-8.8294878 -0.13272762 1.3665979
-8.8417845 -0.15848441 1.3507643
-8.8440714 -0.165693 1.3544101
-8.8412714 -0.18107225 1.3543137
-8.8258743 -0.17692871 1.3683176
-9.038991 -0.20657693 1.3310667
-9.0388174 -0.22583659 1.3225605
-9.0261621 -0.23236598 1.3183607
-9.0403194 -0.24075569 1.3245524
-9.0363665 -0.26042792 1.3221574
-9.0380659 -0.27625668 1.3168403
-9.2178593 -0.2908906 1.2814571
-9.2169495 -0.30202261 1.2878766
-9.2323761 -0.31060311 1.2912676
-9.2278805 -0.32405186 1.2911524
-9.2293625 -0.33434409 1.2783867
-9.4278793 -0.35243505 1.2423248
-9.4184113 -0.37080342 1.2490175
-9.413125 -0.38367125 1.2599434
-9.421629 -0.39294496 1.2438195
-9.412509 -0.40429562 1.2444887
-9.605092 -0.42836136 1.2127795
-9.6199617 -0.44317493 1.219494
-9.6083946 -0.45385385 1.2105225
-9.6134167 -0.48049438 1.2209964
-9.618536 -0.48909256 1.2140713
-9.8127365 -0.51064724 1.1729536
-9.8099709 -0.53312176 1.1832943
-9.8004923 -0.53085041 1.1739326
-9.8000698 -0.55764127 1.1684619
-9.7957516 -0.55588943 1.1848046
-10.007003 -0.58269066 1.1426216
-9.9970083 -0.6134842 1.1357222
-10.000281 -0.61335504 1.1315793
-9.9925051 -0.63891232 1.1342306
-10.190425 -0.66314584 1.105057
-10.199043 -0.6733458 1.0948304
-10.192099 -0.68151432 1.0958351
-10.194794 -0.70095873 1.1128161
-10.382945 -0.73472327 1.0600494
-10.380412 -0.75126535 1.0593978
-10.381517 -0.76361185 1.0574254
-10.388124 -0.76681161 1.0586338
-10.577644 -0.80921525 1.037284
-10.575232 -0.80993736 1.0210097
-10.570148 -0.8332957 1.0273471
-10.577556 -0.84621531 1.037728
-10.771115 -0.86931312 0.99752182
-10.767682 -0.90020233 0.98877251
-10.767245 -0.90413088 0.99446815
-10.762895 -0.92656922 0.99813342
-10.955028 -0.94842869 0.94730186
-10.953235 -0.98099732 0.96443981
-10.950212 -0.98815495 0.9487465
-10.951857 -0.99404448 0.94711041
-11.145508 -1.034362 0.92023313
-11.137021 -1.0451988 0.91187286
-11.138132 -1.0748558 0.911349
-11.338441 -1.1014954 0.87832165
-11.331777 -1.1100754 0.89307082
-11.339394 -1.1355958 0.88042432
-11.343324 -1.1587082 0.87821317
14.728598 -4.9679694 0.12214168
14.717317 -4.9640722 0.1068711
14.734259 -4.9354692 0.11870958
14.741118 -4.9152727 0.11136324
14.741164 -4.9035759 0.11820104
14.749436 -4.8828201 0.10805283
14.770218 -4.8584137 0.11180462
14.764824 -4.831996 0.12345617
14.772117 -4.8169165 0.12147006
14.782189 -4.7931752 0.10754999
14.784843 -4.7736816 0.10715516
14.789828 -4.7524095 0.11011452
14.612284 -4.6611013 0.15778479
14.613695 -4.6500826 0.14842866
14.627732 -4.6258721 0.15019748
14.628579 -4.6002154 0.15214072
14.639249 -4.580574 0.15789971
14.653642 -4.5730948 0.14947562
14.659657 -4.5450616 0.15552121
14.663659 -4.5336671 0.1446891
14.673712 -4.5063004 0.15272185
14.663341 -4.4806013 0.14138891
14.6759 -4.4718413 0.14071149
14.679442 -4.4481807 0.15065786
14.693599 -4.4169669 0.14441036
14.689495 -4.4113617 0.14340653
14.707307 -4.3815131 0.14162222
14.710848 -4.3636699 0.14688595
14.705937 -4.3461804 0.15974255
14.727043 -4.3310304 0.14354499
14.717288 -4.2921405 0.15425639
14.735537 -4.2899055 0.15020011
14.742424 -4.2613659 0.15442891
14.748606 -4.2355123 0.14183404
14.744704 -4.2217002 0.15996037
14.754527 -4.1981611 0.14319062
14.763317 -4.1829524 0.15575929
14.770294 -4.1503143 0.14565265
14.782507 -4.1286716 0.15250853
14.787546 -4.1119785 0.15397863
14.77636 -4.0910668 0.15379463
14.795856 -4.0779047 0.15529333
14.791267 -4.0638242 0.14477091
14.621226 -3.9776552 0.19619381
14.628141 -3.9534123 0.18419078
14.633154 -3.94523 0.19514096
14.621369 -3.9141123 0.18070617
14.642124 -3.9018435 0.17830729
14.632744 -3.8831604 0.19694105
14.65019 -3.8652058 0.19164979
14.649079 -3.8441775 0.18664376
14.647756 -3.8093641 0.19416595
14.667901 -3.8048222 0.19512635
14.677497 -3.7863226 0.18975765
14.681826 -3.7664607 0.18823878
14.674123 -3.7271097 0.19450127
14.677342 -3.7250397 0.19147277
14.686098 -3.6876822 0.18029661
14.692426 -3.6851435 0.1873799
14.697359 -3.6505678 0.19198631
14.696973 -3.6424854 0.17718194
14.711551 -3.6210802 0.19674434
14.713623 -3.5848534 0.18039474
14.716627 -3.5643275 0.18208319
14.714233 -3.5447402 0.18316488
14.730293 -3.5380948 0.18312129
14.732586 -3.5134406 0.18466422
14.731821 -3.4852128 0.18307407
14.739852 -3.4758105 0.18352462
14.754937 -3.4465997 0.17804554
14.754601 -3.4228716 0.18013658
14.75943 -3.4096324 0.18311349
14.763794 -3.3793602 0.18179075
14.771779 -3.3710945 0.18046039
14.781424 -3.3502038 0.17817684
14.772121 -3.318207 0.18199144
14.782747 -3.3088419 0.18990581
14.794887 -3.2851372 0.18548667
14.785407 -3.2582686 0.18990196
14.79635 -3.2411532 0.18295333
14.801784 -3.2291846 0.17915115
14.617146 -3.1554499 0.22466035
14.607533 -3.1440895 0.2231864
14.616568 -3.1294675 0.22937681
14.624245 -3.0898957 0.2158498
14.629609 -3.0842924 0.23370476
14.63876 -3.0527012 0.2203036
14.635796 -3.0335791 0.22997966
14.648385 -3.0085163 0.22589017
14.64536 -2.9970627 0.21827565
14.848002 -3.0239966 0.18532248
14.854225 -2.9883587 0.18039425
15.042019 -3.0055027 0.14977485
15.055613 -2.9989586 0.1500407
15.248227 -3.0073109 0.11281452
-2.7569003 5.0095038 1.9948357
-2.7573533 5.012033 1.9982229
-2.7517891 5.0092812 1.9895368
-2.7585015 4.993753 1.9828383
-2.766135 5.0028248 1.9854205
-2.7752805 4.9811912 1.9913613
-2.7958617 4.9890437 1.9928923
-2.7959597 4.9758153 1.9785931
-2.8084486 4.9820452 1.9855145
-2.8001969 4.9842725 1.9842443
-2.8136363 4.9606056 1.9942871
-2.8242667 4.9634533 1.9907136
-2.8315043 4.9588284 1.9882523
-2.8474226 4.9544482 1.9941372
-2.850034 4.9493861 1.9929773
-2.8500574 4.9421253 1.9940771
-2.8641346 4.9412241 1.9869328
-2.8566749 4.9471602 1.9904727
-2.8635089 4.9475374 1.984165
-2.8834159 4.9430914 1.9840169
-2.8845875 4.9321241 1.9841439
-2.8957107 4.9174409 1.9910703
-2.8904018 4.9224277 1.9973328
-2.9075484 4.9183989 1.983186
-2.9188044 4.9186554 1.9879578
-2.9112148 4.9057803 1.9894588
-2.9225194 4.9057136 1.9940583
-2.940963 4.8999872 1.9886032
-2.9358606 4.8943009 1.9875447
-2.9570603 4.895577 1.9860682
-2.9584022 4.882545 1.9976634
-2.9596114 4.8852477 1.9786226
-2.9738886 4.8801117 1.9886261
-2.9818971 4.884675 1.9786677
-2.9840469 4.8648233 1.9930426
-2.9814191 4.8593969 1.9786283
-2.9972842 4.8694944 1.9882432
-3.0085442 4.8679729 1.9962368
-3.0052531 4.8583713 1.982659
-3.0230148 4.8543825 1.9944817
-3.0222471 4.8558578 1.9974059
-3.0298784 4.8429251 1.9871762
-3.0365446 4.8425097 1.995963
-3.033201 4.8408751 1.9934758
-3.0398102 4.8238745 1.9953088
-3.0520384 4.8362789 1.9958963
-3.0586748 4.8195896 1.9907724
-3.0756905 4.8184066 1.9883269
-3.0847065 4.8072743 1.9804895
-3.0872943 4.8051343 1.9928823
-3.0980535 4.8105102 1.9909792
-3.1058824 4.7949972 1.9803811
-3.1039348 4.7995543 1.9936154
-3.1131945 4.7941856 1.9894719
-3.1249352 4.7889323 1.9925938
-3.1148369 4.7781692 1.9923956
-3.1241448 4.7874823 1.9797934
-3.1385708 4.7664862 1.9903024
-3.1354358 4.7631745 1.9939829
-3.1401324 4.7639699 1.9798365
-3.1524298 4.7606945 1.9953886
-3.1666243 4.7562733 1.9797596
-3.1714108 4.7604756 1.993029
-3.1829567 4.7420888 1.9852802
-3.1786397 4.7386255 1.9966377
-3.1911948 4.7319193 1.9816012
-3.2039416 4.742557 1.9802563
-3.2092845 4.7254148 1.982303
-3.2041123 4.7180476 1.9854352
-3.2152531 4.7126174 1.9937692
-3.2205341 4.7215176 1.9832433
-3.2302568 4.7028446 1.9927208
-3.2356021 4.7060008 1.9908348
-3.2476716 4.7042203 1.9950055
-3.2474837 4.6933594 1.9801655
-3.2559319 4.6965399 1.983081
-3.2594101 4.6935644 1.981105
-3.2642269 4.6918302 1.9864672
-3.2669907 4.6818466 1.9889514
-3.2866158 4.6672935 1.9905044
-3.2779007 4.6740246 1.9854653
-3.2997048 4.6575928 1.9862702
-3.2920251 4.6623683 1.9947574
-3.3062248 4.6616206 1.9859992
-3.3162475 4.6476011 1.9909247
-3.3211036 4.6516676 1.9835845
-3.3230379 4.638783 1.9978316
-3.3269415 4.647603 1.9949162
-3.3454766 4.6401739 1.986598
-3.3415208 4.619628 1.9883168
-3.3560054 4.6342993 1.9813662
-3.3555226 4.6136618 1.9825916
-3.3742285 4.607193 1.9932098
-3.3644404 4.6130075 1.9877069
-3.383404 4.6152754 1.99282
-3.3774354 4.5991569 1.9866439
-3.3988006 4.5875673 1.992237
-3.4059119 4.5985312 1.9913124
-3.395932 4.5774102 1.9876304
-3.4142635 4.5866885 1.988083
-3.4108696 4.5679197 1.9878966
-3.4144199 4.5760641 1.9917715
-3.4367378 4.5719271 1.9938853
-3.4284308 4.5639954 1.9865302
-3.4456203 4.5635109 1.9861685
-3.4576898 4.5553994 1.9944228
-3.4559286 4.5523205 1.9958311
-3.4685676 4.5485215 1.9929554
-3.4621243 4.5410872 1.9937201
-3.4793563 4.5416989 1.9885334
-3.4761288 4.5320759 1.989357
-3.4930811 4.5252666 1.9831132
-3.4861517 4.5224981 1.997529
-3.4971015 4.5143871 1.988819
-3.4953997 4.5154314 1.9844394
-3.5140526 4.5107441 1.9967719
-3.5244443 4.4941487 1.9908581
-3.533421 4.4912386 1.9859866
-3.5252664 4.4810891 1.9985307
-3.5363402 4.4800186 1.9965456
-3.532594 4.4884791 1.989805
-3.548017 4.4662848 1.9811321
-3.5496771 4.4773102 1.9945757
-3.5569143 4.4636693 1.9848026
-3.5728545 4.4580073 1.9809767
-3.5731676 4.4599619 1.9973751
-3.581141 4.4577875 1.9820988
-3.5950212 4.4528928 1.9888417
-3.593766 4.4424019 1.990373
-3.5999594 4.4270797 1.9957806
-3.6081312 4.4217391 1.9946042
-3.6030364 4.4272041 1.9961977
-3.6266074 4.4172306 1.9937894
-3.6167278 4.4062347 1.9827218
-3.6366143 4.4055061 1.9909821
-3.6403193 4.4106655 1.9861959
-3.647619 4.3940454 1.9842432
-3.650188 4.3897319 1.9824119
-3.6460068 4.3928528 1.9951147
-3.6602871 4.3759537 1.9975288
-3.669153 4.377048 1.9796444
-3.6791878 4.3693962 1.9922758
-3.6876221 4.364325 1.9799931
-3.6784575 4.355278 1.9817824
-3.6803532 4.3524823 1.9879197
-3.6939814 4.3521118 1.9843013
-3.6923885 4.350565 1.9891565
-3.7127411 4.3525658 1.9948001
-3.7149179 4.3448563 1.988676
-3.7243845 4.328969 1.9907715
-3.7314298 4.3303108 1.9790897
-3.7363522 4.3277049 1.9848924
-3.728636 4.3227458 1.9907687
-3.753195 4.3130245 1.9927512
-3.7559576 4.3074741 1.9970999
-3.7525754 4.294354 1.9862484
-3.7528043 4.2888784 1.9790288
-3.7681706 4.2890949 1.9789972
-3.7778859 4.2931719 1.9964521
-3.7737181 4.2738128 1.9832237
-3.7874472 4.2734303 1.9965494
-3.7928507 4.2741413 1.9924906
-9.2691746 1.7733871 1.3194715
-9.2793961 1.7616203 1.3111994
-9.2876158 1.7330894 1.3226228
-9.2914686 1.733932 1.3261807
-9.2861557 1.7205296 1.3095261
-9.288043 1.6977373 1.3183593
-9.2899446 1.6911991 1.3165491
-9.2943735 1.6747904 1.3206673
-9.2920122 1.6706071 1.3096995
-9.2963076 1.6469674 1.3247474
-9.3046427 1.6296738 1.3195438
-9.2967491 1.6246028 1.3155389
-9.2971087 1.6137369 1.315972
-9.3060274 1.6014248 1.3102198
-9.3113699 1.576815 1.3240409
-9.3133488 1.5726879 1.3280486
-9.3064756 1.569012 1.3185003
-9.3213959 1.5432423 1.3255289
-9.3121786 1.5421504 1.3213629
-9.3139114 1.5190618 1.3265492
-9.3205776 1.509918 1.327437
-9.3324299 1.4909302 1.3162522
-9.328269 1.4738264 1.327203
-9.3236561 1.4700301 1.3188463
-9.3247776 1.4630991 1.3188875
-9.3320599 1.436379 1.3278124
-9.1406794 1.4091102 1.3612981
-9.1334238 1.3789397 1.3468082
-9.139123 1.3801214 1.3642461
-9.1489697 1.3616873 1.3516184
-9.1536131 1.3586856 1.3628726
-9.1573496 1.3459126 1.3481678
-9.1522541 1.3193635 1.3493907
-9.156189 1.3194712 1.359852
-9.1484632 1.3004837 1.3564194
-9.1606789 1.2762221 1.3593069
-9.1639509 1.2706941 1.3575612
-9.1489429 1.2543516 1.3584191
-9.1684065 1.2542231 1.353235
-9.170414 1.2261425 1.3623962
-9.1650314 1.2152963 1.3613377
-9.1683769 1.2025721 1.3602906
-9.1664095 1.1967854 1.3454815
-9.1632013 1.188887 1.3635699
-9.1695137 1.1705199 1.3554628
-9.1792402 1.1617259 1.355889
-9.1660624 1.1514294 1.3635844
-9.174612 1.1378938 1.347737
-9.1822853 1.126629 1.344563
-9.1751251 1.1150731 1.3461131
-9.1787863 1.0905983 1.3496237
-9.1834879 1.0844591 1.3532195
-9.1892185 1.0619502 1.3638402
-9.1897402 1.0642949 1.3593763
-8.9965105 1.0199916 1.3845844
-8.9869843 1.0098066 1.398594
-8.997015 0.99439144 1.395128
-8.9993324 0.99200052 1.3909492
-8.9974794 0.96349156 1.3883308
-8.9987831 0.96368062 1.3869838
-8.9985199 0.94172901 1.3939912
-8.9947271 0.93657804 1.387691
-9.0073223 0.92718077 1.3917155
-9.0092783 0.89872807 1.3909205
-8.9956808 0.88930827 1.3806227
-9.0120802 0.89081448 1.3927064
-9.0144529 0.86367285 1.3819433
-9.0002737 0.85557884 1.3813597
-9.0102558 0.850685 1.3848394
-9.0028391 0.82581753 1.3810824
-9.0167513 0.82252634 1.3879497
-9.0036383 0.80432218 1.382244
-9.0168085 0.79480082 1.3997205
-9.0059357 0.78458303 1.3813258
-9.0158415 0.76920503 1.3860945
-9.0160265 0.75865209 1.3849541
-9.0241108 0.746934 1.3892587
-9.0229406 0.73058468 1.3980576
-9.022337 0.72542548 1.3945526
-9.0182352 0.70883787 1.3987715
-9.0178728 0.69947481 1.3922924
-9.0306253 0.68434393 1.3802038
-9.0290661 0.677145 1.3911902
-9.0300131 0.66190255 1.3845567
-9.0293369 0.63782156 1.3951442
-9.0238752 0.63460422 1.3877797
-8.8231049 0.61113173 1.4165219
-8.834425 0.58332038 1.4262959
-8.8369284 0.57710987 1.4235156
-8.8229198 0.57597983 1.4167542
-8.8246756 0.55617338 1.4332376
-8.8328924 0.54455781 1.4271991
-8.8331814 0.53542745 1.4265723
-8.8424664 0.52625877 1.4233146
-8.8383684 0.49865711 1.4285889
-8.8436642 0.4973911 1.4232601
-8.8363085 0.48132047 1.4202768
-8.8354158 0.47474992 1.4218245
-8.8447313 0.44647831 1.429505
-8.8368101 0.45300063 1.4284002
-8.8356333 0.43853584 1.4198344
-8.8379555 0.41660488 1.4319999
-8.8462992 0.4151192 1.4273827
-8.8352518 0.38506517 1.4259456
-8.8474455 0.37980923 1.4292567
-8.8343477 0.36993897 1.4236524
-8.8465614 0.3480899 1.4343292
-8.8417416 0.3477816 1.4307879
-8.8353558 0.33878803 1.4313287
-8.8412724 0.31832898 1.430746
-8.8482771 0.2996431 1.4280536
-8.8438301 0.29921377 1.4157864
-8.8472004 0.29100263 1.4343903
-8.8551702 0.27438277 1.4152977
-8.8445606 0.26609653 1.4233075
-8.8506222 0.25141826 1.4338062
-8.8422709 0.22501919 1.4348155
-8.8432255 0.22391595 1.4278769
-8.8477039 0.20965627 1.4243059
-8.8516245 0.18992071 1.4326376
-8.8561106 0.18360445 1.4346457
-8.8432722 0.16214181 1.4285872
-8.8426828 0.15769832 1.4266812
-8.6466227 0.14261501 1.4557419
-8.6464834 0.12181325 1.4536582
-8.6583176 0.11528748 1.4692613
-8.6596365 0.11743342 1.4508306
-8.6599293 0.098927885 1.4636626
-8.6471434 0.076229699 1.4546012
-8.6579123 0.069879547 1.4581709
-8.6603327 0.059294764 1.4677914
-8.6607275 0.041783106 1.4683167
-8.6471643 0.025077358 1.4567661
-8.6554899 0.027781432 1.465542
-8.6499605 0.010802802 1.4656096
-8.6464977 0.0021513114 1.451245
-8.6474152 -0.0076743821 1.4511201
-8.6467466 -0.017664939 1.4645838
-8.6532297 -0.034758892 1.4674435
-8.648757 -0.042527258 1.4560473
-8.660697 -0.052638393 1.4661609
-8.6429996 -0.083084203 1.4508574
-8.6447611 -0.079923049 1.4509428
-8.6580553 -0.10506097 1.4658269
-8.6425571 -0.10465989 1.455827
-8.6469746 -0.12080348 1.4692705
-8.8425865 -0.14116883 1.4297602
-8.8414545 -0.15790109 1.4275767
-8.8468418 -0.16117354 1.4203938
-8.8493528 -0.18004753 1.4175371
-8.8432417 -0.19095331 1.4166635
-9.0438194 -0.20892465 1.3822157
-9.0428572 -0.22440252 1.3982458
-9.0417919 -0.23331693 1.3812318
-9.045825 -0.24689202 1.3967125
-9.0398407 -0.24506019 1.3881432
-9.0403948 -0.26218605 1.3945818
-9.241992 -0.28469729 1.3614331
-9.2289734 -0.30679917 1.3526022
-9.2431192 -0.31166008 1.3572644
-9.2401037 -0.33067611 1.3633875
-9.2379446 -0.33373371 1.3485597
-9.431716 -0.36381277 1.3156723
-9.432704 -0.36574972 1.3217334
-9.4306879 -0.39206219 1.3268591
-9.4331732 -0.39274991 1.3264561
-9.4242086 -0.41436946 1.321566
-9.625453 -0.43025807 1.2778832
-9.6279268 -0.44477451 1.2802336
-9.6192122 -0.4538767 1.290635
-9.6258163 -0.48042136 1.2749314
-9.6262798 -0.48528203 1.2890809
-9.8181496 -0.51810616 1.258515
-9.8110523 -0.52229345 1.2544186
-9.8178749 -0.54500568 1.2571929
-9.8195524 -0.550762 1.2524617
-9.8216143 -0.56813186 1.2392924
-10.005068 -0.58247107 1.2172422
-10.020425 -0.60839093 1.2093527
-10.013412 -0.62624252 1.2058146
-10.015978 -0.63136363 1.2091844
-10.210679 -0.65052313 1.1859226
-10.194742 -0.67303908 1.1689323
-10.194129 -0.6891939 1.181479
-10.197592 -0.71292645 1.1850367
-10.19826 -0.71911091 1.17656
-10.399997 -0.74241334 1.1492119
-10.398506 -0.75947195 1.1482615
-10.403822 -0.77273566 1.1353844
-10.397008 -0.779854 1.1386477
-10.589985 -0.82578516 1.1155579
-10.583277 -0.83578771 1.1154125
-10.584587 -0.85079747 1.1070136
-10.582867 -0.86615783 1.1167209
-10.784764 -0.9024204 1.0817327
-10.786876 -0.90417415 1.0700412
-10.777442 -0.93233168 1.0635669
-10.976228 -0.95733911 1.0393412
-10.979804 -0.97174376 1.0316024
-10.976235 -0.98043823 1.0312719
-10.969383 -1.0069606 1.0348946
-11.16639 -1.0463132 1.0080897
-11.167481 -1.0500646 0.99629331
-11.15695 -1.0733035 1.0039308
-11.156689 -1.0834831 1.0065534
-11.352081 -1.1165121 0.96726429
-11.343206 -1.142208 0.97010303
-11.340783 -1.1518891 0.96027237
14.746208 -4.9757643 0.2232812
14.738586 -4.9636784 0.22149318
14.748326 -4.9438019 0.23107781
14.766084 -4.9235983 0.22221343
14.769799 -4.9003625 0.22791721
14.778228 -4.8852086 0.23137558
14.781934 -4.8680081 0.22687255
14.795552 -4.8352051 0.22642624
14.79746 -4.8243656 0.22859551
14.606169 -4.7457285 0.26804915
14.617571 -4.7085104 0.26652262
14.630028 -4.7058644 0.25651175
14.640669 -4.6803985 0.26579708
14.640866 -4.6640673 0.25469634
14.65217 -4.6308837 0.26623231
14.64915 -4.6161065 0.27231333
14.649559 -4.6044297 0.25497621
14.665437 -4.5659113 0.26981443
14.68084 -4.5522337 0.25485471
14.678383 -4.5293388 0.25701496
14.680129 -4.5216484 0.25599834
14.700319 -4.4880781 0.25722399
14.690471 -4.4704161 0.26350248
14.709879 -4.4590774 0.26569
14.718158 -4.4229264 0.26062962
14.717943 -4.4162602 0.26990604
14.723782 -4.3956194 0.27040997
14.732254 -4.3655081 0.26897377
14.735536 -4.3463717 0.26074785
14.743829 -4.3360419 0.25494048
14.754254 -4.310287 0.25633854
14.743634 -4.2906337 0.27081314
14.75421 -4.2670932 0.2624473
14.771037 -4.25038 0.26490873
14.770022 -4.231595 0.26300079
14.783917 -4.1992021 0.26723048
14.787062 -4.1871204 0.27156335
14.79068 -4.1726875 0.26546174
14.792834 -4.1410646 0.25794184
14.617121 -4.0742345 0.29541168
14.62511 -4.0562558 0.30284229
14.614468 -4.034904 0.28934619
14.618273 -4.0089531 0.29880238
14.633683 -3.9921246 0.30437517
14.631526 -3.9622309 0.28812811
14.647433 -3.9443328 0.30366075
14.647541 -3.9291537 0.29065365
14.651954 -3.8961897 0.2914502
14.670236 -3.8868771 0.30323213
14.66097 -3.8694417 0.2882213
14.673922 -3.8496912 0.29079989
14.674276 -3.8262274 0.29433349
14.681106 -3.8045757 0.3034133
14.677362 -3.773102 0.28890905
14.699164 -3.769345 0.30387792
14.70469 -3.7352128 0.29631677
14.70572 -3.7264752 0.30349886
14.713714 -3.6988001 0.30320141
14.722475 -3.6782887 0.29176539
14.722991 -3.6524611 0.29730585
14.728466 -3.63907 0.30213052
14.736492 -3.6106849 0.28994519
14.728023 -3.6008022 0.29893017
14.748604 -3.5799654 0.29890001
14.734653 -3.5626018 0.30213067
14.755641 -3.5449586 0.29899016
14.74904 -3.5115032 0.30407619
14.749592 -3.4952426 0.29631931
14.769818 -3.4753804 0.2885485
14.758579 -3.460135 0.30607283
14.772853 -3.4245167 0.29644853
14.771921 -3.4059472 0.29466248
14.778776 -3.4008932 0.30220538
14.794587 -3.3802745 0.29002419
14.790339 -3.3585958 0.29463866
14.789292 -3.3208878 0.29632145
14.805077 -3.314712 0.29087788
14.613764 -3.2500396 0.3363288
14.62676 -3.2331297 0.32582369
14.631957 -3.2123039 0.32996193
14.634649 -3.1820211 0.32910931
14.627689 -3.1574571 0.32621035
14.638915 -3.1507971 0.32774308
14.637655 -3.1330564 0.32926539
14.644185 -3.1042647 0.33183089
14.655301 -3.081192 0.33146209
14.648071 -3.0669785 0.3366203
14.65537 -3.0365379 0.342949
14.652867 -3.0176277 0.32579413
14.659832 -2.9980185 0.32906568
14.863807 -3.0195384 0.30699137
14.874054 -2.9928377 0.30429164
15.074384 -3.0181375 0.27261093
15.063261 -2.9899986 0.25346929
15.266749 -3.0179594 0.22746599
15.279709 -3.000587 0.21932161
15.465493 -3.0124779 0.18972555
15.656512 -3.0208006 0.15012126
15.660604 -2.998132 0.16419524
15.860892 -3.0096371 0.12219526
15.871092 -2.9970572 0.11278403
-3.1591594 5.0100603 1.9975134
-3.1596768 5.0125093 2.0062366
-3.1737156 4.9948101 2.0019052
-3.1734574 5.0025182 2.0028546
-3.1790779 4.9861722 1.9956378
-3.1931558 4.9776945 2.0058043
-3.1839142 4.9722829 1.9869483
-3.1956475 4.9773827 1.9927452
-3.2122679 4.9720592 1.9926158
-3.2181871 4.9725208 1.9986136
-3.2166898 4.9703298 1.9908819
-3.2326019 4.9545865 1.9900186
-3.2397842 4.9517632 1.9958845
-3.251292 4.9561515 1.9938971
-3.2418439 4.9418659 2.0000119
-3.2596061 4.940443 2.0021071
-3.2671957 4.9351959 2.0032578
-3.2736349 4.9251437 1.9939859
-3.2742705 4.9253931 2.0038772
-3.2750292 4.9266386 1.9987271
-3.289784 4.9162908 1.9958919
-3.2922635 4.9169335 2.0018294
-3.2956002 4.9172912 1.9894692
-3.3130646 4.9130311 2.0060325
-3.3125098 4.9051032 1.992855
-3.3258336 4.886291 2.002809
-3.3370559 4.8867602 1.9920802
-3.347121 4.8876557 1.995873
-3.3464513 4.874774 2.0044982
-3.3558838 4.8679852 1.9989618
-3.3504601 4.8732882 1.9876801
-3.3678648 4.8629508 2.0016534
-3.3793256 4.8561091 2.0006056
-3.3831398 4.8586302 1.9999291
-3.3903842 4.848526 1.9959654
-3.3907995 4.8519115 1.9978395
-3.4012539 4.8508816 2.0048428
-3.4024308 4.8465872 1.9974105
-3.4198081 4.8297567 2.0017753
-3.4285536 4.8302808 2.0040395
-3.4228287 4.82301 1.9963045
-3.4283788 4.8251085 2.002939
-3.439949 4.8225145 1.987449
-3.4525602 4.8028674 1.9992061
-3.4458413 4.8027301 2.0055943
-3.4630792 4.8089261 2.000113
-3.4584363 4.7914085 1.9983562
-3.4667833 4.7994494 1.9970691
-3.4825559 4.7768412 2.0037246
-3.4939568 4.7722087 1.9956869
-3.4830866 4.7800159 2.0051703
-3.4999447 4.768981 2.001554
-3.5101614 4.7730775 2.0001543
-3.5158613 4.7512574 2.0039272
-3.5097971 4.7628441 1.9923931
-3.517338 4.7438741 1.9918935
-3.5303533 4.7362218 1.9987249
-3.5451183 4.7468896 1.9984546
-3.5411637 4.7284465 2.0004427
-3.5505466 4.725256 2.0026746
-3.5679603 4.7195835 1.9975991
-3.5558836 4.7236929 2.0063837
-3.5674162 4.7242198 2.0041685
-3.5803418 4.7056732 2.0050466
-3.5894871 4.699811 2.002434
-3.5901597 4.6930213 2.0057836
-3.5913246 4.6998219 2.0064213
-3.6056514 4.6984572 2.0026777
-3.6202412 4.6876397 2.0054502
-3.6128359 4.6740246 1.9900011
-3.6231918 4.6695743 1.9938571
-3.6386158 4.6637726 1.9868101
-3.6452484 4.6730027 2.005286
-3.634089 4.6558652 1.990221
-3.6420443 4.6561327 1.9943085
-3.6526051 4.6422715 1.9966297
-3.6598094 4.6537824 1.9907849
-3.6663685 4.637496 1.9886174
-3.6766641 4.6331425 2.0006833
-3.68418 4.6227098 2.0041947
-3.6871378 4.6284294 1.988325
-3.6862326 4.6252265 1.9917321
-3.6923671 4.6218858 1.9894569
-3.7000184 4.6161914 1.9951407
-3.7227273 4.6090221 2.0061979
-3.7213416 4.597765 1.9885091
-3.7176275 4.5857697 1.9874545
-3.7397509 4.5936737 1.9952466
-3.7440343 4.577734 2.0038269
-3.7562447 4.5807223 1.9871254
-3.7449362 4.5671902 2.0013037
-3.7494903 4.5609937 1.9974481
-3.7706299 4.5550852 1.9954295
-3.7740371 4.5479412 1.9929037
-3.7717533 4.5444965 1.9884043
-3.778405 4.5488386 1.9978526
-3.782738 4.5432887 2.0005193
-9.2775612 1.7776804 1.3882203
-9.2912769 1.7508276 1.3933054
-9.2963943 1.7381418 1.3866196
-9.2981949 1.7231345 1.391651
-9.3057985 1.709936 1.3957442
-9.2972403 1.7019534 1.3791962
-9.3106823 1.6969115 1.3807802
-9.306632 1.6804941 1.3842044
-9.3070631 1.6637586 1.3972642
-9.3180285 1.6490161 1.3900769
-9.3063078 1.6352121 1.3869141
-9.3187761 1.6301386 1.3898807
-9.3061409 1.6223761 1.3931469
-9.3201733 1.5952229 1.3943946
-9.3291569 1.5828575 1.3954362
-9.3140278 1.5814244 1.3814906
-9.3154297 1.5689048 1.395502
-9.3352289 1.542773 1.386098
-9.3315859 1.5385296 1.3929641
-9.3348646 1.525623 1.3980962
-9.3253126 1.5067197 1.3824362
-9.3389053 1.4976133 1.3947176
-9.3295126 1.4833889 1.3922546
-9.3368359 1.4773606 1.3956598
-9.1480904 1.4343854 1.413507
-9.1530457 1.4191777 1.4291654
-9.1519299 1.4047428 1.4253348
-9.1567831 1.3926649 1.428406
-9.1510239 1.3863682 1.4202703
-9.1583796 1.3589123 1.4122676
-9.1605864 1.3431102 1.418404
-9.1584349 1.335799 1.4284796
-9.1639843 1.3199453 1.4173788
-9.171978 1.3188154 1.4133011
-9.1565495 1.2936568 1.4294769
-9.1570387 1.2855114 1.4232296
-9.1618509 1.2804334 1.4153352
-9.170476 1.2524344 1.428153
-9.176013 1.2521104 1.4274671
-9.1696672 1.2263274 1.432121
-9.1713057 1.2202177 1.4137712
-9.1867905 1.2181213 1.420911
-9.1721811 1.1923194 1.4250004
-9.1886559 1.1803493 1.4207661
-9.189189 1.1656163 1.4241818
-9.1735296 1.1521845 1.4122633
-9.1840992 1.1557124 1.4280803
-9.1825447 1.1323693 1.4287143
-9.1881552 1.1252265 1.4218427
-9.1944332 1.1061485 1.4220092
-9.1960392 1.0871323 1.4288893
-9.1959772 1.0743147 1.4264985
-8.9929247 1.055233 1.4649168
-9.0015659 1.044136 1.4504126
-8.9944248 1.0141346 1.4540079
-9.00385 1.0014046 1.4570062
-9.0051765 0.99969888 1.4563694
-9.0106678 0.98112285 1.465229
-9.0155077 0.97849458 1.4597874
-9.0072021 0.95112807 1.4481113
-9.018712 0.94367737 1.4502649
-9.0033245 0.93779248 1.452449
-9.0103102 0.92061323 1.4509392
-9.0126429 0.91622931 1.450911
-9.0094614 0.90040618 1.4534624
-9.0226679 0.87655967 1.4558661
-9.0128584 0.87277126 1.4491488
-9.0236683 0.86485791 1.4564418
-9.0256004 0.85345376 1.4536949
-9.0129566 0.83168721 1.4561719
-9.0119715 0.81972474 1.4637902
-9.0288153 0.8044464 1.4581175
-9.0234575 0.80346161 1.4478613
-9.0195913 0.78140581 1.4658188
-9.0357361 0.76377463 1.4605523
-9.0293121 0.75416344 1.4640404
-9.0204668 0.73557067 1.4563428
-9.0383205 0.72735941 1.4533361
-9.0288639 0.71838945 1.4515314
-9.0221367 0.70321906 1.4605677
-9.0329151 0.69017214 1.4502509
-9.0360575 0.68140256 1.4572664
-9.0248547 0.65909421 1.4559097
-9.04389 0.66173732 1.465111
-8.8483067 0.63553536 1.4830796
-8.8345966 0.61085123 1.4902709
-8.8373823 0.59604567 1.4914877
-8.8478479 0.58440131 1.4971131
-8.8413019 0.58321124 1.4863899
-8.836545 0.56972861 1.4931186
-8.8427334 0.54643035 1.4994246
-8.839222 0.54093474 1.4895861
-8.8486776 0.52756923 1.4900659
-8.8394728 0.51607764 1.4858167
-8.8410492 0.50441754 1.4817632
-8.8384228 0.48732236 1.4853815
-8.848588 0.48828033 1.4865512
-8.8575191 0.45959377 1.4884346
-8.840807 0.45825613 1.4814872
-8.8548012 0.44246259 1.4934175
-8.8420496 0.44124958 1.4944111
-8.8429747 0.42430019 1.4822716
-8.8537207 0.39863011 1.4891301
-8.8439693 0.40288258 1.4968617
-8.8584509 0.38625893 1.4852986
-8.8569679 0.3729448 1.489007
-8.8518496 0.35013151 1.4860408
-8.8455439 0.33903596 1.4867566
-8.857338 0.32528365 1.4985038
-8.8560619 0.31815127 1.4868277
-8.8628387 0.30436766 1.4863098
-8.8486042 0.29023874 1.4812142
-8.8464918 0.2859261 1.4828211
-8.8575039 0.27190956 1.4810539
-8.8607674 0.26393998 1.4950372
-8.8555765 0.2379639 1.4880813
-8.8666592 0.23759958 1.4906877
-8.860692 0.22401673 1.4945748
-8.8539906 0.19909878 1.4970865
-8.855526 0.19589835 1.4848434
-8.8687191 0.18634585 1.4911947
-8.6653194 0.16783872 1.5295788
-8.6640873 0.15570484 1.5222467
-8.661231 0.1529315 1.5332779
-8.6601257 0.12725025 1.5287197
-8.665019 0.12709814 1.5305663
-8.6568518 0.11618356 1.5244299
-8.6660614 0.091540344 1.5170923
-8.6713667 0.073884182 1.5172189
-8.6541443 0.0749624 1.5265276
-8.6691475 0.063098982 1.5186666
-8.6577816 0.037775919 1.5282779
-8.6617985 0.033897635 1.5178635
-8.673131 0.013071107 1.5167845
-8.6734142 0.01352917 1.5221331
-8.6582394 -0.010744815 1.5194387
-8.6612015 -0.0067067519 1.5179391
-8.6702824 -0.031750247 1.5239058
-8.6666842 -0.041988179 1.524326
-8.6629429 -0.054908831 1.5179342
-8.6698751 -0.062755324 1.5317889
-8.6646519 -0.079176247 1.5324308
-8.6698008 -0.079570375 1.5213044
-8.6653471 -0.091269836 1.5214617
-8.6619549 -0.10324345 1.5141872
-8.6531973 -0.12004932 1.5147489
-8.8642168 -0.14312518 1.497676
-8.8596144 -0.15231386 1.4814527
-8.8490286 -0.15796211 1.4871014
-8.8580055 -0.17994329 1.4919395
-8.8533564 -0.18894869 1.481041
-8.8548355 -0.19283924 1.4858311
-9.0527201 -0.22693908 1.4485539
-9.0446415 -0.23206688 1.4654695
-9.0563889 -0.23396191 1.4625206
-9.0553932 -0.24727553 1.4548748
-9.0538168 -0.2747021 1.4595461
-9.2525387 -0.28405228 1.4136293
-9.250432 -0.29701239 1.4282305
-9.2426586 -0.31919816 1.4132335
-9.2500296 -0.31700131 1.4216136
-9.2482805 -0.33656698 1.4184853
-9.2417231 -0.35725337 1.4185743
-9.4356079 -0.37814814 1.3924091
-9.4355822 -0.3834464 1.3907878
-9.4384861 -0.40810883 1.3885084
-9.4490185 -0.41157371 1.3914574
-9.4348602 -0.41713101 1.3840218
-9.6297235 -0.45034018 1.362772
-9.6330481 -0.4671551 1.3460476
-9.6313515 -0.47179887 1.3644481
-9.6412554 -0.49517 1.3562098
-9.8311186 -0.50291395 1.3264287
-9.8240099 -0.51792848 1.3304226
-9.8292637 -0.53345889 1.3223184
-9.8361197 -0.55245394 1.3227509
-9.8252363 -0.5625596 1.3129169
-10.028157 -0.59091407 1.2969403
-10.021705 -0.60630661 1.2840704
-10.0227 -0.62567091 1.2878562
-10.020401 -0.64400399 1.2804681
-10.019681 -0.65292573 1.2831779
-10.223865 -0.66874737 1.2482644
-10.207324 -0.68528849 1.2458611
-10.206769 -0.70783961 1.2616681
-10.214298 -0.71802211 1.2522197
-10.417983 -0.75239658 1.2126213
-10.414854 -0.75972599 1.2239984
-10.413898 -0.78145272 1.213994
-10.405792 -0.78504372 1.2186351
-10.610405 -0.82260215 1.1851689
-10.605839 -0.84524393 1.1905711
-10.598542 -0.85631198 1.1873407
-10.592356 -0.87180442 1.1818486
-10.784988 -0.90420365 1.1543006
-10.785334 -0.90893537 1.1446295
-10.795106 -0.9217692 1.1491402
-10.790672 -0.93253905 1.16087
-10.991182 -0.98101181 1.1116366
-10.98531 -0.98518509 1.1271404
-10.974774 -0.99857211 1.1150085
-11.180167 -1.0469563 1.0812683
-11.183845 -1.051111 1.0850576
-11.17073 -1.0702883 1.0881677
-11.163086 -1.0868913 1.0901662
-11.365346 -1.1246043 1.0487341
-11.361067 -1.1341671 1.0433332
-11.372255 -1.1606123 1.0422426
14.770011 -4.9738464 0.33601978
14.764806 -4.9560022 0.3413752
14.785464 -4.930006 0.34136298
14.778306 -4.9012585 0.34318313
14.792768 -4.8908501 0.34576532
14.605568 -4.8139596 0.36637172
14.619458 -4.7800488 0.37641963
14.624862 -4.770896 0.3765431
14.628769 -4.744916 0.37363595
14.633019 -4.7290592 0.37838146
14.651072 -4.6938367 0.38457283
14.642508 -4.6907482 0.36800197
14.659269 -4.653903 0.37681141
14.655992 -4.6510887 0.37374285
14.674504 -4.6206555 0.38044733
14.675571 -4.5970263 0.38166443
14.683434 -4.5862064 0.37639937
14.681314 -4.5566545 0.37988475
14.69929 -4.5298381 0.36893868
14.69433 -4.5253854 0.37342858
14.714087 -4.4894671 0.37271082
14.720007 -4.4686708 0.37464213
14.729327 -4.4576406 0.37297031
14.727427 -4.4363899 0.37365559
14.742432 -4.4230971 0.38430718
14.744111 -4.3951817 0.37811232
14.746979 -4.365819 0.38225296
14.744553 -4.3449616 0.37545204
14.765583 -4.3324857 0.37496489
14.755639 -4.3112993 0.37841907
14.770156 -4.2966561 0.37727153
14.783927 -4.2623653 0.37639153
14.7796 -4.2449975 0.36600378
14.793572 -4.2357435 0.37632072
14.788201 -4.2176719 0.37937498
14.603821 -4.1302385 0.40356421
14.622774 -4.1201701 0.40276098
14.625839 -4.098628 0.40223432
14.622075 -4.0821266 0.41359395
14.637794 -4.0616117 0.40554237
14.636941 -4.0325942 0.4115276
14.65491 -4.0157909 0.41118911
14.651971 -3.9892712 0.40759537
14.658616 -3.9747069 0.41262442
14.655549 -3.9514127 0.41508564
14.675508 -3.9287369 0.41049299
14.665845 -3.9128745 0.41557741
14.675349 -3.8996851 0.40180486
14.684299 -3.8759694 0.40412667
14.68458 -3.8422146 0.40654811
14.69678 -3.8349667 0.41756433
14.694937 -3.8153732 0.4049527
14.712727 -3.7843142 0.41842198
14.706894 -3.7721775 0.40600902
14.726062 -3.748646 0.41643599
14.727663 -3.7306657 0.40907663
14.724642 -3.70783 0.41710982
14.726677 -3.6809425 0.41785508
14.73491 -3.6705301 0.40183109
14.745437 -3.6452327 0.39906931
14.738357 -3.6331022 0.40305531
14.762263 -3.6081533 0.40612727
14.75353 -3.5907247 0.39974323
14.758237 -3.56441 0.40497357
14.770502 -3.5441802 0.41320556
14.773166 -3.5275741 0.39888084
14.768441 -3.4991846 0.40684721
14.79172 -3.473927 0.40114936
14.795717 -3.4655743 0.40530527
14.78366 -3.4318044 0.41419253
14.788813 -3.4101961 0.41463718
14.797923 -3.3897328 0.39945051
14.617918 -3.339051 0.43488815
14.623597 -3.312901 0.44226339
14.614478 -3.2994518 0.44926718
14.633562 -3.2682765 0.45226887
14.638293 -3.2467346 0.44304508
14.630962 -3.2267928 0.43845686
14.637905 -3.207706 0.44159281
14.648975 -3.185498 0.43786323
14.648904 -3.1629307 0.4350999
14.649249 -3.1560185 0.45215082
14.654379 -3.1216891 0.4352524
14.661135 -3.1063266 0.44411027
14.675237 -3.0847008 0.44601715
14.676315 -3.0685799 0.43869266
14.680366 -3.0522885 0.45249712
14.675164 -3.0278602 0.44582397
14.685346 -3.0009928 0.43781203
14.891783 -3.0269334 0.4177931
14.881369 -2.9977195 0.41368598
15.081419 -3.0114422 0.38226387
15.085288 -3.0052917 0.3785035
15.285595 -3.0150697 0.33586591
15.281418 -2.9964845 0.34817421
15.49259 -3.0189087 0.30235174
15.482988 -2.9835041 0.30612889
15.680737 -3.0147905 0.28007069
15.891887 -3.019573 0.24039309
15.901417 -2.998013 0.24746794
16.098412 -3.0075152 0.20920561
16.097586 -2.9977083 0.2090928
16.292923 -3.0041347 0.18029784
16.484568 -3.0272608 0.13899259
16.493494 -3.0028794 0.1287241
-3.5147839 5.0133567 2.0007961
-3.5334396 4.9999619 2.0131063
-3.5230865 5.0092926 2.0019836
-3.5374129 4.9906583 1.9993064
-3.5465715 4.9993505 2.0081861
-3.5582795 4.9817085 2.0149348
-3.5573096 4.971858 2.0155828
-3.5578806 4.9750242 1.9986488
-3.5738978 4.9731622 1.9983766
-3.5818727 4.9727354 2.0095961
-3.5915315 4.9594574 2.0031056
-3.5950615 4.9544911 2.0081489
-3.6062741 4.9468389 2.0074613
-3.6086025 4.9518147 2.0130873
-3.6136012 4.9345789 2.0123634
-3.6297133 4.9325757 1.9989653
-3.6190693 4.9384751 2.0006938
-3.6277704 4.9307299 2.0105755
-3.6333983 4.913887 2.0035918
-3.6392913 4.9159818 2.0011876
-3.6539578 4.9153233 2.0105212
-3.6551075 4.8980327 1.9999143
-3.6712067 4.896421 2.0066907
-3.6679866 4.8993654 2.0034876
-3.6791332 4.8841887 2.0081034
-3.6909962 4.8797698 2.0157797
-3.6962502 4.872858 2.0144293
-3.6997685 4.8641019 2.0104172
-3.713398 4.8765664 2.0146549
-3.714004 4.8699799 2.0060899
-3.7170069 4.8555617 2.0019782
-3.7306688 4.8468218 2.0056977
-3.7349305 4.8488026 2.0129368
-3.7524083 4.8408175 2.008261
-3.7530818 4.8284917 2.0135581
-3.7491324 4.8311019 1.9995966
-3.7574992 4.8352499 2.0038924
-3.7672091 4.8226643 2.0046105
-3.7809236 4.8232265 2.0029812
-3.7903931 4.8099527 1.9999632
-3.7884204 4.8004389 2.0077341
-9.294363 1.7641309 1.4621783
-9.3085175 1.7425162 1.4536327
-9.3154154 1.7301704 1.462337
-9.3069706 1.7238908 1.4639606
-9.3132105 1.708293 1.4534487
-9.3133936 1.6910535 1.4523482
-9.3092632 1.6908219 1.4639351
-9.3243961 1.663586 1.4613667
-9.3211403 1.6535835 1.4508163
-9.3208838 1.6522497 1.4560534
-9.332839 1.6354727 1.4501808
-9.320528 1.6069722 1.4556948
-9.3367453 1.5939872 1.4618678
-9.3242397 1.5918419 1.4547694
-9.3300924 1.5858337 1.4650846
-9.3264389 1.5620006 1.4511751
-9.3438673 1.5446388 1.4500521
-9.3296909 1.5344661 1.4547145
-9.3380642 1.5298537 1.4623991
-9.3369703 1.5077831 1.4617776
-9.3506203 1.4960254 1.45741
-9.3501253 1.478828 1.457576
-9.1490984 1.437161 1.4901358
-9.1568375 1.4209692 1.4812491
-9.1516571 1.42112 1.4993976
-9.1561441 1.4071016 1.4867595
-9.1545219 1.3978133 1.4898093
-9.1740046 1.3848424 1.4957389
-9.168808 1.36562 1.4901114
-9.1759081 1.349596 1.4954718
-9.1636124 1.3420074 1.482136
-9.1756659 1.3369817 1.4846669
-9.1675358 1.320033 1.4890821
-9.1791687 1.2973342 1.4901032
-9.1796713 1.281787 1.4840758
-9.1820068 1.2837067 1.496833
-9.1769629 1.2691838 1.4931079
-9.1888514 1.2570952 1.4892205
-9.1747923 1.2321035 1.4989221
-9.1863422 1.2218933 1.4854137
-9.1925144 1.205843 1.4971331
-9.1920042 1.1995851 1.4966462
-9.1889458 1.1832857 1.4920322
-9.2014532 1.1771631 1.4975437
-9.1929226 1.1523308 1.4803349
-9.1904001 1.1469371 1.4978751
-9.1951036 1.1283443 1.493724
-9.2035141 1.1196018 1.4903187
-9.1957941 1.1066394 1.4947581
-9.1983538 1.1038296 1.4818265
-8.9983625 1.0536937 1.5180273
-9.0026445 1.048848 1.5284725
-9.0073957 1.0287107 1.5154645
-9.0167427 1.0176967 1.5291822
-9.0205612 1.0168276 1.5309181
-9.0215702 1.0000755 1.5201133
-9.0250225 0.98019785 1.5235708
-9.0126076 0.97346961 1.5311431
-9.0235806 0.95600343 1.5186123
-9.0300961 0.93750089 1.5161334
-9.0295258 0.94445354 1.5192214
-9.0250788 0.92858088 1.5300559
-9.0301685 0.90939593 1.513347
-9.0282497 0.9022848 1.5182203
-9.0325947 0.89275903 1.5148224
-9.0351858 0.86360985 1.5272725
-9.0285645 0.85237741 1.5124468
-9.0384684 0.85491073 1.5234967
-9.040782 0.82780439 1.5296862
-9.0356083 0.81549799 1.5299807
-9.032897 0.80505985 1.5298371
-9.0270796 0.80034947 1.526432
-9.0304098 0.79181218 1.5164551
-9.0304317 0.76643991 1.5319816
-9.0455618 0.75795037 1.5305989
-9.0440731 0.74807954 1.5126851
-9.0301161 0.72602266 1.5161586
-9.0509682 0.71523726 1.514787
-9.0407515 0.70329553 1.5189321
-9.0443277 0.69766682 1.5233955
-9.0475922 0.67587215 1.5300472
-8.8541365 0.64666438 1.5569576
-8.8408947 0.64982331 1.5556188
-8.8576126 0.63402998 1.5615385
-8.8587856 0.62415773 1.5516011
-8.8613253 0.59680879 1.5644267
-8.8617611 0.5844332 1.5478307
-8.8587065 0.57220525 1.553086
-8.8570061 0.57117498 1.5590376
-8.8511429 0.54753178 1.5519999
-8.8607988 0.54157019 1.5558083
-8.8637867 0.53314662 1.5573863
-8.8521872 0.51885617 1.5544915
-8.8619099 0.50872183 1.5481733
-8.865696 0.49827012 1.5643537
-8.8594017 0.48611832 1.5455574
-8.8602638 0.47435266 1.5467585
-8.8577051 0.4664467 1.5481063
-8.869874 0.44102886 1.5607994
-8.8560743 0.44224426 1.5622257
-8.8692951 0.41455638 1.5500683
-8.8586893 0.40461683 1.5618659
-8.8664885 0.38699481 1.5517528
-8.8571653 0.38035142 1.5638862
-8.8741436 0.37060648 1.5579495
-8.8549232 0.36782262 1.5522437
-8.8744831 0.34482542 1.5471557
-8.8728237 0.32501897 1.5465463
-8.8697987 0.31365857 1.5529044
-8.8740644 0.31669584 1.552864
-8.8768854 0.2870931 1.5575228
-8.8718472 0.28865877 1.5646298
-8.8749943 0.26297086 1.5465033
-8.8682365 0.26713467 1.5541228
-8.8693285 0.25483194 1.5643874
-8.8763399 0.24224319 1.5642589
-8.8690395 0.230572 1.5535246
-8.8668098 0.20101966 1.5553761
-8.6678486 0.19078244 1.5906011
-8.6798296 0.18113187 1.5889153
-8.6718349 0.16906737 1.5900208
-8.6791639 0.16243143 1.5850863
-8.6793699 0.15302178 1.586859
-8.6776848 0.13072538 1.585191
-8.6683626 0.12767561 1.5836163
-8.6687593 0.097935788 1.5818492
-8.6692686 0.095800146 1.5808078
-8.6804943 0.076180756 1.5826114
-8.6698513 0.078468233 1.590727
-8.6763086 0.069020636 1.5813146
-8.6644344 0.047797631 1.5919604
-8.6714373 0.039457995 1.5880936
-8.6833582 0.031108772 1.5869405
-8.6734896 0.004623536 1.5956149
-8.6652718 0.0076217977 1.5933634
-8.6786118 -0.0096318116 1.5934962
-8.6737022 -0.027265778 1.5836178
-8.669817 -0.03601433 1.5862446
-8.6641111 -0.054026056 1.5832834
-8.6702728 -0.058417249 1.5829995
-8.6658306 -0.070873618 1.5936174
-8.6707249 -0.090289697 1.5880208
-8.6794691 -0.10159987 1.5861999
-8.6693497 -0.10303148 1.5900189
-8.6705389 -0.11625252 1.588961
-8.8713026 -0.14612614 1.5504333
-8.8745718 -0.14811809 1.558738
-8.8677025 -0.16628262 1.550419
-8.8781881 -0.17881609 1.556213
-8.8716183 -0.1776029 1.5497407
-8.8653154 -0.19205551 1.5629364
-9.0656824 -0.21646938 1.5164992
-9.074316 -0.22510393 1.5232173
-9.0647526 -0.24377812 1.5206279
-9.071353 -0.26381764 1.5169411
-9.0589933 -0.26747394 1.5187926
-9.0728025 -0.27461413 1.5310509
-9.2555466 -0.30171078 1.4852017
-9.2693253 -0.31322426 1.4915586
-9.2572918 -0.31843436 1.4915264
-9.2517128 -0.33762497 1.4894389
-9.2529192 -0.36017811 1.4802759
-9.4654112 -0.37966144 1.462809
-9.453948 -0.38222909 1.4516808
-9.445056 -0.39175785 1.4531841
-9.4598331 -0.40930539 1.4637016
-9.4527397 -0.42105812 1.4597489
-9.6505156 -0.44805893 1.4156218
-9.6446218 -0.46020687 1.4252666
-9.6523514 -0.48078015 1.4226451
-9.6400957 -0.49625117 1.4337758
-9.6499081 -0.49342409 1.4152957
-9.8459406 -0.51711839 1.3859035
-9.8499889 -0.53944391 1.3995011
-9.8451452 -0.55343843 1.3967854
-9.8387804 -0.56278878 1.3897367
-10.038891 -0.59746748 1.3518076
-10.045906 -0.60184306 1.3617796
-10.044686 -0.62097234 1.353091
-10.033803 -0.62849838 1.3573154
-10.025521 -0.64445341 1.3595543
-10.223015 -0.68412405 1.3257633
-10.222025 -0.69054991 1.3248265
-10.238066 -0.70178062 1.3353217
-10.22049 -0.72894442 1.3255789
-10.422458 -0.74483675 1.2878999
-10.414585 -0.77061737 1.2934619
-10.41228 -0.78426278 1.2886765
-10.419983 -0.7975589 1.2987888
-10.61312 -0.81625861 1.2630596
-10.605225 -0.83246237 1.2577411
-10.615069 -0.85016263 1.2599744
-10.606343 -0.86783946 1.2700787
-10.81521 -0.89904034 1.2309064
-10.796862 -0.917449 1.2312057
-10.808234 -0.92200309 1.2242041
-10.804923 -0.93975127 1.225988
-10.992611 -0.973876 1.1963496
-10.988457 -0.9994902 1.2003195
-10.994168 -1.0026027 1.1955491
-11.003247 -1.018989 1.1894095
-11.194102 -1.0651027 1.1680611
-11.186197 -1.0652828 1.1762086
-11.188165 -1.0788842 1.1644813
14.787817 -4.9679809 0.45237139
14.781428 -4.9462304 0.46479139
14.788873 -4.9402966 0.44515359
14.620013 -4.8456144 0.49331281
14.626452 -4.8370042 0.49116293
14.621137 -4.8187041 0.48811707
14.640759 -4.7904148 0.49150437
14.635864 -4.7791376 0.48331615
14.643806 -4.7430892 0.49110577
14.663148 -4.7195663 0.47764122
14.663649 -4.7045994 0.49580276
14.677561 -4.6829586 0.49508277
14.683865 -4.6607833 0.47965518
14.690501 -4.6470809 0.49592716
14.692928 -4.6337042 0.48041022
14.693176 -4.61238 0.48278487
14.71035 -4.5781426 0.49303097
14.710882 -4.5554786 0.49412674
14.723197 -4.5515246 0.49083436
14.723273 -4.5148506 0.49061897
14.729856 -4.5042706 0.48491564
14.734572 -4.4863434 0.48038906
14.73854 -4.4686499 0.47756413
14.74705 -4.4508271 0.48795891
14.751804 -4.4170585 0.49123883
14.761013 -4.4094925 0.49534205
14.772568 -4.3711758 0.49317309
14.77434 -4.3587208 0.49314949
14.777178 -4.3403163 0.49655223
14.776695 -4.3281722 0.49609277
14.795969 -4.2957535 0.48566821
14.78951 -4.2848983 0.49261653
14.60886 -4.2016263 0.52903694
14.614916 -4.191031 0.51036686
14.631338 -4.1618752 0.52488565
14.631011 -4.1496758 0.52638143
14.63476 -4.1120582 0.52559638
14.636311 -4.0987763 0.51666009
14.637809 -4.0887346 0.52551383
14.642682 -4.0652256 0.52588862
14.667068 -4.0484643 0.51805079
14.660999 -4.0241542 0.5204283
14.66185 -3.9968224 0.51072907
14.666753 -3.9692934 0.51123351
14.672956 -3.9511721 0.52049392
14.693649 -3.9391794 0.52154571
14.69581 -3.9092119 0.51979893
14.697157 -3.9034381 0.51090974
14.709539 -3.8818824 0.51163
14.710747 -3.8611414 0.51541919
14.7123 -3.8416753 0.51552159
14.725986 -3.8139079 0.5194779
14.722023 -3.7908916 0.51030242
14.728331 -3.7685471 0.52818447
14.735114 -3.7455444 0.52370811
14.73113 -3.727365 0.51073736
