# .PCD v0.7 - Point Cloud Data file format
VERSION 0.7
FIELDS x y z
SIZE 4 4 4
TYPE F F F
COUNT 1 1 1
WIDTH 1516
HEIGHT 1
VIEWPOINT 0 0 0 1 0 0 0
POINTS 1516
DATA ascii
4.2152753 -4.7113914 0.52398169
4.2367363 -4.7000661 0.53202951
4.2289515 -4.6961832 0.52644986
4.24541 -4.6847205 0.51875973
4.2597461 -4.6841187 0.51524991
4.2665582 -4.6762695 0.52806127
4.2699838 -4.6825366 0.53108537
4.2677374 -4.6603799 0.52365136
4.2830133 -4.6706643 0.51681894
4.2744231 -4.6589737 0.51858222
4.2869959 -4.652185 0.52895778
4.3040996 -4.6505146 0.5247699
4.3092427 -4.6432004 0.51856691
4.3087978 -4.6259904 0.51791954
4.3206544 -4.6209989 0.53195733
4.3289928 -4.6157422 0.5279184
4.3301339 -4.6135979 0.53167796
4.334291 -4.6202302 0.53165013
4.2236004 -4.4623914 0.58852082
4.2132845 -4.4555502 0.59798408
4.2247243 -4.4626422 0.58826476
4.226531 -4.4591274 0.59423536
4.2441416 -4.4369578 0.60153115
4.2355409 -4.4417138 0.60003841
4.2462845 -4.4410849 0.59752935
4.2510581 -4.418581 0.59426069
4.2717838 -4.421391 0.58711082
4.2762613 -4.4064908 0.58729404
4.2807026 -4.4013143 0.60355562
4.2888703 -4.4126935 0.60078347
4.2864933 -4.3988662 0.6050362
4.2943883 -4.3894558 0.58691168
4.3082457 -4.3886509 0.60505575
4.3093905 -4.3826537 0.59253466
4.3090339 -4.3721128 0.59472442
4.32616 -4.3629889 0.59349114
4.3200092 -4.3593225 0.60351247
4.3267002 -4.3573532 0.60249013
4.3335657 -4.3571086 0.60069168
4.2053552 -4.2029309 0.67468822
4.2255092 -4.2093873 0.66340673
4.229908 -4.1940899 0.67555702
4.2361736 -4.1910682 0.6625253
4.2405758 -4.193027 0.66949481
4.2324481 -4.1814585 0.66100144
4.2465019 -4.1788721 0.67561877
4.2593145 -4.1685362 0.66788149
4.2621398 -4.1576009 0.67608392
4.2639346 -4.1658831 0.67849249
4.2639227 -4.1571207 0.67710853
4.2847633 -4.1540861 0.6633966
4.2743139 -4.1325269 0.67910206
4.2960067 -4.1305676 0.6719408
4.2846594 -4.1300635 0.67692441
4.3002729 -4.1235366 0.66757184
4.307385 -4.1087961 0.6748929
4.3091063 -4.1070762 0.6666289
4.3230815 -4.1083555 0.66337115
4.3252511 -4.0936561 0.66589415
4.3298206 -4.0847759 0.67123413
4.3329978 -4.0808554 0.67365509
4.3424544 -4.073175 0.67167377
4.212111 -3.9419465 0.73881805
4.2099171 -3.9356678 0.74735278
4.2126985 -3.9395418 0.73642886
4.226119 -3.9220619 0.73425126
4.2268524 -3.9286108 0.74779165
4.2393136 -3.9269259 0.73404306
4.2485089 -3.9088047 0.74897605
4.2402191 -3.9118383 0.74676287
4.2572608 -3.8974111 0.74243647
4.2567153 -3.899235 0.73974842
4.2741799 -3.8816044 0.73460042
4.265645 -3.8916807 0.74986249
4.2856364 -3.8844805 0.73537427
4.2746959 -3.8693557 0.75248194
4.281569 -3.8589859 0.73714906
4.3019743 -3.861635 0.73760182
4.2886229 -3.8605604 0.75026894
4.3101959 -3.8532395 0.73398763
4.3095474 -3.8343322 0.74621123
4.304564 -3.8414176 0.75068104
4.316884 -3.8364768 0.74684399
4.324048 -3.8255017 0.74698555
4.3264656 -3.8199573 0.74837494
4.3343863 -3.8107677 0.73892862
4.3394065 -3.8001101 0.73388433
4.3490853 -3.7944448 0.74021578
4.2191682 -3.6648829 0.81477451
4.2217789 -3.6619613 0.81752795
4.2280998 -3.6650605 0.81319076
4.2266364 -3.6585073 0.81576288
4.2296343 -3.6449895 0.81726271
4.2287874 -3.6496551 0.8237173
4.2480736 -3.6372421 0.80968839
4.2487411 -3.6222389 0.81881386
4.2599535 -3.6275375 0.81255394
4.2661138 -3.6084709 0.8259092
4.2585974 -3.6045866 0.82013172
4.2724953 -3.6032174 0.81140649
4.2691383 -3.6006444 0.81370538
4.281436 -3.5846443 0.81667387
4.2762976 -3.5907469 0.80726933
4.2926502 -3.5827897 0.80730116
4.2954497 -3.580631 0.81384087
4.3042116 -3.5628812 0.80947167
4.3020906 -3.5589869 0.81388456
4.3137016 -3.5539925 0.81143749
4.3186593 -3.5415661 0.80694139
4.317831 -3.5402853 0.81787401
4.328269 -3.5473962 0.82543206
4.3209977 -3.5272365 0.82303572
4.3366866 -3.5172336 0.80857497
4.3429623 -3.515888 0.81610286
4.3492613 -3.5167449 0.81981391
4.342092 -3.5138333 0.81529206
4.3505445 -3.4980278 0.80867487
4.2185116 -3.378721 0.8941915
4.2087502 -3.3764946 0.89299512
4.2144847 -3.3600569 0.88706923
4.2311435 -3.3581328 0.88801491
4.235352 -3.3484237 0.88309622
4.2371559 -3.3479607 0.88214916
4.2444911 -3.3461487 0.89650971
4.2393456 -3.3429561 0.88396829
4.2579031 -3.3318427 0.88828659
4.2519302 -3.3171778 0.88235158
4.2593322 -3.3145487 0.89279044
4.2591066 -3.3064024 0.87958556
4.2776766 -3.3172352 0.8969419
4.2703123 -3.2961142 0.8903392
4.283885 -3.2954812 0.88755596
4.272531 -3.2977331 0.87933934
4.2802215 -3.2773304 0.88703179
4.2822642 -3.2867451 0.89200777
4.2917576 -3.2822664 0.88218123
4.3055601 -3.2684159 0.88109708
4.3134198 -3.251811 0.89671308
4.3117099 -3.2600706 0.89453989
4.3167868 -3.2543914 0.89559221
4.3192115 -3.2406993 0.89181715
4.3150253 -3.2380483 0.88272011
4.3280473 -3.2313576 0.88541001
4.3328443 -3.2215738 0.88253498
4.345325 -3.2143364 0.88427109
4.3427734 -3.222187 0.88450545
4.3503871 -3.2008076 0.8926034
4.3569083 -3.1961327 0.89131296
4.3590364 -3.1977236 0.8957631
4.3589835 -3.1787853 0.87988633
4.2098551 -3.0718915 0.96482521
4.2269087 -3.0639944 0.95326042
4.2148571 -3.0675981 0.96236145
4.2254872 -3.0509191 0.95521486
4.2332339 -3.0462646 0.96926785
4.2427082 -3.0486591 0.96942616
4.2324095 -3.0279291 0.96491379
4.2501998 -3.0251586 0.95901978
4.2466917 -3.0247316 0.96547198
4.2476254 -3.0288215 0.96479338
4.2526741 -3.0163755 0.95486343
4.2695174 -3.0111694 0.9669587
4.2547879 -3.0022998 0.9695726
4.2691507 -2.9870768 0.96298176
4.4286008 -3.0954902 0.88201976
4.4300032 -3.091362 0.8859033
4.4315553 -3.0817847 0.88461524
4.4285865 -3.0786605 0.88019013
4.4397144 -3.0632801 0.8902784
4.4372864 -3.071193 0.89035749
4.4541712 -3.0582762 0.89695698
4.4611173 -3.0527265 0.88283151
4.4601502 -3.0461087 0.89163858
4.4617882 -3.0493221 0.88972569
4.4768267 -3.0295129 0.88056517
4.4640298 -3.0326283 0.88936561
4.4751081 -3.0185099 0.88156992
4.48489 -3.0116701 0.89071888
4.4902377 -3.018003 0.88906294
4.4856648 -3.0110564 0.89330256
4.5011625 -2.991509 0.88426149
4.5032511 -2.9892905 0.89456666
4.6660905 -3.095561 0.81214434
4.6629872 -3.0809798 0.81342918
4.6579618 -3.0756092 0.80830193
4.6637664 -3.0672753 0.81383204
4.6783628 -3.0520947 0.8072474
4.6851544 -3.0513554 0.82126337
4.6810861 -3.0494826 0.82270145
4.6953521 -3.0363882 0.82483524
4.6938491 -3.0319927 0.82025975
4.7032957 -3.0296967 0.8116402
4.7030382 -3.0236261 0.81373686
4.7134852 -3.0249734 0.82392401
4.7052083 -3.0156517 0.81298506
4.7117944 -3.0048215 0.82387733
4.7239017 -3.0036826 0.82344145
4.8864288 -3.0800192 0.74409443
4.8860884 -3.0844855 0.7332353
4.887177 -3.0789452 0.74894416
4.8903894 -3.079159 0.74251592
4.8890166 -3.054168 0.751845
4.8990154 -3.0536666 0.74070036
4.9111009 -3.0469418 0.74165803
4.9133639 -3.0327086 0.74538106
4.9046788 -3.0360944 0.73337215
4.9068761 -3.031569 0.73593432
4.928628 -3.025717 0.7355749
4.924159 -3.0245225 0.74395031
4.9288216 -3.0065475 0.75106084
4.929183 -3.0096581 0.7511465
4.9431071 -2.99843 0.74940622
5.1054239 -3.0781615 0.66820836
5.0976477 -3.0731759 0.66004199
5.1108193 -3.0701871 0.67927378
5.1077042 -3.0601342 0.66827887
5.1125703 -3.0521245 0.67496252
5.119988 -3.0465944 0.66064531
5.127037 -3.0497549 0.66066378
5.1224508 -3.032465 0.67179269
5.1249657 -3.0190163 0.67294049
5.1475558 -3.0158365 0.67844009
5.148396 -3.0135968 0.67400491
5.1411643 -3.0034418 0.66744506
5.1457558 -3.0044141 0.67675763
5.149569 -2.9927905 0.66900098
5.3233104 -3.074131 0.58898973
5.3229227 -3.0785463 0.6005103
5.3282075 -3.0601718 0.60173011
5.3335009 -3.050632 0.59309363
5.3299122 -3.0428164 0.59075391
5.3474612 -3.0366395 0.60443592
5.3504992 -3.0338414 0.59319359
5.349092 -3.0224841 0.60493636
5.3611145 -3.0107343 0.58853126
5.3624387 -3.0193598 0.59656829
5.3559961 -2.999356 0.58962858
5.3626676 -3.004039 0.59085548
5.5433269 -3.0785682 0.52989703
5.5428443 -3.0610139 0.52418417
5.5337148 -3.0713162 0.5188508
5.5422349 -3.0483272 0.53225255
5.544426 -3.0465474 0.52100456
5.5553637 -3.0304122 0.51365989
5.5580339 -3.0264809 0.53060538
5.5642877 -3.0254414 0.53145951
5.558568 -3.0150504 0.5248459
5.5658975 -3.002183 0.52607191
5.5744433 -2.9953189 0.51612747
5.5751557 -2.9932384 0.51602119
5.7541208 -3.0726848 0.44475475
5.7438879 -3.0595548 0.44188496
5.7670455 -3.0485027 0.4530609
5.758944 -3.0507703 0.45263225
5.7634864 -3.0346148 0.44838884
5.7649632 -3.036442 0.45743304
5.767283 -3.0282142 0.4491106
5.7829781 -3.0168715 0.4458918
5.7798877 -3.0011868 0.44176742
5.7868414 -3.0089829 0.45194814
5.7936778 -2.9859726 0.44300815
5.9676828 -3.0630679 0.38604608
5.9736156 -3.055479 0.38524997
5.9707127 -3.0602634 0.37415811
5.9673696 -3.0447657 0.37118742
5.9797711 -3.0320401 0.37834966
5.9812055 -3.0212331 0.38569361
5.9943056 -3.0189579 0.37632838
5.9841757 -3.0039885 0.37458995
5.9899092 -3.0062695 0.37699172
6.0058122 -2.9859071 0.37433413
6.1792521 -3.0642939 0.2989485
6.1824818 -3.0575433 0.2959753
6.1849027 -3.0579736 0.29989958
6.1762199 -3.0460138 0.31099755
6.1845546 -3.0459073 0.30649081
6.2000394 -3.0286095 0.30445525
6.2028556 -3.0224431 0.29635298
6.1962953 -3.010627 0.29487225
6.207984 -2.9972854 0.30275682
6.2020626 -2.9922378 0.30264413
6.3811069 -3.0653534 0.22590531
6.3903666 -3.0583658 0.24044894
6.3966403 -3.0532343 0.22595221
6.3868265 -3.0410511 0.23479949
6.3880978 -3.0247865 0.23513168
6.40485 -3.0172787 0.22413392
6.3995547 -3.0111833 0.23066892
6.4061441 -2.9958658 0.2403805
6.4112406 -2.9930649 0.23478816
6.5928478 -3.0591948 0.15245637
6.5858011 -3.0590448 0.16241689
6.5951381 -3.0539169 0.15046786
6.5990062 -3.0267842 0.15474713
6.6083646 -3.0337222 0.16230065
6.6065574 -3.023633 0.15720367
6.6050696 -3.0010235 0.15069371
6.6125712 -3.0079293 0.1613522
6.626595 -2.9924529 0.15839539
4.2093687 -4.9865236 0.48807156
4.2253079 -4.9830332 0.50262713
4.2319775 -4.9757581 0.49088281
4.2430263 -4.9689159 0.5006038
4.2476783 -4.9713683 0.50478023
4.2505298 -4.9569359 0.50158566
4.2662282 -4.9456573 0.49470848
4.257895 -4.9406104 0.49032673
4.2635331 -4.9522629 0.49936467
4.2715368 -4.9409833 0.50184137
4.2843618 -4.9316316 0.49524102
4.2913966 -4.9333076 0.5062536
4.2929783 -4.9152732 0.49865404
4.3028073 -4.9131413 0.49200016
4.3223491 -4.9132991 0.49698719
4.3260589 -4.8975406 0.49049065
4.3265657 -4.8930097 0.48934668
4.3401871 -4.8837295 0.50731373
4.2256951 -4.7359309 0.57945657
4.2237606 -4.7269931 0.56515056
4.2242947 -4.7321229 0.57423204
4.2382202 -4.717103 0.57566309
4.2431498 -4.7273784 0.56914455
4.2404718 -4.7146926 0.57876492
4.2511315 -4.7093248 0.56222415
4.2667699 -4.707099 0.57542944
4.2759037 -4.6912088 0.5671435
4.283885 -4.6885328 0.56210572
4.2898254 -4.6834517 0.57903546
4.2961268 -4.6869283 0.57902515
4.2881136 -4.6764851 0.56799769
4.3091736 -4.6587234 0.5660935
4.3116565 -4.6626296 0.5680086
4.3076119 -4.6558042 0.57669461
4.31318 -4.6449003 0.56482416
4.3221984 -4.6449313 0.56924653
4.3444142 -4.6423941 0.56361604
4.210948 -4.5019727 0.64648354
4.2196326 -4.478797 0.63669783
4.2252383 -4.4758606 0.63746578
4.2308259 -4.4674692 0.64269763
4.2453775 -4.4645419 0.63970333
4.2380171 -4.4656467 0.64680523
4.2525635 -4.4573035 0.63472629
4.2557874 -4.4498906 0.6475355
4.2671323 -4.4399495 0.63428891
4.2628918 -4.4342752 0.63754606
4.2730122 -4.4411526 0.63872254
4.2742186 -4.4256206 0.63720095
4.2856307 -4.4307489 0.63273329
4.2978024 -4.4165483 0.6507656
4.295198 -4.4140453 0.64582545
4.3095908 -4.4051452 0.63387132
4.3110771 -4.4079323 0.64434332
4.3204756 -4.3937206 0.63630176
4.3226752 -4.3943806 0.63226622
4.3316202 -4.3854899 0.64796174
4.3438134 -4.3726797 0.65082717
4.205842 -4.2321892 0.71503717
4.2174883 -4.2393193 0.71637583
4.224659 -4.2204537 0.70593721
4.2298532 -4.2103601 0.71201438
4.2300997 -4.2120328 0.72099644
4.2383833 -4.19837 0.72118741
4.2571311 -4.2014503 0.70957726
4.2478285 -4.1884656 0.71128577
4.2544827 -4.1926608 0.71585482
4.2568235 -4.1907802 0.707196
4.262022 -4.1816468 0.72031486
4.2796488 -4.1667824 0.72043133
4.2786055 -4.1706538 0.71353328
4.2871156 -4.15523 0.71084046
4.3016944 -4.1454506 0.72057825
4.3052468 -4.1532693 0.7180739
4.3089819 -4.1482148 0.70657575
4.3210983 -4.1383286 0.72214139
4.3149152 -4.1276455 0.70758182
4.3332925 -4.1204705 0.70896518
4.3230028 -4.1139388 0.71353602
4.3258233 -4.1156125 0.70701754
4.348752 -4.1041541 0.71066487
4.209249 -3.961621 0.77553922
4.2223911 -3.9588869 0.79244119
4.2252622 -3.9583998 0.77553761
4.2256207 -3.959969 0.77769393
4.2344732 -3.9552045 0.7837339
4.238883 -3.9423978 0.79444587
4.2487249 -3.9369798 0.78631359
4.2599421 -3.9276097 0.7786864
4.255722 -3.9211681 0.78335005
4.2649746 -3.9175391 0.7934292
4.2578669 -3.9036202 0.79160959
4.2638512 -3.9021049 0.78665429
4.2867293 -3.9032547 0.7763086
4.292696 -3.8895745 0.77850842
4.2808104 -3.8925622 0.77957982
4.2949562 -3.8766522 0.78755718
4.2998056 -3.8764043 0.77504414
4.296515 -3.8704348 0.78598517
4.3055882 -3.8541729 0.77744389
4.3193169 -3.8541374 0.78660029
4.3231163 -3.8466809 0.78373635
4.3250875 -3.8387022 0.77644116
4.3220954 -3.8332996 0.78204161
4.3287492 -3.8273768 0.77536041
4.337594 -3.8187771 0.77972186
4.3475018 -3.8214607 0.79401606
4.2052836 -3.6813383 0.85434699
4.2104669 -3.6934927 0.8628816
4.226583 -3.6819782 0.86167806
4.2341495 -3.6821313 0.8545025
4.230864 -3.6638725 0.84876859
4.2447066 -3.6690218 0.86499071
4.251246 -3.6625345 0.86058533
4.2433772 -3.6547558 0.85606545
4.2488189 -3.6434867 0.85410017
4.2586141 -3.647655 0.86339879
4.2626948 -3.6392839 0.86338234
4.2753248 -3.6308863 0.86533988
4.2764812 -3.6115212 0.85293293
4.2764258 -3.6097298 0.85448688
4.2891865 -3.6163557 0.8484062
4.296205 -3.5942631 0.8512758
4.2994375 -3.5907469 0.85472518
4.2982559 -3.6002066 0.86003828
4.3125463 -3.5893238 0.85069877
4.304863 -3.5737369 0.85126173
4.3064699 -3.5791516 0.85425967
4.328052 -3.5570107 0.859712
4.331583 -3.558779 0.85857916
4.3226986 -3.5456605 0.85328037
4.3353601 -3.5448308 0.85539109
4.3419323 -3.5420237 0.85362309
4.3513656 -3.5410168 0.84939265
4.3442402 -3.526216 0.84971678
4.3624191 -3.522141 0.85493112
4.2062759 -3.3931515 0.92150611
4.215497 -3.3853624 0.92488641
4.2277083 -3.3809826 0.92439419
4.2253637 -3.3780544 0.93611294
4.241878 -3.3689847 0.93492258
4.2330852 -3.3722196 0.92852753
4.2463946 -3.3738399 0.91889828
4.2379279 -3.3509758 0.92422736
4.2452226 -3.3601782 0.9383021
4.2528334 -3.3561337 0.93038976
4.2656498 -3.3481822 0.92779243
4.2732596 -3.3357604 0.92711067
4.2642417 -3.3358705 0.9249289
4.2747231 -3.3230603 0.91978866
4.2769151 -3.3184624 0.9378249
4.2779083 -3.3073759 0.92672628
4.2924981 -3.3076899 0.92810088
4.2974501 -3.3011725 0.92642647
4.307723 -3.2920539 0.92963004
4.3120623 -3.2800105 0.93095183
4.3084807 -3.2798276 0.93429255
4.3222938 -3.2767036 0.92411572
4.3154163 -3.2672584 0.92788303
4.3263488 -3.2719839 0.93850833
4.3321328 -3.2591617 0.9277727
4.3359447 -3.2499821 0.9221583
4.328649 -3.2508402 0.93025815
4.34272 -3.231365 0.91889727
4.3351083 -3.2262278 0.93067014
4.3506913 -3.2213535 0.92849541
4.3475876 -3.2246547 0.92050606
4.3678164 -3.2187288 0.92963678
4.2077775 -3.0932446 0.99397582
4.2214251 -3.0926192 0.99579912
4.2256894 -3.0907705 1.0044215
4.2192101 -3.0896626 0.99619395
4.227108 -3.0803936 1.0010725
4.2430978 -3.0615895 0.99938405
4.2477183 -3.0549242 0.99678433
4.2441034 -3.0571945 0.99300396
4.2383056 -3.0470784 0.99986112
4.2445102 -3.0412354 1.0065768
4.2598372 -3.0298421 1.0016901
4.2677217 -3.0291314 0.99155849
4.257421 -3.0284779 0.99739903
4.2757344 -3.0186174 0.99846518
4.2658119 -3.0251641 1.0029117
4.2807598 -3.0000184 1.0002679
4.2740111 -2.9945409 0.99838865
4.2846541 -2.996959 1.0083327
4.2915087 -2.9894474 1.0024804
4.4381862 -3.086988 0.92477924
4.4587455 -3.086251 0.92432028
4.4544101 -3.0818772 0.91864175
4.4599342 -3.0720432 0.92768037
4.4712901 -3.0681264 0.92063737
4.4637036 -3.0583546 0.92109954
4.4805551 -3.0578494 0.92075348
4.4747534 -3.0482988 0.91992503
4.4870644 -3.0523031 0.9307127
4.4893107 -3.0336423 0.92304045
4.4856958 -3.0254591 0.91884279
4.4961443 -3.0210383 0.92918497
4.5061255 -3.0252664 0.93769801
4.5104189 -3.0082748 0.92983603
4.5037427 -3.0042233 0.91967565
4.5100141 -2.9920456 0.93306583
4.5167394 -2.9872954 0.92073429
4.6785803 -3.0959485 0.85994679
4.6842575 -3.0930028 0.86068952
4.6807132 -3.0720632 0.85384816
4.6894875 -3.0789821 0.84893888
4.6940551 -3.0596871 0.86219364
4.6889558 -3.0546377 0.86495763
4.6923604 -3.0495119 0.85844445
4.7078938 -3.0352714 0.8497082
4.7132578 -3.038959 0.84686917
4.7120028 -3.0401125 0.86249411
4.7184072 -3.0190783 0.86650586
4.7157879 -3.0166845 0.84694821
4.7339025 -3.0021439 0.86180896
4.7251668 -3.0031283 0.86322361
4.7315121 -3.0038354 0.85739982
4.7311029 -2.9939234 0.85008639
4.8911886 -3.0847125 0.78958011
4.9071517 -3.0841773 0.78853667
4.9143682 -3.0625322 0.77724856
4.9187365 -3.0663865 0.77824378
4.9187202 -3.0480721 0.79370433
4.9227061 -3.0566032 0.78498363
4.9271245 -3.0512369 0.7842229
4.9263945 -3.0388145 0.77589107
4.9270692 -3.0242455 0.78025943
4.9419107 -3.0142748 0.7879414
4.949429 -3.026139 0.77806348
4.948205 -3.0063508 0.78189021
4.9459281 -3.0036466 0.78052562
4.952353 -3.0008657 0.78846419
5.1194248 -3.079114 0.71609521
5.1224213 -3.0806944 0.72011423
5.1366873 -3.0621188 0.72263914
5.1301823 -3.0685263 0.71072006
5.1353354 -3.0585022 0.70649773
5.1448474 -3.0578706 0.70536762
5.1420307 -3.0339448 0.70548928
5.1493263 -3.0354576 0.71850908
5.160439 -3.0234525 0.70733708
5.1501765 -3.0292175 0.71204436
5.1678429 -3.0117576 0.70832682
5.1649036 -3.0156121 0.71589231
5.1659737 -2.9895022 0.7148909
5.169558 -2.9941878 0.72033334
5.3427348 -3.0715935 0.63687187
5.3502879 -3.0699408 0.63865489
5.3567009 -3.0553658 0.63719726
5.3432255 -3.0577457 0.64705443
5.3627591 -3.0532544 0.64173836
5.3711104 -3.043256 0.64347285
5.3641582 -3.0398123 0.63547707
5.3734784 -3.0235188 0.63643056
5.3703532 -3.0103564 0.63629222
5.3862166 -3.0178003 0.64426017
5.3875117 -2.9977696 0.64120084
5.3771086 -2.9944866 0.63234884
5.5515442 -3.0799541 0.57884753
5.5615721 -3.0720775 0.56728244
5.5614462 -3.0689371 0.57274556
5.5759935 -3.0617046 0.56073791
5.5722647 -3.0456734 0.56469893
5.5805287 -3.0445607 0.57747257
5.5897355 -3.0308011 0.5759216
5.5787935 -3.0253959 0.57943398
5.595808 -3.0229027 0.57547837
5.5897527 -3.0150096 0.56730115
5.5948348 -2.999934 0.57701862
5.5981774 -2.9991329 0.56686884
5.7745109 -3.0708773 0.50033605
5.7718525 -3.063998 0.50505292
5.7771759 -3.0651176 0.49803904
5.786449 -3.0422318 0.50436991
5.7884841 -3.0343878 0.49668652
5.7889571 -3.0417233 0.50662851
5.7929311 -3.0162706 0.49127781
5.7929387 -3.0210893 0.49602848
5.8047576 -3.0050311 0.48805737
5.8062825 -3.0098238 0.49308389
5.817646 -2.9870329 0.50668448
5.9801397 -3.0767853 0.4273462
5.9815578 -3.0596766 0.43061075
5.9959502 -3.0575676 0.4287039
5.9966621 -3.0376844 0.42657831
5.9896789 -3.0415783 0.42904824
6.0126257 -3.0257366 0.42889592
6.0002103 -3.0141153 0.4358443
6.0125341 -3.0148916 0.43076429
6.0168748 -2.9983478 0.43279892
6.0262303 -2.9946339 0.42952603
6.1962538 -3.0617747 0.36221331
6.1917377 -3.0682888 0.35544091
6.2104745 -3.0446892 0.36242986
6.2072921 -3.0446448 0.36094812
6.2019715 -3.0358391 0.34721282
6.2191095 -3.0283301 0.36095339
6.2160826 -3.0174682 0.35794359
6.2199922 -3.0185034 0.3457801
6.2188096 -2.9994063 0.36177701
6.2396498 -2.9951506 0.3530986
6.4054298 -3.0730605 0.28037643
6.4075465 -3.0586164 0.28427911
6.4028778 -3.0497131 0.28314111
6.4251857 -3.0482578 0.2734012
6.4259992 -3.0363762 0.28381479
6.4330654 -3.0115979 0.27307922
6.4338593 -3.0140755 0.28454119
6.4316311 -2.9968607 0.28629807
6.4372268 -2.9850335 0.27847609
6.6080356 -3.0553639 0.21445459
6.6210346 -3.0532792 0.21653375
6.6130719 -3.0533595 0.20412864
6.6289988 -3.0423772 0.21169226
6.623775 -3.0333436 0.21177079
6.6287985 -3.0077403 0.2147848
6.6442223 -2.9993026 0.21362481
6.6488981 -2.9942899 0.20102897
6.8151212 -3.0726216 0.14491048
6.813097 -3.0524046 0.14342268
6.8232374 -3.0547888 0.14143333
6.8211169 -3.0284531 0.13231075
6.8210616 -3.0343459 0.13388389
6.8285885 -3.0285645 0.13720934
6.8436651 -3.0122471 0.14033262
6.8388076 -2.9951334 0.13981749
6.8569503 -2.9868102 0.13849244
4.2443004 -4.9920406 0.55090481
4.2582459 -4.9716201 0.55306572
4.2688308 -4.9785357 0.55015308
4.274581 -4.9585347 0.5368492
4.2690887 -4.9636598 0.54342258
4.2839785 -4.9576602 0.54600966
4.2815223 -4.9536853 0.553644
4.2965541 -4.9501643 0.54516149
4.3105702 -4.9442406 0.54016131
4.3143086 -4.9337196 0.53587455
4.3276296 -4.9220605 0.53996235
4.3296742 -4.923418 0.53854769
4.3338709 -4.921144 0.54428476
4.211472 -4.7595406 0.61448729
4.2192392 -4.7710643 0.62320566
4.233572 -4.7546272 0.6119616
4.2304835 -4.7475667 0.61872137
4.2350211 -4.7523875 0.62302065
4.2510681 -4.7300963 0.60725278
4.2621064 -4.7309618 0.6160056
4.2688498 -4.7253938 0.61040723
4.2596726 -4.7246604 0.617432
4.269073 -4.7066007 0.62070119
4.2842016 -4.7141271 0.61900985
4.2791171 -4.7005434 0.61991912
4.302743 -4.6992769 0.61138064
4.2951164 -4.6877398 0.624008
4.3142409 -4.678298 0.62591124
4.317657 -4.6794343 0.62419295
4.3252964 -4.6761489 0.61568701
4.3216801 -4.6727281 0.6068176
4.3324571 -4.6650844 0.61274105
4.2028913 -4.517437 0.68118167
4.2237539 -4.5186176 0.68572968
4.2229171 -4.5114579 0.67789298
4.2229815 -4.5072393 0.68534553
4.234499 -4.4972062 0.67834854
4.2386355 -4.4945984 0.6947974
4.2446671 -4.4751167 0.6841051
4.2489719 -4.4745297 0.69068438
4.2647629 -4.4640837 0.69466132
4.2716761 -4.4693775 0.68024975
4.2845044 -4.4633865 0.69024879
4.2753577 -4.4428411 0.69319475
4.290751 -4.4494328 0.67741925
4.2982988 -4.4422522 0.67997217
4.2932911 -4.4298382 0.68665946
4.3012781 -4.4195633 0.69004667
4.3057051 -4.4295244 0.68699884
4.3194318 -4.4214392 0.67861307
4.3197293 -4.4038143 0.69473916
4.3239956 -4.405519 0.67962873
4.3338418 -4.4006295 0.68455809
4.222352 -4.2577105 0.75447994
4.2249398 -4.259202 0.76143396
4.2317443 -4.2393546 0.74959075
4.2210932 -4.2507167 0.76417536
4.2371216 -4.2402844 0.76303995
4.2365284 -4.2316098 0.76594013
4.2528796 -4.215385 0.75091314
4.2608366 -4.2250299 0.74749029
4.2649112 -4.216568 0.75633347
4.2738676 -4.2044115 0.76402801
4.2677445 -4.1985607 0.7551927
4.2811279 -4.1960697 0.75899434
4.2814574 -4.1927142 0.7567631
4.2899351 -4.1859412 0.75728154
4.2929888 -4.1690636 0.76233536
4.294899 -4.1786938 0.75015903
4.2997012 -4.1578803 0.74829477
4.3094678 -4.1550083 0.75086403
4.3158031 -4.1539516 0.75596535
4.3309731 -4.1498213 0.74728549
4.3338294 -4.1376877 0.75851041
4.3278418 -4.1380358 0.76627195
4.3456478 -4.1239123 0.75142646
4.2056718 -3.9980431 0.82779044
4.2215676 -3.9842668 0.824646
4.2225094 -3.9744127 0.8258841
4.2312665 -3.9655809 0.82194084
4.2381511 -3.9727983 0.83486629
4.2475963 -3.9594877 0.82283676
4.242135 -3.9568059 0.8289181
4.2479854 -3.9570584 0.8211056
4.2650528 -3.9490807 0.82690895
4.2698731 -3.9490712 0.8207922
4.2598395 -3.9392607 0.82537597
4.2757549 -3.919131 0.81786549
4.268517 -3.9236286 0.83433068
4.2825093 -3.9249291 0.83374155
4.2925501 -3.9048977 0.82004118
4.2955074 -3.9009645 0.83374971
4.3064275 -3.8880284 0.82423061
4.3034201 -3.8947694 0.82854182
4.312592 -3.8899624 0.83490586
4.307559 -3.8858459 0.83534706
4.3164005 -3.8772655 0.81965846
4.3298178 -3.8582644 0.81815153
4.3357158 -3.8519869 0.82619148
4.3380709 -3.8571951 0.82696742
4.3398285 -3.8578322 0.82180393
4.347877 -3.8409727 0.83459508
4.2094865 -3.7145333 0.90474319
4.2215347 -3.7008543 0.89174944
4.2178855 -3.7034397 0.89756125
4.220592 -3.696486 0.9014805
4.243732 -3.6861103 0.88796353
4.2311749 -3.6877284 0.90742356
4.2371025 -3.6688511 0.90712929
4.2510619 -3.6730134 0.8955875
4.2457891 -3.6608043 0.89736193
4.2553444 -3.6659238 0.88994145
4.2576823 -3.6546638 0.89878577
4.2797532 -3.6565435 0.89543557
4.2688222 -3.6472511 0.90361929
4.2836943 -3.6404233 0.89286858
4.2824774 -3.6356184 0.90659839
4.2877355 -3.6285255 0.89280748
4.2924447 -3.620651 0.89198399
4.2968516 -3.6039553 0.90108138
4.3097086 -3.5976622 0.89646405
4.3043313 -3.6069355 0.90079576
4.3115253 -3.5989838 0.89044911
4.3275552 -3.5940664 0.89227742
4.3202267 -3.5851769 0.8974452
4.341073 -3.5665038 0.90348113
4.3311605 -3.5741274 0.88835496
4.3349695 -3.5615652 0.89434791
4.3449788 -3.5493567 0.90223426
4.3541565 -3.5577965 0.90082824
4.20754 -3.4198856 0.97012717
4.2210155 -3.4311333 0.97374344
4.2188144 -3.4202173 0.95930195
4.2262583 -3.4182932 0.96376157
4.2355223 -3.4087114 0.97108722
4.2299457 -3.4032881 0.97105581
4.2303967 -3.3927741 0.97736329
4.235714 -3.3834393 0.97018886
4.2470155 -3.389075 0.96917164
4.2461948 -3.3705044 0.97365648
4.2639604 -3.3786304 0.97144639
4.2606091 -3.3580701 0.97211891
4.2608657 -3.3644919 0.97783107
4.2666726 -3.3482428 0.95958412
4.2769308 -3.3474939 0.96502924
4.2745066 -3.3370776 0.97000128
4.2920423 -3.3309584 0.95958436
4.2958775 -3.3242619 0.97259253
4.2925296 -3.3309956 0.97404873
4.3081565 -3.3232727 0.96815246
4.3082595 -3.3024998 0.9682008
4.3061442 -3.3097847 0.96287322
4.3246927 -3.3015115 0.96518117
4.3289456 -3.2921214 0.97778916
4.3149428 -3.2771552 0.96519029
4.3263764 -3.2692869 0.97704524
4.3427744 -3.2685478 0.96905077
4.3287463 -3.268631 0.96177727
4.3477182 -3.2567103 0.96178836
4.3481379 -3.2538033 0.96353382
4.3426528 -3.255425 0.96005744
4.3572078 -3.2437856 0.96329468
4.2163939 -3.1262617 1.0392046
4.207756 -3.1212525 1.0480832
4.2117181 -3.1148448 1.0459074
4.223073 -3.1015935 1.0455728
4.2262745 -3.0965264 1.0399437
4.2414732 -3.0900605 1.0481917
4.2293901 -3.0891874 1.0423139
4.2373104 -3.0924516 1.0332905
4.2469673 -3.0857487 1.0365863
4.25314 -3.0690305 1.0454562
4.2625413 -3.067625 1.0338272
4.2574377 -3.0592239 1.0413388
4.2612038 -3.051219 1.0293837
4.2627859 -3.0562098 1.0447992
4.2640252 -3.0423408 1.0393952
4.2796273 -3.0376067 1.0345643
4.2834687 -3.0292811 1.0447074
4.281424 -3.0173528 1.0456816
4.2903481 -3.0200763 1.0474478
4.3025589 -3.0209284 1.040015
4.3036318 -2.9966712 1.0480649
4.293067 -3.0018024 1.0385872
4.3100057 -2.9874434 1.0311792
4.4685307 -3.1028464 0.96243256
4.4690619 -3.0939786 0.97201514
4.4641809 -3.0737603 0.960379
4.4744601 -3.0739427 0.97110969
4.474874 -3.0604041 0.96780407
4.476253 -3.0621679 0.97580421
4.4793897 -3.055938 0.97697598
4.4950848 -3.052845 0.97642243
4.4988213 -3.0445178 0.9647494
4.4930711 -3.0434444 0.96144116
4.4999042 -3.0415802 0.96380627
4.508389 -3.0235097 0.96881878
4.5064478 -3.014637 0.96782351
4.5128617 -3.0197928 0.96041334
4.5299973 -3.0088341 0.96030325
4.5238185 -3.000787 0.97218508
4.525631 -2.993885 0.9640463
4.6846542 -3.0989628 0.90233701
4.687212 -3.0809486 0.8930999
4.6980872 -3.0729401 0.89866787
4.7056451 -3.0823452 0.89982563
4.7155585 -3.0675032 0.89277375
4.7104759 -3.0588319 0.88830853
4.7243886 -3.0479672 0.89239544
4.7308822 -3.0441785 0.90114301
4.7172561 -3.0307713 0.89163405
4.7355027 -3.0397456 0.90271741
4.7256017 -3.0299296 0.9058094
4.7443891 -3.0218771 0.90037608
4.7339301 -3.0072606 0.89640588
4.7490301 -3.0093889 0.89647925
4.7452784 -3.0058966 0.90483701
4.7544656 -2.9917712 0.89530283
4.9174972 -3.0878985 0.81965673
4.9264269 -3.0816867 0.83163124
4.9240947 -3.0733573 0.83043158
4.9322438 -3.0710285 0.83367032
4.9314666 -3.0628388 0.82013184
4.9337721 -3.0600908 0.82804692
4.9506345 -3.0520213 0.82397336
4.9435172 -3.0330625 0.8311606
4.9564633 -3.0220563 0.83522344
4.9577579 -3.0260551 0.8267889
4.9695086 -3.0095239 0.83548898
4.9560103 -3.0083756 0.82354528
4.9744773 -3.0138631 0.8330695
4.971735 -2.9954948 0.81805503
4.9722219 -2.982188 0.82435656
5.1395359 -3.0874031 0.75611949
5.1545143 -3.0632439 0.75947356
5.1454096 -3.070457 0.75489509
5.1634817 -3.0489695 0.75442529
5.1656065 -3.0504234 0.76305342
5.159287 -3.044353 0.7613036
5.1616578 -3.0359974 0.75378686
5.1720743 -3.0333815 0.75386173
5.1720052 -3.0177057 0.76537788
5.1769114 -3.0057309 0.76326817
5.1881094 -3.0109954 0.76555765
5.1814671 -3.0055845 0.76483798
5.1981688 -2.9935718 0.74973053
5.3523836 -3.0813959 0.67852294
5.3641477 -3.0775156 0.68908221
5.3645291 -3.0642173 0.67851943
5.3631506 -3.0528016 0.68911409
5.3742447 -3.0552115 0.69512022
5.3854032 -3.0419235 0.689592
5.3880672 -3.0279517 0.68882257
5.3886113 -3.0269947 0.69556642
5.3914342 -3.0168824 0.68049318
5.393527 -3.0142605 0.69019902
5.4005017 -3.0037079 0.67846715
5.4066658 -3.0056942 0.68314391
5.5670261 -3.0824883 0.62323368
5.5732923 -3.0738175 0.61766255
5.5901423 -3.0583236 0.62219149
5.5929875 -3.0559323 0.61251259
5.5902934 -3.0551271 0.60930371
5.5868192 -3.038018 0.61954421
5.5900779 -3.0423152 0.61238337
5.5982528 -3.0287387 0.62032473
5.6161222 -3.0123956 0.61129332
5.6222491 -3.0140867 0.61274445
5.6130419 -3.0032527 0.62076128
5.6143203 -2.9904561 0.60967749
5.7951646 -3.0732453 0.53590256
5.7955017 -3.069098 0.54714262
5.806149 -3.0519156 0.55139816
5.7935762 -3.0424674 0.54496741
5.8112326 -3.0340099 0.54643786
5.8017168 -3.041616 0.55367744
5.8201313 -3.0355802 0.54944664
5.8295026 -3.0276341 0.55570549
5.8203139 -3.0131011 0.54497325
5.8191309 -3.0014844 0.53920645
5.8268528 -2.9983547 0.55095631
5.9976768 -3.0647795 0.46837294
6.0133677 -3.0590131 0.48529983
6.0133018 -3.0500927 0.48358944
6.006794 -3.0477777 0.4822453
6.0217447 -3.0392292 0.48519769
6.0239234 -3.0365057 0.46608272
6.0218596 -3.0286386 0.46680465
6.0260429 -3.0141768 0.47394451
6.0394821 -3.0051038 0.48458025
6.047143 -2.9925029 0.47021875
6.2142024 -3.0630054 0.39648858
6.221529 -3.0586107 0.41056103
6.225771 -3.0585601 0.40517691
6.2282901 -3.0492849 0.41372475
6.2294531 -3.0293143 0.40243214
6.2335563 -3.0314085 0.40546817
6.2385325 -3.019799 0.40797043
6.2442183 -3.0082266 0.39652765
6.2570324 -3.0074236 0.40574542
6.2604694 -2.9831567 0.39914548
6.4183397 -3.0645907 0.32647476
6.424181 -3.061837 0.33994165
6.4240818 -3.0391188 0.32478866
6.4385862 -3.0381465 0.33023468
6.4416261 -3.0202644 0.32696903
6.453361 -3.0225198 0.3329207
6.4481192 -3.0040281 0.34178782
6.4453669 -3.0040672 0.3335273
6.4511595 -2.9954972 0.33736387
6.6359673 -3.0664692 0.2663483
6.6444621 -3.053534 0.25650272
6.650681 -3.0390384 0.26045153
6.6503534 -3.0289102 0.25815329
6.65486 -3.028533 0.26785603
6.6447997 -3.0093596 0.26646382
6.6514606 -3.002682 0.27383295
6.6640606 -3.0054646 0.27070484
6.836194 -3.0720904 0.18813559
6.8494816 -3.059993 0.1955428
6.8465924 -3.0370786 0.20175815
6.8430815 -3.0299468 0.19165906
6.8497119 -3.0208611 0.18679997
6.8602777 -3.016355 0.20280772
6.8685317 -3.0115814 0.18992507
6.8664751 -3.0010941 0.18694262
7.0345411 -3.0631328 0.13095118
7.0385389 -3.0615585 0.13329914
7.0593953 -3.0427172 0.11661562
7.0480762 -3.0348697 0.12249409
7.0641503 -3.0341794 0.12174582
7.0664258 -3.0212545 0.11858218
7.0585885 -3.0059409 0.11495093
7.0658784 -3.0042896 0.12626675
4.2666245 -4.9878798 0.6028443
4.2730393 -4.9893961 0.58398706
4.285254 -4.974298 0.58528864
4.2921271 -4.9767694 0.58517134
4.3015876 -4.9655237 0.60233372
4.3075619 -4.9485631 0.59235418
4.3074021 -4.9469662 0.59569615
4.3269868 -4.9402857 0.58740711
4.3350177 -4.9390659 0.59237617
4.2118816 -4.7946382 0.66272527
4.2279921 -4.7863026 0.67268574
4.2338324 -4.7785172 0.65517128
4.2408066 -4.7654729 0.66678649
4.2490745 -4.7725034 0.66995203
4.2372169 -4.7570133 0.6583758
4.2625132 -4.7624798 0.65776265
4.257822 -4.7550292 0.65273917
4.2564645 -4.7549086 0.66837919
4.2668095 -4.7336626 0.65921277
4.282115 -4.738833 0.66718459
4.2787242 -4.7345848 0.65761894
4.2852855 -4.7311807 0.66995651
4.2943244 -4.707478 0.66944677
4.3149695 -4.7021747 0.6560055
4.3187723 -4.6953883 0.67214406
4.3109903 -4.6899567 0.65689611
4.322587 -4.6958594 0.66316986
4.3291512 -4.689754 0.66362637
4.2040262 -4.5420055 0.72841811
4.216855 -4.5436716 0.73304558
4.2176476 -4.5353384 0.73595524
4.2288661 -4.5270452 0.73629379
4.2324142 -4.5163069 0.73435074
4.2354441 -4.511508 0.73171729
4.2450247 -4.5094829 0.72986716
4.2507353 -4.5018077 0.72743666
4.2611899 -4.4890962 0.73308229
4.2779098 -4.4963713 0.73880279
4.2750778 -4.4879932 0.72830772
4.2879925 -4.4731283 0.73027569
4.2855258 -4.4638047 0.73469728
4.2859607 -4.4695883 0.74152344
4.306726 -4.4581413 0.73319072
4.3055396 -4.4499736 0.72375083
4.3217115 -4.4385266 0.73042107
4.3160248 -4.4476614 0.73884249
4.327899 -4.4326262 0.73404306
4.3254108 -4.4271474 0.73602706
4.3286343 -4.430768 0.74043912
4.2100449 -4.2736015 0.80279428
4.2245374 -4.2794685 0.79946816
4.223443 -4.2711439 0.80438209
4.229167 -4.2682896 0.7947579
4.2265501 -4.2528477 0.80730754
4.2344847 -4.2474523 0.80530179
4.2490816 -4.2539535 0.80814999
4.2520914 -4.2347813 0.80001342
4.2502937 -4.2442908 0.7913273
4.270472 -4.2367611 0.79298323
4.2750535 -4.2226877 0.79162735
4.2729449 -4.2201018 0.79853326
4.2875018 -4.2045827 0.80788434
4.2869644 -4.2093039 0.79420233
4.2967944 -4.2025981 0.8100661
4.2991657 -4.1939049 0.80542088
4.2995229 -4.1965547 0.80836195
4.3027201 -4.1821256 0.80455399
4.3177719 -4.1754174 0.80530733
4.3241296 -4.1744461 0.80765277
4.3321347 -4.154799 0.7981261
4.3387756 -4.1631589 0.80523109
4.3323135 -4.1428518 0.801893
4.2196455 -4.0191159 0.87690049
4.2086549 -4.0014601 0.86359793
4.2135196 -4.0072985 0.8730014
4.2337313 -3.998636 0.87376004
4.2368755 -3.992625 0.86294436
4.2362032 -3.977402 0.8728255
4.2362766 -3.981653 0.87765861
4.258687 -3.9837222 0.87611073
4.2515621 -3.9649653 0.86016709
4.2715344 -3.9584768 0.87848657
4.2681599 -3.9549053 0.8646422
4.2707477 -3.9479327 0.86258262
4.2800245 -3.9416957 0.86880624
4.2786965 -3.9408391 0.87780571
4.2981186 -3.9224219 0.86692178
4.2867169 -3.9302526 0.86535877
4.3051877 -3.9235771 0.87363487
4.3084836 -3.9200504 0.87392408
4.3102231 -3.9091992 0.86704457
4.3160105 -3.9039185 0.86072046
4.3201094 -3.8875463 0.87202692
4.3303552 -3.8941123 0.86435717
4.3385329 -3.8769193 0.87696809
4.3329258 -3.8865635 0.8644715
4.3363099 -3.8622863 0.86442006
4.3488016 -3.8749039 0.87055868
4.2195492 -3.7296922 0.9464227
4.2185631 -3.7316992 0.93078119
4.2178574 -3.7174344 0.93998843
4.2302647 -3.7228415 0.9484663
4.2363391 -3.7096014 0.94729859
4.2337117 -3.7115581 0.93353945
4.2434068 -3.6907713 0.93094051
4.2457042 -3.7010174 0.93265671
4.2554965 -3.6932969 0.93260175
4.2652292 -3.6784937 0.93387365
4.2610927 -3.6781712 0.92945153
4.2637744 -3.6640527 0.93714756
4.2708063 -3.6558497 0.93322605
4.2870369 -3.6604412 0.93800777
4.2917371 -3.6441512 0.93013287
4.2952614 -3.655674 0.93439716
4.3050184 -3.6426785 0.93353689
4.3121681 -3.6325543 0.93651199
4.3010254 -3.6377981 0.9412818
4.3098192 -3.6184609 0.93492168
4.3198767 -3.6084044 0.94294405
4.3255038 -3.6008017 0.9391374
4.3188186 -3.6112945 0.93757939
4.3282032 -3.5906751 0.94546825
4.342361 -3.5904663 0.94367796
4.3486357 -3.5918353 0.94438905
4.3391662 -3.5885415 0.9321124
4.3488278 -3.5831838 0.94396967
4.2165117 -3.4547775 1.0136231
4.2137351 -3.442117 1.0075721
4.2245903 -3.4444597 1.005566
4.2234592 -3.4262276 1.005144
4.2385139 -3.4197249 1.0082036
4.2320018 -3.4288731 1.0058497
4.2333703 -3.4088905 1.0176651
4.2529407 -3.4076519 1.0020647
4.2532134 -3.400893 1.0037043
4.2612014 -3.3894744 1.0046409
4.2610388 -3.3904204 1.0086476
4.2614837 -3.3789618 0.99944264
4.2758694 -3.3814585 1.0020159
4.2682405 -3.3698881 1.0169357
4.2801814 -3.3680573 1.0124656
4.2751737 -3.3575239 1.0129483
4.2878041 -3.3503993 1.0075078
4.2922411 -3.348474 1.0173935
4.3010693 -3.3510365 1.0081189
4.3115287 -3.3303638 1.0043372
4.3029165 -3.3345985 1.013677
4.3183026 -3.3231244 1.0085363
4.3244753 -3.3219924 1.0149535
4.3132129 -3.3132086 1.0069888
4.3368621 -3.2971952 1.0148962
4.3360324 -3.2908926 1.0073713
4.3356771 -3.2966545 1.0009991
4.3498731 -3.2826657 1.0105736
4.3539457 -3.2845266 1.0116004
4.3487358 -3.2805977 1.0073084
4.3597355 -3.2699423 1.0127834
4.3600669 -3.2685535 1.0037282
4.205122 -3.152961 1.0788307
4.2265553 -3.1461523 1.0676622
4.220016 -3.1403227 1.0864829
4.2213759 -3.1199419 1.0855757
4.2352028 -3.1245279 1.0728694
4.2426491 -3.1195207 1.0681086
4.2396617 -3.1150348 1.0754368
4.2376928 -3.1003447 1.0806378
4.2514234 -3.0992322 1.0704315
4.2506213 -3.0823574 1.0755447
4.2607551 -3.0948613 1.0774993
4.2569461 -3.0703263 1.0803905
4.2619605 -3.0767174 1.0832329
4.2657876 -3.0661271 1.0805717
4.2686987 -3.0660801 1.067434
4.2788954 -3.0629489 1.0734068
4.2843227 -3.0471592 1.0779629
4.29707 -3.037684 1.0713001
4.2950101 -3.038815 1.0798351
4.3027358 -3.0250776 1.0793238
4.2955661 -3.0255268 1.0803816
4.3103423 -3.0140975 1.0800414
4.3080015 -3.0219581 1.0673711
4.308495 -3.0102878 1.0793461
4.3263187 -2.999994 1.0854168
4.330996 -3.003783 1.0686616
4.3216381 -2.9864154 1.0817331
4.4910946 -3.0875006 1.0092738
4.4797626 -3.0877473 0.99874556
4.4969563 -3.0845144 1.0159739
4.4936304 -3.0726888 1.0067662
4.491353 -3.0703161 1.002995
4.5087271 -3.0545049 1.0053645
4.513422 -3.0624127 1.0133998
4.5100832 -3.0567009 1.0057186
4.5128064 -3.0505075 1.008232
4.5187654 -3.0378592 1.0020907
4.5177875 -3.0342002 1.0157737
4.5333781 -3.0261929 1.0029606
4.5384321 -3.0253029 1.0071248
4.5407057 -3.0120411 1.0168532
4.5337625 -3.0053499 1.0026871
4.5430388 -3.0055695 0.9980588
4.5546765 -2.9853699 0.9992432
4.711102 -3.0960224 0.93081677
4.7232199 -3.0847452 0.93132973
4.7178416 -3.0717585 0.93819362
4.7263136 -3.0639908 0.94241339
4.7284589 -3.0648642 0.94833118
4.7377815 -3.0449066 0.94882399
4.7312598 -3.04689 0.93625766
4.734457 -3.0400221 0.94405568
4.7434788 -3.028074 0.94530147
4.7478633 -3.0286763 0.94040829
4.7534227 -3.0137935 0.94176412
4.759584 -3.0111072 0.94782782
4.7662487 -3.0181038 0.94030291
4.759768 -3.0009246 0.93396455
4.7774982 -2.9858866 0.94016564
4.9400258 -3.0857434 0.87069374
4.9442868 -3.0762281 0.86167639
4.9359722 -3.0677745 0.87292182
4.9554462 -3.0745485 0.86950415
4.9561563 -3.0611784 0.87886715
4.9519629 -3.0464799 0.87648988
4.9691162 -3.0498424 0.87017006
4.9723239 -3.0307527 0.87021893
4.9679966 -3.042347 0.86080629
4.9773211 -3.0204055 0.87978506
4.9728374 -3.0190108 0.87219495
4.9879093 -3.0176697 0.86723983
4.9939537 -3.0089486 0.86385232
4.9912343 -3.0050495 0.86679858
5.0050874 -2.9847267 0.87621665
5.169241 -3.0894644 0.80439174
5.1701951 -3.0644999 0.79133141
5.1648192 -3.060585 0.81044465
5.1794825 -3.0652452 0.79104137
5.1847229 -3.0448182 0.80665147
5.1889319 -3.0531032 0.79672247
5.1855407 -3.0305347 0.80119479
5.1971841 -3.0261307 0.80744243
5.18543 -3.028645 0.81063753
5.1966124 -3.0214958 0.80719799
5.1972022 -3.0153198 0.80864841
5.2149944 -2.9924946 0.80786937
5.2197165 -2.9993398 0.80380505
5.3862152 -3.0894606 0.7388376
5.3907576 -3.0647342 0.73612237
5.3908992 -3.0600634 0.73790413
5.4011016 -3.0630381 0.73503029
5.3957653 -3.0586131 0.72933078
5.3966665 -3.0501764 0.73388112
5.4007525 -3.0347815 0.73833907
5.4013882 -3.0230105 0.74172533
5.4034638 -3.0176508 0.74068338
5.4247499 -3.0117633 0.72553688
5.4219613 -3.0062342 0.7266584
5.4232316 -3.0004671 0.72500783
5.4217763 -2.9988515 0.74052393
5.6064391 -3.0820031 0.65651792
5.6039972 -3.0638478 0.6584577
5.6158447 -3.049053 0.66131204
5.6122317 -3.0544238 0.67203307
5.6130652 -3.0433998 0.66699106
5.6172748 -3.0345309 0.65976858
5.6204309 -3.0285954 0.67088789
5.6284299 -3.0096586 0.65998441
5.6375394 -3.0136499 0.66729045
5.6449876 -3.0032849 0.66864824
5.6479406 -2.9967818 0.66997111
5.8016343 -3.085166 0.59260744
5.8116593 -3.0576026 0.59126502
5.8245277 -3.057924 0.59673488
5.8281054 -3.0416725 0.58540595
5.8266296 -3.0454614 0.59511745
5.8379207 -3.0303333 0.60292953
5.8403192 -3.0314341 0.60183811
5.8318028 -3.0276425 0.58890885
5.8505812 -3.0006092 0.59849221
5.8507061 -2.994818 0.58672035
5.8521423 -2.9852376 0.5868516
6.0322952 -3.0755243 0.51740766
6.0241594 -3.0713987 0.52857208
6.0414815 -3.0479689 0.52787477
6.027463 -3.0502765 0.51526916
6.0431442 -3.0455446 0.52966654
6.0466261 -3.0226533 0.5148319
6.0490041 -3.0125067 0.51565164
6.0584416 -3.0077982 0.51536173
6.0574503 -3.0071704 0.53271407
6.0646758 -2.9893005 0.53149194
6.2402539 -3.0657699 0.44838095
6.2472959 -3.0711758 0.45003292
6.2454906 -3.0435383 0.44670904
6.2429757 -3.0541863 0.45266557
6.2478428 -3.0334086 0.45493641
6.2470956 -3.0333931 0.45167467
6.2515011 -3.0152309 0.45013011
6.2567143 -3.0118515 0.46485838
6.2616253 -2.9936714 0.45177299
6.2638769 -2.9924629 0.44811034
6.4542732 -3.0689926 0.3937431
6.4413166 -3.0616343 0.39431322
6.4499998 -3.0403583 0.39382079
6.4553466 -3.0458617 0.39397433
6.4666371 -3.0307505 0.38619372
6.460186 -3.0206273 0.38971096
6.4704609 -3.0103264 0.38266662
6.4791784 -2.9990284 0.39027205
6.4826112 -2.9870229 0.38732186
6.6633291 -3.0557215 0.30780172
6.6500988 -3.0485811 0.31294006
6.6715255 -3.0386767 0.31644702
6.6735091 -3.0243568 0.31223434
6.6749873 -3.028945 0.31351653
6.6766062 -3.0064847 0.32090238
6.6704316 -3.0147054 0.30939814
6.6877613 -2.9968684 0.31917536
6.8692851 -3.0713742 0.24218823
6.8672566 -3.0495441 0.25721255
6.8622651 -3.041558 0.2532649
6.8667769 -3.0310791 0.2471769
6.8764138 -3.0234368 0.24170636
6.8895445 -3.0180612 0.24126311
6.878449 -3.015445 0.24693309
6.8886218 -2.9954343 0.24575874
7.0582666 -3.0607479 0.17801619
7.0643992 -3.0577521 0.1878314
7.0802951 -3.0486698 0.1706742
7.0882273 -3.0258956 0.18577984
7.0911698 -3.0323792 0.17929821
7.0901513 -3.018604 0.17371656
7.0830307 -2.9994314 0.18619211
7.090426 -2.9913547 0.17445217
7.2702894 -3.0515974 0.10669444
7.2829857 -3.0526137 0.11838179
7.2744932 -3.0402708 0.11008483
7.287281 -3.0260723 0.11492863
7.2898703 -3.020241 0.1189939
7.2952876 -3.0107272 0.1159668
7.2957969 -3.0025065 0.11658332
4.3044109 -4.9905162 0.64258838
4.3162074 -4.9743509 0.64667392
4.3153229 -4.9817219 0.65064311
4.3126516 -4.9810925 0.64498454
4.3263526 -4.9629097 0.63954258
4.2120919 -4.8191442 0.7158851
4.2081337 -4.8145256 0.70380384
4.2213554 -4.8043494 0.70780951
4.2262406 -4.7981539 0.70930141
4.2351975 -4.7863216 0.71170092
4.2348576 -4.78549 0.70036626
4.2523651 -4.7798281 0.71920317
4.2539496 -4.7820091 0.70466524
4.2594948 -4.7738104 0.70474333
4.2793736 -4.7588525 0.71698123
4.2738018 -4.7615376 0.70497727
4.2769008 -4.7549071 0.71172166
4.2879105 -4.7417727 0.70276332
4.302917 -4.7304635 0.71411175
4.2994075 -4.7368989 0.71139431
4.3182888 -4.7303677 0.7036013
4.3258271 -4.7130146 0.71555334
4.3321939 -4.7207537 0.71939844
4.3240147 -4.7096167 0.70550656
4.2086315 -4.5666132 0.76829153
4.2125578 -4.5546594 0.77477407
4.2244716 -4.5462508 0.78192377
4.2231221 -4.5534687 0.77623498
4.2328057 -4.5323071 0.7758736
4.2338295 -4.5412741 0.78308576
4.2521276 -4.537971 0.77082866
4.2626247 -4.5337315 0.7699151
4.2650652 -4.5097194 0.77524334
4.2713428 -4.5204725 0.78568095
4.26372 -4.5059123 0.77443677
4.2712107 -4.4938011 0.76927787
4.2851748 -4.4961433 0.78665006
4.2862811 -4.4861941 0.77091825
4.3016901 -4.4729123 0.77045262
4.2967291 -4.4849486 0.77511549
4.3189721 -4.4650211 0.77716869
4.3089495 -4.4609227 0.77753925
4.3180046 -4.4607019 0.77599126
4.3323803 -4.4605126 0.77775079
4.3371844 -4.454247 0.76812208
4.2194533 -4.3119273 0.85231066
4.2076492 -4.296968 0.84052765
4.2132096 -4.287179 0.85271907
4.2230301 -4.2882495 0.85220909
4.2323766 -4.2805405 0.8536703
4.2463775 -4.2768402 0.84905791
4.2424235 -4.2694058 0.84253407
4.258832 -4.2591505 0.85021293
4.253684 -4.260746 0.85205388
4.2702875 -4.2437553 0.85412425
4.2772541 -4.2394218 0.83761293
4.2807369 -4.2329054 0.85019124
4.2924285 -4.2268329 0.84668022
4.2963033 -4.2369366 0.83621222
4.2996597 -4.2236824 0.84755808
4.3044691 -4.2224069 0.83670092
4.3046579 -4.2110572 0.84736657
4.3183141 -4.2092628 0.84236753
4.3196411 -4.1985717 0.84984446
4.3228006 -4.1972241 0.84837556
4.328022 -4.194849 0.84529495
4.3367233 -4.174921 0.84277767
4.3379951 -4.1692238 0.84037125
4.2202015 -4.0349936 0.9095546
4.2272949 -4.0340738 0.9183507
4.2257261 -4.0342422 0.90243578
4.2332916 -4.0201106 0.91187596
4.2315149 -4.0182037 0.91710764
4.2447305 -4.0008421 0.9070195
4.2454152 -4.0061855 0.91225964
4.2446227 -3.9921627 0.91384739
4.2607408 -3.9952853 0.90932727
4.254334 -3.9829755 0.90446055
4.265512 -3.9787436 0.91720009
4.2782021 -3.9730582 0.90498877
4.2796793 -3.9745731 0.90673053
4.2852335 -3.9541457 0.91671711
4.3002195 -3.9611101 0.90271628
4.3004293 -3.9404657 0.92017466
4.3105421 -3.9447353 0.90638006
4.3058867 -3.9353876 0.9206903
4.3028111 -3.9355037 0.9059521
4.3152065 -3.9276009 0.91759044
4.3227267 -3.9140851 0.90751922
4.3229785 -3.9134369 0.91718447
4.3310103 -3.8968604 0.91937798
4.3407755 -3.90027 0.9160344
4.340519 -3.8942261 0.91975409
4.2062335 -3.7677343 0.98580182
4.2092419 -3.762603 0.97392881
4.2184477 -3.7476349 0.98540783
4.2219553 -3.7412415 0.97076762
4.2307167 -3.7479434 0.97801965
4.2311082 -3.7326074 0.97276884
4.2414198 -3.7224936 0.98214
4.2413888 -3.7298138 0.98205405
4.2435431 -3.7128258 0.97251695
4.2623458 -3.7015433 0.98297483
4.2648592 -3.7099671 0.9881056
4.265749 -3.700639 0.97249883
4.2747574 -3.6873531 0.9859845
4.2752366 -3.6957998 0.97998011
4.2810669 -3.6807168 0.98138314
4.2941413 -3.6704662 0.9722243
4.3019562 -3.6751187 0.98727393
4.2991343 -3.6650095 0.98909092
4.2962179 -3.6579449 0.98197609
4.3037558 -3.6572688 0.98021662
4.3217435 -3.639261 0.98409909
4.3248534 -3.6455376 0.97136825
4.3323483 -3.6279719 0.98597443
4.3333201 -3.6350844 0.98617804
4.3282795 -3.6215158 0.97550136
4.3446336 -3.6200137 0.98910499
4.35182 -3.6158292 0.97207838
4.3540478 -3.5995908 0.97917622
4.2132559 -3.4711914 1.0550102
4.2100015 -3.460757 1.037858
4.2249789 -3.4574347 1.0527072
4.2238312 -3.4560931 1.0552664
4.2299438 -3.4523392 1.049371
4.2306547 -3.4526875 1.0503354
4.2315607 -3.4431424 1.0388341
4.2417822 -3.4423008 1.042793
4.2455988 -3.4193215 1.0448878
4.2523804 -3.4191549 1.057165
4.266252 -3.4199839 1.0515854
4.2682853 -3.4089236 1.0505726
4.2731586 -3.4077334 1.0470079
4.272872 -3.3925309 1.0389036
4.2751369 -3.3960466 1.0486653
4.2914982 -3.3836749 1.052184
4.288815 -3.3752117 1.0393465
4.2946224 -3.3813341 1.0414425
4.3043804 -3.368438 1.0406032
4.2962251 -3.3535507 1.054009
4.3003387 -3.3495736 1.0406574
4.3188639 -3.3483367 1.0524312
4.3163681 -3.3469923 1.0394537
4.3102994 -3.3306911 1.0557306
4.3161178 -3.3368738 1.0425369
4.3316894 -3.3314359 1.0557535
4.330771 -3.3134131 1.051465
4.337007 -3.3143067 1.0550797
4.3453307 -3.3101578 1.045609
4.3528066 -3.2988713 1.045038
4.3536797 -3.2881703 1.0424494
4.3611927 -3.2836342 1.0550966
4.2104192 -3.1726713 1.1107444
4.2165532 -3.1662652 1.1090156
4.218956 -3.1587064 1.1150835
4.2281566 -3.1602333 1.120562
4.2305655 -3.1473267 1.1180296
4.2286782 -3.1328244 1.1085635
4.2303972 -3.1346307 1.1171999
4.2426372 -3.1335843 1.1110694
4.2542977 -3.1162798 1.1095805
4.2433615 -3.1160691 1.1065615
4.2650647 -3.1211777 1.1148283
4.2547431 -3.1045835 1.1236317
4.2626848 -3.1100094 1.1141185
4.2766862 -3.0906496 1.1171969
4.2761574 -3.093287 1.107294
4.2730885 -3.0822103 1.1059994
4.2805448 -3.0738049 1.1169984
4.276629 -3.0775411 1.1231377
4.2865748 -3.0739903 1.1206689
4.295023 -3.0657411 1.1124927
4.3004441 -3.0601461 1.1132832
4.2941236 -3.0492213 1.1247373
4.3165979 -3.0346951 1.1248287
4.3095508 -3.0305004 1.1183372
4.3255739 -3.031158 1.1232593
4.3116856 -3.0192006 1.1133033
4.316494 -3.0240941 1.1057919
4.332293 -3.0172024 1.1085774
4.3342233 -3.0046556 1.1089407
4.3336763 -3.0079432 1.1115743
4.3449445 -2.9900837 1.113818
4.4918213 -3.0898163 1.0533322
4.4954667 -3.0841098 1.0490391
4.4991946 -3.0896993 1.0429382
4.5164218 -3.0835061 1.0501709
4.5185628 -3.0754335 1.0433465
4.5307388 -3.066776 1.0456079
4.5353947 -3.0465348 1.0487348
4.5228271 -3.0485702 1.0383757
4.5306144 -3.035351 1.0386912
4.5410261 -3.035054 1.050822
4.5336728 -3.0268881 1.0441762
4.5534887 -3.0193996 1.056965
4.5490022 -3.0124969 1.0378861
4.5584064 -3.0126717 1.0387163
4.5550342 -2.9950018 1.0413289
4.5648284 -2.9894431 1.0463028
4.5768757 -2.9835072 1.0452161
4.7293634 -3.0977094 0.98812222
4.7343049 -3.0848649 0.9855969
4.739552 -3.0658605 0.97704875
4.7369213 -3.0784526 0.97034043
4.7476354 -3.0554633 0.98478889
4.7511287 -3.0611858 0.97980219
4.7555342 -3.0417211 0.9882971
4.7607603 -3.0498364 0.98811245
4.76859 -3.0323563 0.987131
4.7613845 -3.027019 0.98572421
4.7730827 -3.0306981 0.98704904
4.7753415 -3.0137522 0.97462565
4.7750654 -3.0158663 0.97460794
