# .PCD v0.7 - Point Cloud Data file format
VERSION 0.7
FIELDS x y z
SIZE 4 4 4
TYPE F F F
COUNT 1 1 1
WIDTH 1544
HEIGHT 1
VIEWPOINT 0 0 0 1 0 0 0
POINTS 1544
DATA ascii
10.715514 -4.2447047 1.6365784
10.71529 -4.2283173 1.6306881
10.729983 -4.2122726 1.6376758
10.734248 -4.2054434 1.631143
10.741449 -4.1915164 1.6419263
10.738225 -4.1795654 1.6279069
10.742424 -4.1611347 1.6333011
10.750963 -4.1469374 1.6326013
10.759089 -4.1193218 1.6352276
10.774549 -4.1162739 1.6468531
10.77517 -4.0887475 1.6392244
10.769662 -4.0873704 1.6330351
10.778242 -4.0572047 1.6279342
10.79379 -4.0486579 1.6346983
10.802783 -4.0387721 1.6404167
10.616508 -3.9484363 1.6667635
10.622126 -3.9294994 1.652894
10.633118 -3.9278228 1.6582247
10.623389 -3.9037998 1.6561657
10.636266 -3.8900752 1.6621416
10.640748 -3.8814673 1.6606224
10.63758 -3.8640842 1.6654508
10.648202 -3.8438163 1.6654075
10.653703 -3.8336756 1.6588662
10.665947 -3.8201952 1.6671572
10.663889 -3.8125918 1.6612056
10.664497 -3.7848849 1.6593821
10.671217 -3.7716801 1.6644182
10.683246 -3.7536776 1.6586529
10.693194 -3.7482507 1.6517801
10.689098 -3.7237742 1.6586756
10.703463 -3.7078767 1.6681068
10.702635 -3.7067475 1.6629512
10.701742 -3.6854875 1.653074
10.714287 -3.6773329 1.6618073
10.715102 -3.6565652 1.6632665
10.729945 -3.6404958 1.6575481
10.722944 -3.6229944 1.6701422
10.740958 -3.6187305 1.6658393
10.733186 -3.5897629 1.6520565
10.73852 -3.570116 1.667836
10.750728 -3.5613089 1.6645914
10.752346 -3.5585129 1.6675473
10.768788 -3.5417717 1.6568271
10.775332 -3.5176265 1.6593184
10.770589 -3.4977865 1.6676272
10.767283 -3.4882033 1.6570477
10.778239 -3.4707003 1.669005
10.781767 -3.4602413 1.6702546
10.780972 -3.4425919 1.6654929
10.786372 -3.4246249 1.6653924
10.618242 -3.3593619 1.6827648
10.616052 -3.3378017 1.6842748
10.616796 -3.324753 1.6875194
10.626801 -3.3100927 1.6798954
10.619275 -3.305088 1.677091
10.640038 -3.2882795 1.6888424
10.6302 -3.2653854 1.6830628
10.6523 -3.2438121 1.6927011
10.655627 -3.2278624 1.6849412
10.654173 -3.2113187 1.6800938
10.652597 -3.1984022 1.6853656
10.664715 -3.1923573 1.6773939
10.658321 -3.1702278 1.6876611
10.675152 -3.162734 1.6777718
10.664338 -3.1473851 1.6780643
10.670698 -3.1358719 1.680336
10.688789 -3.1187739 1.6906658
10.681081 -3.1041338 1.6877269
10.682989 -3.0907025 1.685889
10.697116 -3.0632415 1.6857398
10.706376 -3.061851 1.6836457
10.700886 -3.0328176 1.6927294
10.707404 -3.0346308 1.6890687
10.704167 -3.0040464 1.6780217
10.711021 -2.9886882 1.6874375
10.909418 -3.044801 1.6698159
10.918869 -3.0134859 1.6580523
10.918628 -3.0142295 1.6660242
10.915427 -2.9973938 1.652517
11.121933 -3.0231099 1.6278957
11.116776 -3.0112154 1.6334007
11.129502 -2.9890769 1.6330106
11.323074 -3.0362346 1.6122143
11.321253 -3.0190167 1.6107203
11.328362 -2.9991488 1.6096381
11.536862 -3.0271027 1.5872726
11.539451 -3.0188098 1.5846556
11.530253 -2.9949725 1.5860639
11.741214 -3.0284901 1.5654124
11.746505 -3.0210121 1.5598316
11.750811 -3.0029161 1.5706294
11.933015 -3.0454504 1.5443851
11.942458 -3.0209541 1.5506819
11.954741 -3.0025108 1.5383952
12.138126 -3.0295155 1.5265105
12.147853 -3.0155876 1.5252815
12.15885 -3.0033069 1.5162582
12.360026 -3.0319779 1.4913206
12.349833 -3.0182779 1.4903847
12.362621 -3.0035243 1.5005534
12.562825 -3.0354125 1.4687804
12.560847 -3.0147028 1.4709008
12.55626 -2.9887872 1.4808578
14.469888 -0.98427373 1.2819455
14.465423 -0.96534997 1.2818407
14.484096 -0.94930267 1.2866278
14.468862 -0.91598582 1.2914352
14.476763 -0.90593445 1.2823069
14.479567 -0.87836003 1.2803967
14.47573 -0.85531926 1.2812965
14.489277 -0.83718628 1.2749134
14.484263 -0.81496459 1.2750247
14.475366 -0.80958849 1.2856784
14.484204 -0.78288138 1.2751555
14.494307 -0.76201195 1.2833614
14.484276 -0.74381328 1.2874175
14.499004 -0.72216409 1.2845917
14.498512 -0.69390118 1.2916166
14.488863 -0.68409342 1.2860135
14.497276 -0.65935344 1.283247
14.48656 -0.64226943 1.2784077
14.489433 -0.61137295 1.2755824
14.492389 -0.5905214 1.2779241
14.48597 -0.58194977 1.2867622
14.489001 -0.56436563 1.2762574
14.500209 -0.53787392 1.2837375
14.495445 -0.51768756 1.2926517
14.507827 -0.49899912 1.2896119
14.507205 -0.47093692 1.276162
14.500952 -0.45541129 1.2872326
14.491904 -0.43152243 1.2751665
14.49799 -0.42565352 1.2737749
14.501221 -0.39769325 1.2730117
14.506765 -0.37698793 1.2805957
14.50112 -0.35406053 1.2855382
14.504941 -0.34070522 1.2767458
14.496215 -0.31286588 1.287912
14.496374 -0.2933684 1.2775379
14.513465 -0.27518791 1.2749964
14.497078 -0.26392752 1.2877496
14.511734 -0.24235377 1.2841603
14.514295 -0.21530607 1.2862072
14.515436 -0.18560974 1.2759812
14.515786 -0.17092308 1.2862264
14.503691 -0.16240808 1.2791641
14.516511 -0.13056947 1.2852215
14.50051 -0.10792718 1.2788819
14.515647 -0.085567184 1.291803
14.500381 -0.066529177 1.2826672
14.502546 -0.044263173 1.2845535
14.497437 -0.027698614 1.2877752
14.508709 -0.0089016529 1.2778054
15.110524 0.013422541 1.3166713
15.113557 0.033987332 1.3306051
15.106805 0.042213514 1.3128138
15.112961 0.083043605 1.3266203
15.125146 0.08768516 1.3228285
15.110961 0.1073044 1.3211555
15.109668 0.13152722 1.3182793
15.119209 0.15781195 1.3174275
15.110608 0.17891189 1.3128988
15.105199 0.19123758 1.3269253
15.10979 0.21683596 1.3203478
15.113839 0.24548098 1.3132439
15.111793 0.26741776 1.3132746
15.111925 0.27558389 1.3130444
15.105835 0.29603681 1.3163645
15.115924 0.32243693 1.3182131
15.10431 0.34770527 1.3231937
15.109791 0.36270595 1.3133684
15.11439 0.38932532 1.323553
15.114431 0.41078493 1.3249733
15.108469 0.43711501 1.3309027
15.115901 0.4478026 1.3243879
15.116199 0.47678158 1.3187212
15.116498 0.48626047 1.3201325
15.116537 0.51004595 1.3209091
15.099868 0.54434597 1.3269988
15.105018 0.56748766 1.3172705
15.115118 0.57659459 1.3214571
15.095364 0.59081501 1.3311781
15.105764 0.62562013 1.3212742
15.097557 0.63503653 1.3166169
15.095249 0.67248654 1.3215646
15.106397 0.69086629 1.3144093
15.091848 0.71020645 1.315652
15.098681 0.73027682 1.3196001
15.106262 0.75439745 1.3167692
15.099903 0.76441681 1.3160021
15.103786 0.78531545 1.3232651
15.091827 0.80726814 1.3236725
15.089559 0.84045941 1.3178105
15.097358 0.8463096 1.3202914
15.10047 0.87074792 1.3191501
15.0885 0.8872596 1.3153175
15.089346 0.91017783 1.3297554
15.091405 0.94091392 1.3231956
15.077382 0.96024454 1.3196894
15.0805 0.97425932 1.325137
15.08282 0.99322987 1.3304194
10.619803 -4.9826322 1.7005643
10.632999 -4.9783683 1.690801
10.632463 -4.9606571 1.6918045
10.634142 -4.9425325 1.6956438
10.655005 -4.9232011 1.6956204
10.647366 -4.9065804 1.7079091
10.653905 -4.9007864 1.6935354
10.666751 -4.8710747 1.7079327
10.679075 -4.872704 1.7074409
10.683737 -4.8569851 1.7000262
10.698291 -4.8323574 1.6923528
10.695789 -4.8214884 1.6941243
10.703504 -4.7980895 1.6987784
10.712201 -4.7999244 1.7067189
10.724717 -4.7677879 1.6991427
10.717188 -4.7701626 1.6933298
10.721927 -4.7528496 1.6984438
10.732272 -4.7295198 1.6983926
10.736993 -4.720675 1.7018259
10.7412 -4.6939578 1.7060823
10.757974 -4.6794538 1.7000612
10.767052 -4.6741982 1.6899942
10.777881 -4.6479545 1.7084023
10.773342 -4.639719 1.6900421
10.776724 -4.6256523 1.7088753
10.792508 -4.6057782 1.6903815
10.619672 -4.5097299 1.7164462
10.614607 -4.5082922 1.728663
10.629469 -4.4887342 1.7147447
10.627745 -4.471549 1.7125547
10.630255 -4.4641509 1.7298701
10.646724 -4.4542131 1.7174335
10.653106 -4.4199638 1.716224
10.657874 -4.4167495 1.7282244
10.664262 -4.3966293 1.7192565
10.669462 -4.3871799 1.715119
10.676147 -4.3742137 1.7138991
10.68667 -4.3526173 1.7193105
10.689389 -4.3424416 1.7294639
10.69817 -4.3202534 1.7219784
10.704739 -4.301796 1.7270584
10.708603 -4.2930908 1.7272346
10.720009 -4.284205 1.7268097
10.710185 -4.2567306 1.7147403
10.71234 -4.2490273 1.7279233
10.725507 -4.2422624 1.7156796
10.734515 -4.2149291 1.7215173
10.742283 -4.2031703 1.7140583
10.755441 -4.194768 1.7218733
10.758731 -4.1836414 1.7169664
10.754515 -4.1519799 1.715598
10.755358 -4.1424689 1.7280076
10.776356 -4.1275444 1.7143674
10.776909 -4.1084161 1.7132579
10.785371 -4.0930834 1.7248995
10.786995 -4.0905142 1.7283455
10.796353 -4.0648465 1.7241558
10.605536 -3.9872046 1.7389543
10.613134 -3.9726274 1.7449633
10.628528 -3.9606071 1.7471055
10.618992 -3.9386289 1.7459072
10.628068 -3.9216127 1.7392105
10.629533 -3.9093823 1.7524204
10.637337 -3.9023631 1.749733
10.644011 -3.8726239 1.7473441
10.662305 -3.8669825 1.7524822
10.664024 -3.857682 1.748238
10.661534 -3.8388848 1.7364825
10.671615 -3.8180501 1.7444978
10.667684 -3.807363 1.7497195
10.685873 -3.7917304 1.742098
10.682844 -3.7725205 1.7366635
10.693098 -3.757324 1.7486221
10.696541 -3.7397809 1.7527555
10.697275 -3.7410007 1.7517757
10.7156 -3.709342 1.7415777
10.719042 -3.7013588 1.7458129
10.718219 -3.6812408 1.7539703
10.725619 -3.6763959 1.7480798
10.721014 -3.6608152 1.7379864
10.74161 -3.6523566 1.7486286
10.734563 -3.6322184 1.7435759
10.742061 -3.6070971 1.7388078
10.741496 -3.6037831 1.7366632
10.745045 -3.5849638 1.7383721
10.767591 -3.5730278 1.7368056
10.75992 -3.5628376 1.7482809
10.776463 -3.5386369 1.7449256
10.781141 -3.5321815 1.7514595
10.779909 -3.5154562 1.738611
10.788562 -3.4832392 1.739251
10.787836 -3.4831519 1.7450521
10.802037 -3.460629 1.7409899
10.791449 -3.443712 1.7452503
10.609329 -3.3678694 1.7755382
10.618179 -3.3551414 1.7605501
10.625442 -3.3350637 1.7607399
10.624158 -3.3234012 1.7701111
10.6395 -3.3119965 1.7709113
10.641354 -3.3067405 1.7734036
10.650338 -3.2777259 1.7730731
10.639942 -3.2743111 1.7577829
10.655327 -3.2615488 1.769962
10.646628 -3.2442067 1.7639974
10.662169 -3.2244298 1.7584106
10.665771 -3.2005091 1.7707422
10.674365 -3.1940114 1.7683356
10.683127 -3.1734612 1.762769
10.68124 -3.1622138 1.773778
10.680132 -3.1537354 1.7752076
10.681495 -3.1408746 1.7708098
10.682508 -3.1229913 1.7749783
10.688209 -3.1142845 1.7570546
10.706068 -3.0988164 1.7616117
10.697942 -3.0723264 1.7710783
10.704208 -3.0667334 1.7695919
10.722785 -3.0370252 1.7597231
10.718934 -3.0230122 1.7755183
10.729497 -3.0153234 1.7676682
10.731047 -2.9931583 1.7733979
10.925438 -3.0475101 1.7348772
10.924052 -3.0314715 1.7415352
10.926814 -3.0140851 1.7419829
10.931631 -2.9831719 1.7429756
11.132711 -3.0371118 1.7133226
11.131582 -3.0163934 1.7165339
11.128945 -3.001368 1.7145121
11.328363 -3.0260541 1.7093498
11.331681 -3.0125265 1.6991296
11.347127 -3.0016561 1.6961155
11.540441 -3.0428207 1.6750636
11.545328 -3.0185349 1.6770188
11.556851 -3.0157061 1.6811165
11.5488 -2.9922578 1.6808776
11.754159 -3.0333664 1.661652
11.759678 -3.00983 1.649822
11.748384 -2.9931366 1.6574823
11.947695 -3.0220823 1.6343211
11.951447 -3.002749 1.6310788
11.964954 -2.9921827 1.6428864
12.168276 -3.012773 1.6063036
12.159945 -3.0043263 1.6201122
12.366529 -3.036154 1.5984362
12.36427 -3.0123773 1.5863024
12.361748 -2.9998534 1.5866748
12.575364 -3.0328016 1.5719843
12.56401 -3.0141966 1.5597947
12.580291 -2.9931018 1.5711814
15.080071 -0.9798637 1.3281101
15.087644 -0.96824938 1.3139032
15.082076 -0.94229919 1.3276924
15.079302 -0.92879558 1.3178529
15.096264 -0.90425837 1.3286148
15.091766 -0.88319248 1.3172675
15.098996 -0.85499066 1.331512
15.098512 -0.83774298 1.3299617
15.093893 -0.82076848 1.3292058
15.089366 -0.80364293 1.323423
15.097443 -0.77582747 1.3169349
15.094318 -0.74181068 1.3210144
15.096957 -0.73470289 1.3299955
15.093356 -0.71168065 1.33143
15.099886 -0.6929794 1.3163493
15.097149 -0.66002882 1.3212805
15.103035 -0.64107281 1.3133578
15.103136 -0.62379551 1.3216254
15.101657 -0.61230272 1.3258084
15.099393 -0.58647305 1.3260564
15.111316 -0.55367303 1.3130574
15.096723 -0.54507464 1.3130116
15.106178 -0.51488489 1.3190082
15.104587 -0.48931462 1.3269604
15.1044 -0.47820336 1.3125458
15.109102 -0.45078915 1.3300123
15.118707 -0.43841943 1.325364
15.100359 -0.40684974 1.3169209
15.11025 -0.39763045 1.3188972
15.104294 -0.37151757 1.3256289
15.118557 -0.35429379 1.3240849
15.119791 -0.33244732 1.3300624
15.12095 -0.30189863 1.3251519
15.108076 -0.29366663 1.3247328
15.123125 -0.26631695 1.314345
15.123731 -0.25493035 1.3302906
15.121772 -0.23457561 1.3175242
15.115136 -0.21317548 1.3152449
15.120028 -0.18246239 1.3211014
15.106867 -0.15825339 1.3319867
15.120407 -0.14030059 1.3190106
15.112374 -0.12160293 1.3267955
15.110291 -0.10220629 1.3240427
15.123265 -0.076114051 1.3284349
15.115792 -0.055374078 1.3190893
15.117902 -0.034401048 1.3200423
15.115928 -0.015728513 1.3202614
15.53093 0.018794416 1.3897294
15.533846 0.035698231 1.3998832
15.52259 0.059186433 1.3931562
15.522187 0.075990543 1.3832918
15.528779 0.10456648 1.3910347
15.523126 0.11089177 1.3970835
15.534689 0.13005583 1.3881336
15.530615 0.1616395 1.3988327
15.517164 0.17525496 1.3894135
15.524637 0.20684779 1.3975756
15.532298 0.22365154 1.3963701
15.520459 0.24338685 1.3904048
15.518744 0.27191022 1.3862643
15.530272 0.30010685 1.3972646
15.531904 0.31500071 1.3951776
15.52125 0.34437662 1.3977528
15.516614 0.3654817 1.3978292
15.522998 0.38270822 1.3878267
15.52005 0.40671048 1.3897774
15.527654 0.41844136 1.3816589
15.523389 0.43811992 1.3886826
15.517888 0.46627635 1.3937805
15.526392 0.4930644 1.385741
15.510726 0.51175708 1.384238
15.526029 0.53248996 1.3959693
15.519215 0.54300588 1.3954173
15.514946 0.56935364 1.3943121
15.510723 0.60258335 1.3887756
15.516468 0.61339396 1.3855844
15.504132 0.63236624 1.3924677
15.503649 0.66766232 1.3973743
15.510159 0.67807651 1.3887825
15.501736 0.69764358 1.3853252
15.505243 0.72222292 1.3989077
15.507218 0.74281478 1.3915712
15.500894 0.77733213 1.3930999
15.513987 0.78835016 1.3993266
15.505945 0.81594527 1.3971343
15.512336 0.83011484 1.3841051
15.495506 0.85280955 1.3884019
15.505528 0.87591094 1.3863496
15.500428 0.90644258 1.3930677
15.506705 0.90950239 1.3977103
15.489495 0.93705088 1.3852911
15.505837 0.96758491 1.3918239
15.494813 0.9928357 1.3912357
15.485287 1.0122513 1.4000288
10.634481 -4.9848313 1.789546
10.625488 -4.9731421 1.7870233
10.635857 -4.9647965 1.7945398
10.644358 -4.9358854 1.7838018
10.653519 -4.9372573 1.7917175
10.667871 -4.9076052 1.7922914
10.674266 -4.9058723 1.7824283
10.671811 -4.8760247 1.7883455
10.687329 -4.8627653 1.7869709
10.695254 -4.8477869 1.7910886
10.699995 -4.8368492 1.785161
10.700741 -4.8218641 1.7760921
10.718944 -4.8034506 1.7805283
10.724642 -4.8034534 1.7790256
10.719581 -4.7811942 1.7812914
10.722415 -4.7714591 1.7783402
10.745802 -4.7421856 1.7822427
10.739305 -4.7422018 1.7811044
10.758704 -4.7135143 1.7783276
10.756708 -4.7036958 1.7756219
10.758809 -4.6959105 1.7889367
10.774961 -4.6741314 1.7823101
10.782023 -4.660881 1.7791615
10.7735 -4.6486435 1.7810643
10.783454 -4.6281562 1.7902719
10.612831 -4.5331092 1.8150035
10.621948 -4.5199728 1.8132824
10.634947 -4.4999614 1.7965626
10.626787 -4.4871569 1.8135381
10.635829 -4.482934 1.8053312
10.642145 -4.4631748 1.8098994
10.641755 -4.4538078 1.8012276
10.654717 -4.4239016 1.8107772
10.664511 -4.4090195 1.797527
10.676186 -4.4106646 1.8097172
10.677048 -4.3865709 1.803504
10.681868 -4.3796902 1.8156174
10.684945 -4.3661199 1.8129244
10.691282 -4.3469973 1.8082088
10.694574 -4.3251004 1.8128804
10.709638 -4.3231349 1.802466
10.709249 -4.307785 1.8065655
10.720168 -4.2856784 1.8057095
10.720615 -4.2599635 1.8048646
10.727792 -4.2487369 1.8074955
10.727138 -4.2427917 1.7993318
10.74025 -4.2181492 1.8031524
10.745454 -4.2165308 1.8056386
10.747944 -4.1946564 1.8123335
10.765697 -4.1755505 1.8060032
10.768102 -4.1674194 1.8067082
10.78007 -4.1456952 1.8078238
10.776117 -4.13905 1.8160988
10.791288 -4.1179342 1.8151332
10.785593 -4.0955982 1.81043
10.802507 -4.0798512 1.7966996
10.605195 -4.0064964 1.8333843
10.617626 -3.9845011 1.8359451
10.632523 -3.9658883 1.8253834
10.634093 -3.9553735 1.8189226
10.629313 -3.9482851 1.8255794
10.645217 -3.9350376 1.8189385
10.642216 -3.9115314 1.823913
10.64747 -3.8986228 1.8349655
10.651736 -3.8771563 1.8333083
10.671279 -3.8645015 1.8323441
10.677072 -3.8488216 1.8192623
10.678774 -3.8462968 1.8333656
10.683016 -3.83444 1.8312639
10.676676 -3.8065572 1.8248516
10.683855 -3.7889781 1.8306943
10.697669 -3.780998 1.8349437
10.704822 -3.7615016 1.8278505
10.696928 -3.7422132 1.8188096
10.720066 -3.7440991 1.8363712
10.721526 -3.7118621 1.8317161
10.722 -3.6992328 1.8278615
10.729373 -3.6902797 1.8316454
10.730827 -3.6824419 1.8323917
10.730159 -3.6662815 1.8261193
10.743058 -3.6482587 1.8225169
10.741778 -3.6217175 1.831978
10.744727 -3.6132982 1.8260118
10.760562 -3.5980268 1.8244026
10.767335 -3.5848505 1.825969
10.771648 -3.5754268 1.8248265
10.771286 -3.5507197 1.8213602
10.787048 -3.5438111 1.8318866
10.786572 -3.5205979 1.8352832
10.786823 -3.5031817 1.8198655
10.800779 -3.4979749 1.8274885
10.791113 -3.4791343 1.8266639
10.621542 -3.4014368 1.8400154
10.615243 -3.3941886 1.8528819
10.627315 -3.3651919 1.8439144
10.620932 -3.3568854 1.8493533
10.633385 -3.353924 1.844475
10.642352 -3.3401623 1.851474
10.641825 -3.3118162 1.846648
10.644672 -3.3081398 1.8441932
10.652082 -3.2954056 1.8518935
10.647095 -3.2772157 1.8433754
10.661262 -3.2641094 1.8565149
10.668006 -3.2420526 1.8420947
10.667596 -3.2326546 1.8418565
10.678198 -3.214349 1.8551039
10.674218 -3.1882787 1.8564849
10.685339 -3.1779096 1.8567935
10.683438 -3.1727154 1.8506073
10.696691 -3.1492996 1.8532501
10.687467 -3.14308 1.8537737
10.705923 -3.1264334 1.857627
10.69584 -3.1001844 1.8397202
10.698876 -3.0917354 1.8489975
10.707471 -3.0682189 1.8527935
10.715807 -3.0586033 1.8400093
10.717369 -3.0374494 1.8384038
10.720291 -3.0296352 1.8522694
10.723501 -3.008162 1.8564248
10.740504 -2.9978559 1.8490857
10.931712 -3.0346994 1.8322964
10.931914 -3.0236692 1.8179841
10.935948 -3.0070786 1.8349918
10.942054 -2.9917881 1.8255137
11.129295 -3.0246749 1.8038577
11.148505 -3.0207956 1.7976236
11.154909 -2.9996274 1.7975906
11.351783 -3.0314422 1.7896596
11.350474 -3.0123577 1.78899
11.3533 -3.0004811 1.7836556
11.348765 -2.9931693 1.7800288
11.560554 -3.020478 1.7714289
11.565696 -3.017127 1.7649169
11.567823 -2.9918709 1.7584335
11.753043 -3.0252051 1.7354991
11.764813 -3.0135193 1.7416558
11.770328 -2.9996393 1.7534333
11.968585 -3.0341361 1.7287421
11.96691 -3.0049438 1.7280612
11.964543 -2.9971418 1.7234237
12.169821 -3.026227 1.7095056
12.178513 -3.0116506 1.703766
12.37247 -3.0437703 1.6845046
12.366822 -3.0300722 1.6751271
12.374666 -3.0079222 1.6860571
12.57364 -3.025032 1.6515135
12.585477 -3.0137482 1.6551913
12.589067 -3.0011821 1.6569201
15.497809 -0.98317975 1.3815919
15.50424 -0.97697973 1.3940938
15.497407 -0.94712108 1.3933119
15.502844 -0.92945439 1.3976141
15.503028 -0.89881313 1.3926054
15.490884 -0.88040704 1.3940299
15.506983 -0.85009009 1.3815007
15.508872 -0.8382076 1.3886758
15.512 -0.80599582 1.3990055
15.506937 -0.80207217 1.3950187
15.499938 -0.76623988 1.3905437
15.501357 -0.74535471 1.3906491
15.515247 -0.73264986 1.3989917
15.508326 -0.71582597 1.3833777
15.505675 -0.68010551 1.3967799
15.517986 -0.65778571 1.3869612
15.511692 -0.6405943 1.3858309
15.512838 -0.62271011 1.3949527
15.52113 -0.60286516 1.3946544
15.51972 -0.56921995 1.396646
15.514293 -0.56367975 1.3928349
15.524362 -0.53779715 1.3882723
15.514504 -0.51907045 1.3947762
15.51296 -0.4882814 1.3964646
15.515772 -0.46112791 1.3922323
15.511955 -0.4426187 1.3886775
15.51829 -0.43132946 1.4006704
15.523464 -0.39978927 1.3889025
15.51773 -0.38082308 1.3953335
15.511666 -0.36410126 1.3937624
15.527565 -0.33361062 1.3960828
15.519622 -0.31382629 1.3826363
15.527086 -0.30464286 1.3862658
15.521025 -0.2777178 1.3990327
15.516621 -0.24866512 1.3973004
15.527954 -0.22408269 1.3924236
15.515702 -0.21378918 1.3971816
15.515413 -0.17891498 1.3918245
15.523326 -0.17033833 1.3837774
15.51764 -0.14835764 1.3907952
15.530353 -0.13098124 1.386646
15.525355 -0.1020203 1.4006228
15.526881 -0.086037546 1.3821241
15.532006 -0.056528989 1.3888909
15.529867 -0.031806398 1.3830502
15.525967 -0.016102046 1.4001313
15.329508 0.0099043977 1.5185808
15.345425 0.032193441 1.5175071
15.335954 0.062134404 1.523348
15.338406 0.06615819 1.5295074
15.347845 0.10269354 1.5313807
15.333106 0.11406089 1.520552
15.332314 0.14681368 1.5240431
15.332994 0.16458139 1.5153795
15.340409 0.18013084 1.5297753
15.341955 0.21172968 1.5182118
15.340552 0.21450113 1.5281162
15.344832 0.25320318 1.5189083
15.32801 0.26247868 1.5182397
15.336997 0.29428047 1.5201936
15.332115 0.31562632 1.5172817
15.329076 0.32236701 1.524336
15.335178 0.34847927 1.5227423
15.324741 0.37546432 1.5175157
15.325612 0.39008895 1.5264381
15.340848 0.42651236 1.5255595
15.324491 0.44181573 1.5260528
15.338008 0.46171251 1.5238489
15.322287 0.48512891 1.5295218
15.325868 0.49790585 1.5255983
15.331373 0.52620268 1.5216229
15.333936 0.55189258 1.5229911
15.522459 0.57137185 1.5097762
15.530414 0.59395945 1.5014495
15.53311 0.61793888 1.5063522
15.524699 0.63770586 1.5062841
15.51538 0.66169685 1.5001258
15.526523 0.67981637 1.5124714
15.515432 0.70285624 1.5068418
15.529984 0.7301479 1.512598
15.520582 0.74364525 1.5052612
15.527174 0.7604363 1.5022253
15.515105 0.7875753 1.5100559
15.509089 0.80346859 1.4988095
15.514716 0.84288937 1.509879
15.505216 0.85476017 1.4990532
15.515617 0.87820238 1.5105575
15.51983 0.89370912 1.4985214
15.516358 0.91907644 1.5078669
15.507227 0.93997729 1.5028468
15.503821 0.97248799 1.5096684
15.513048 0.9926331 1.5116267
15.499209 1.0017809 1.4990712
10.651608 -4.9746585 1.8799634
10.655413 -4.9684892 1.8621866
10.654588 -4.9488659 1.8656602
10.661811 -4.9415135 1.861469
10.677321 -4.9223795 1.864485
10.678627 -4.8990655 1.8621396
10.690842 -4.8798261 1.8801016
10.68292 -4.8752546 1.8799596
10.699709 -4.852139 1.8753189
10.700476 -4.8341718 1.8755575
10.715622 -4.8208733 1.8686396
10.720964 -4.8107152 1.8730396
10.728509 -4.8083053 1.8622019
10.739507 -4.7855754 1.8638457
10.746292 -4.7742171 1.8697435
10.736073 -4.7484145 1.8640655
10.743487 -4.7372375 1.8627275
10.748843 -4.7208028 1.8710519
10.774035 -4.7143774 1.8675735
10.774566 -4.6939635 1.8671345
10.775314 -4.6851606 1.8650562
10.789124 -4.6577516 1.8781891
10.787313 -4.6495128 1.8787756
10.611796 -4.5582638 1.8864253
10.62064 -4.545866 1.8911594
10.63536 -4.5303407 1.8867117
10.624381 -4.5140333 1.8984475
10.632044 -4.498982 1.8916152
10.648009 -4.4853282 1.8961964
10.660477 -4.4577136 1.88617
10.652484 -4.4558988 1.8899162
10.662393 -4.4268022 1.8860319
10.665413 -4.4260235 1.8953373
10.668999 -4.4044008 1.8821263
10.680915 -4.40029 1.8865018
10.697544 -4.3677931 1.891582
10.689706 -4.3525891 1.8981405
10.693582 -4.3560147 1.8849125
10.710605 -4.3297467 1.8904912
10.712187 -4.3172626 1.8888292
10.723723 -4.2990022 1.8941176
10.718985 -4.2970438 1.8936298
10.73034 -4.2782536 1.8990389
10.730981 -4.2620463 1.8911806
10.738389 -4.2400708 1.8925343
10.750153 -4.2275925 1.8914771
10.746975 -4.2090592 1.8907083
10.770335 -4.1927357 1.8915892
10.760447 -4.1854534 1.8838053
10.776114 -4.1626325 1.8935637
10.770101 -4.1542983 1.8866327
10.789353 -4.1367049 1.8867019
10.788098 -4.1137366 1.8905942
10.606249 -4.0451064 1.9150178
10.622403 -4.0262485 1.9071349
10.61989 -4.0015464 1.9167386
10.6363 -3.9859195 1.9098756
10.63192 -3.9728096 1.9043281
10.648399 -3.9554443 1.911046
10.637075 -3.9482455 1.9055607
10.655488 -3.9328749 1.9133769
10.64695 -3.9240441 1.9037457
10.65846 -3.902241 1.9020337
10.673841 -3.8820565 1.902913
10.674326 -3.8713491 1.9078448
10.686908 -3.8487649 1.9026657
10.689072 -3.8353615 1.9182926
10.684353 -3.831907 1.9122009
10.694065 -3.8175213 1.9086378
10.690475 -3.7999878 1.9174294
10.701378 -3.7895484 1.9067398
10.700076 -3.7731342 1.9100214
10.709123 -3.7506759 1.9002388
10.716436 -3.738281 1.9157656
10.724608 -3.7308252 1.9071175
10.737692 -3.7161911 1.9061633
10.725574 -3.6847751 1.9037153
10.749064 -3.6834404 1.9098164
10.74644 -3.6577346 1.9153907
10.760233 -3.6409397 1.9035783
10.762795 -3.638541 1.9072779
10.754648 -3.6227221 1.9124569
10.769761 -3.6031146 1.905152
10.775071 -3.5814307 1.9152924
10.775887 -3.5767906 1.9179318
10.788033 -3.5642629 1.9002411
10.779203 -3.5490265 1.918995
10.787906 -3.5354548 1.9041048
10.802688 -3.5096393 1.9199347
10.61371 -3.4335947 1.9368654
10.622127 -3.4218907 1.921896
10.614222 -3.4034045 1.9277381
10.631475 -3.3948541 1.9381733
10.621403 -3.3860223 1.9352713
10.641451 -3.3613825 1.921981
10.644117 -3.3495827 1.9261831
10.649072 -3.3315771 1.9305792
10.652761 -3.309814 1.9334979
10.661537 -3.2981918 1.9271761
10.666123 -3.2911367 1.9202875
10.668321 -3.2804611 1.9302974
10.675528 -3.262465 1.9239815
10.668556 -3.2519698 1.9313973
10.671999 -3.2362804 1.9328192
10.67252 -3.2052565 1.924049
10.679729 -3.1962585 1.93224
10.691118 -3.1869771 1.9235915
10.686884 -3.1786587 1.9218545
10.705547 -3.146193 1.9368814
10.697868 -3.1337507 1.9240987
10.703279 -3.1236997 1.9271209
10.71868 -3.1110096 1.9332616
10.707744 -3.0898383 1.9350137
10.724202 -3.0697505 1.9375648
10.722062 -3.0736485 1.9362437
10.731131 -3.0548222 1.9290175
10.728369 -3.0290701 1.9361639
10.736938 -3.0119958 1.9367137
10.74375 -3.0006804 1.9348074
10.937291 -3.035013 1.9111172
10.946379 -3.0344806 1.9018431
10.938468 -3.0029075 1.9103193
10.956676 -3.0066102 1.9050208
11.148636 -3.0306678 1.8855593
11.151178 -3.0283999 1.8865407
11.152377 -3.0013399 1.8913841
11.358567 -3.0329876 1.8677111
11.359715 -3.0283418 1.8654352
11.361391 -3.0010984 1.879493
11.361138 -2.9962308 1.8777974
11.568996 -3.0171378 1.8420742
11.575105 -3.0192959 1.8619555
11.569667 -2.9874494 1.8428612
11.771642 -3.0296557 1.8376268
11.780766 -3.0034757 1.8384063
11.77085 -3.0003092 1.8306869
11.978695 -3.0363839 1.808147
11.96927 -3.0062807 1.8137126
11.977546 -2.9987206 1.8106766
12.173001 -3.0238035 1.7973585
12.173659 -3.0092645 1.7971919
12.17787 -2.9928405 1.7987357
12.375283 -3.0134392 1.7766901
12.380299 -3.0013216 1.7654033
12.592832 -3.0311472 1.7645793
12.592709 -3.0079782 1.7497969
12.584841 -2.9940844 1.7515116
15.510715 -0.9795109 1.5080547
15.505072 -0.97574991 1.4954233
15.515577 -0.95325726 1.5078965
15.509502 -0.9291802 1.5056404
15.511905 -0.89564413 1.5007769
15.517164 -0.88914537 1.5140897
15.51984 -0.86775911 1.511364
15.509696 -0.84315526 1.4993377
15.517298 -0.81045997 1.5006576
15.516911 -0.78964239 1.5068941
15.518682 -0.77228135 1.5068227
15.513128 -0.74194139 1.5088768
15.514912 -0.72244477 1.5117862
15.529138 -0.71034139 1.4971335
15.521078 -0.67712438 1.5143759
15.528125 -0.65990525 1.4964741
15.528454 -0.64123869 1.4983141
15.526027 -0.61391371 1.5031117
15.531543 -0.60015512 1.4989568
15.51835 -0.5879209 1.5139698
15.531362 -0.55502158 1.5046928
15.325328 -0.52177006 1.5234021
15.320253 -0.51504374 1.520655
15.338058 -0.47510743 1.5283558
15.32118 -0.46421748 1.5276166
15.321514 -0.44723734 1.5224384
15.323917 -0.41085431 1.5142671
15.328131 -0.39779413 1.5317599
15.337111 -0.38008314 1.5213492
15.341908 -0.35640144 1.5215094
15.341686 -0.34051257 1.5329045
15.332158 -0.31248802 1.5289016
15.342011 -0.2902737 1.5302361
15.329087 -0.27096024 1.5301173
15.343834 -0.24920037 1.5194975
15.337811 -0.22775181 1.5244662
15.346581 -0.20451632 1.5244251
15.327149 -0.17765394 1.5160509
15.345181 -0.16236711 1.5239935
15.332771 -0.14281082 1.5142227
15.340492 -0.12397211 1.5189451
15.339579 -0.095127977 1.5302957
15.334632 -0.076868072 1.5224636
15.330991 -0.051939506 1.5325472
15.347199 -0.032641541 1.5229927
15.33276 -0.019713372 1.533488
15.353709 0.0045070946 1.6378819
15.344132 0.026182292 1.6356764
15.346152 0.045630816 1.6273578
15.356085 0.072441906 1.6371953
15.356216 0.086775728 1.6444709
15.34104 0.12002735 1.6391898
15.357184 0.14819378 1.6307676
15.345468 0.1526096 1.6458727
15.343803 0.17315583 1.6388745
15.352556 0.19921264 1.6434031
15.351773 0.21574864 1.6279101
15.343292 0.24272284 1.6326764
15.352576 0.27176097 1.635475
15.353512 0.29080558 1.6436689
15.344254 0.31008583 1.6447808
15.342243 0.33432406 1.6377287
15.334922 0.35487086 1.6374274
15.339147 0.38389397 1.6401269
15.338448 0.39147711 1.6419578
15.35072 0.40806568 1.6284307
15.347492 0.44415495 1.6300256
15.348741 0.45207661 1.6371808
15.334725 0.48962516 1.6319609
15.343479 0.50848198 1.6443728
15.340397 0.51848453 1.6346526
15.338397 0.54690832 1.627759
15.329314 0.56847221 1.6400012
15.339901 0.59475404 1.639856
15.333158 0.60085887 1.6458844
15.328215 0.63978839 1.6270922
15.329715 0.65607113 1.6429814
15.33278 0.67421412 1.6453848
15.342971 0.69898355 1.6439304
15.327911 0.7131781 1.6399273
15.325234 0.74499154 1.6445222
15.332807 0.75553578 1.6361372
15.333456 0.77775854 1.6279138
15.326318 0.81135869 1.6445707
15.517926 0.82959956 1.6280887
15.516597 0.85346162 1.6269805
15.516444 0.87970418 1.6207572
15.532151 0.88992196 1.6112803
15.530231 0.9112702 1.6251774
15.526826 0.9385289 1.6118749
15.519388 0.96410996 1.6089934
15.516515 0.97829318 1.6152648
15.525226 1.0141848 1.6223692
10.65028 -4.9906173 1.9578397
10.653043 -4.9643764 1.9517472
10.662603 -4.9415679 1.9661614
10.672201 -4.944416 1.9496254
10.671982 -4.9125319 1.9645371
10.681491 -4.9088573 1.950169
10.693402 -4.8885732 1.9476774
10.688771 -4.8672566 1.9652952
10.702874 -4.8672938 1.9574721
10.708808 -4.8416114 1.9543662
10.713668 -4.8368816 1.9548899
10.731026 -4.8163376 1.9667931
10.74227 -4.7931614 1.9666334
10.747909 -4.7872949 1.948745
10.736989 -4.7685347 1.9478503
10.760961 -4.7671313 1.9557307
10.750544 -4.7406616 1.9489852
10.757613 -4.725647 1.9486371
10.78228 -4.7033334 1.9533232
10.779102 -4.701869 1.9487538
10.792799 -4.6823058 1.9539665
10.786997 -4.6721258 1.9647661
10.610217 -4.5784049 1.9816191
10.616007 -4.5650177 1.9715192
10.623888 -4.5492282 1.9651941
10.630854 -4.5361252 1.9652779
10.645679 -4.5200758 1.9768276
10.653737 -4.5035725 1.968379
10.661427 -4.4889975 1.9672215
10.653783 -4.4641733 1.9724971
10.661548 -4.4522066 1.982295
10.674505 -4.4325733 1.9672232
10.678241 -4.4333701 1.9717963
10.680965 -4.4147573 1.974944
10.693569 -4.3946228 1.9790595
10.699827 -4.3738613 1.9814478
10.706148 -4.3645926 1.9850459
10.703999 -4.3535624 1.9702992
10.713379 -4.3411183 1.9752707
10.721581 -4.3225751 1.9702007
10.735037 -4.3025012 1.982223
10.738271 -4.2956848 1.9789956
10.746412 -4.2713256 1.9800793
10.739105 -4.2504148 1.9848758
10.754925 -4.243052 1.9748977
10.754839 -4.2355623 1.9707634
10.757121 -4.2078619 1.9809717
10.76298 -4.2084012 1.9672754
10.774072 -4.1856289 1.9710798
10.790113 -4.1607027 1.978476
10.781064 -4.1483469 1.9709858
10.784017 -4.1387634 1.9753437
10.617711 -4.0557337 1.9869272
10.618378 -4.0375257 1.9865928
10.623821 -4.0294409 1.9986277
10.639265 -4.0073647 1.9831505
10.630554 -3.9889088 2.0003633
10.63203 -3.9704745 2.0020185
10.639791 -3.9668086 1.9914193
10.651334 -3.9529397 1.9907116
10.650252 -3.9339383 1.987317
10.66166 -3.9177818 1.9984549
10.677404 -3.9076974 1.9862728
10.666869 -3.882602 1.9974916
10.675978 -3.8776984 2.0019796
10.6771 -3.8629653 1.9937204
10.682726 -3.8425369 1.9890865
10.685543 -3.8262048 1.9880481
10.709994 -3.8076653 1.9958289
10.703825 -3.8031142 2.002624
10.716928 -3.7851553 1.9935588
10.706615 -3.7612786 1.9857804
10.72742 -3.7471266 1.9932086
10.736021 -3.7489593 1.9908476
10.73582 -3.7271109 1.9984974
10.740087 -3.7095466 1.9859799
10.736073 -3.6917436 1.9989833
10.747404 -3.6764894 1.9934036
10.757676 -3.6621284 1.9914404
10.755708 -3.65926 1.9990983
10.760514 -3.6285923 1.9897774
10.776234 -3.6135194 1.9893881
10.764154 -3.6029036 1.9881983
10.779482 -3.5889273 1.9902163
10.792428 -3.5803714 1.9991155
10.793002 -3.552748 1.9906046
10.801039 -3.5543163 1.984915
10.802057 -3.5297103 1.999491
10.797475 -3.5199685 1.9934318
10.810908 -3.4973102 1.9952377
10.811978 -3.4949398 1.9927012
10.823707 -3.4619231 1.9902201
10.815024 -3.4460382 1.98333
10.825131 -3.4398572 1.9953849
10.837235 -3.425741 2.0009573
10.838218 -3.4160397 1.9991074
10.850668 -3.403271 2.0006366
10.837407 -3.3744314 1.9917122
10.858702 -3.3551009 1.9974632
10.853915 -3.3472424 1.9907995
10.850914 -3.3431983 1.991426
10.865355 -3.3122892 1.9899824
10.877294 -3.2949049 1.9893297
10.882321 -3.2922349 1.9997578
10.879383 -3.2822614 1.989195
10.881995 -3.2560852 1.9932196
10.882736 -3.2422168 1.9948924
10.884986 -3.2263465 1.9902775
10.89829 -3.2138977 1.9898595
10.897323 -3.1909301 2.0021594
10.909672 -3.1756375 1.9833566
10.902625 -3.1705568 2.0003092
10.914114 -3.158169 1.9994864
10.92493 -3.145364 1.9861672
10.926151 -3.1200871 1.9876487
10.936789 -3.0967658 2.0001273
10.93143 -3.0972502 1.9912887
10.927722 -3.0800111 1.9831284
10.939379 -3.053973 1.9922186
10.950596 -3.0533848 1.989072
10.954092 -3.02491 1.9860071
10.958763 -3.0079226 1.9928058
10.960366 -3.003866 1.9967693
11.153275 -3.0459242 1.9804648
11.160768 -3.0183382 1.9720454
11.169718 -3.0044703 1.9717056
11.171126 -2.9802964 1.9756336
11.356115 -3.0356002 1.9637035
11.360553 -3.0118141 1.9603955
11.374058 -3.0010815 1.9624099
11.577049 -3.0217535 1.9397838
11.564369 -3.0110624 1.9367111
11.578465 -3.0029752 1.9424114
11.769368 -3.0281582 1.9254521
11.788991 -3.0199745 1.9183586
11.780171 -3.0070553 1.9295634
11.984062 -3.0259571 1.9115236
11.978853 -3.0071788 1.9118992
11.979535 -2.9881854 1.9002054
12.190162 -3.0281124 1.8855389
12.189569 -3.0133848 1.8828273
12.204171 -2.9955637 1.8946643
12.389153 -3.0152657 1.8605968
12.406401 -3.0134256 1.872879
12.404509 -2.9961903 1.8769157
12.589173 -3.0185845 1.8595928
12.611409 -3.0074673 1.8538058
15.507799 -0.96115327 1.6105396
15.525747 -0.95101482 1.6238761
15.517072 -0.92178637 1.6091639
15.528926 -0.90813011 1.6145836
15.512845 -0.88406694 1.6244211
15.516727 -0.86507589 1.6255305
15.52293 -0.82993937 1.6151799
15.517474 -0.82328129 1.6212877
15.526464 -0.78685731 1.6181901
15.326345 -0.76044112 1.644704
15.332914 -0.73820281 1.6420214
15.336284 -0.7193656 1.6278253
15.33296 -0.69052362 1.6412036
15.334894 -0.67111647 1.6265824
15.342218 -0.64904958 1.6343668
15.339351 -0.64432889 1.6394829
15.337562 -0.61460394 1.6380745
15.345392 -0.5915035 1.6416615
15.339301 -0.58055085 1.6400083
15.330082 -0.55187654 1.6330602
15.329504 -0.53769678 1.6269606
15.346213 -0.50118148 1.6383073
15.348696 -0.48899415 1.6371034
15.344527 -0.45584705 1.6339129
15.345708 -0.43632048 1.6313941
15.334643 -0.42057699 1.6321995
15.348664 -0.40750736 1.6413321
15.341248 -0.38746214 1.6321663
15.337387 -0.35433361 1.6325529
15.351845 -0.33121943 1.6402124
15.339323 -0.30944923 1.6406494
15.340673 -0.29170555 1.6361984
15.353339 -0.27218461 1.6425302
15.344772 -0.25750822 1.6406037
15.352984 -0.22229756 1.6367975
15.338648 -0.19876833 1.6273277
15.345086 -0.18180443 1.6295193
15.340629 -0.17281425 1.6303475
15.346974 -0.14821079 1.6428945
15.353677 -0.12964728 1.6371454
15.348009 -0.10407197 1.6317556
15.342748 -0.077584408 1.6426978
15.353006 -0.058837973 1.6317488
15.349566 -0.029036546 1.6340634
15.344171 -0.011370682 1.6301755
15.364571 0.014483107 1.7405385
15.365834 0.023658926 1.7543157
15.34926 0.048118245 1.7556688
15.353484 0.078695074 1.7402103
15.350225 0.095775962 1.7419002
15.361187 0.12702048 1.74775
15.36673 0.13286561 1.7386718
15.363185 0.16886018 1.7469242
15.34866 0.18133602 1.7435621
15.356421 0.2083666 1.7564498
15.360263 0.22614571 1.7509329
15.362304 0.24520342 1.7531623
15.358091 0.26773137 1.7384216
15.355202 0.29455763 1.7528282
15.356824 0.31822923 1.7428865
15.360106 0.33299699 1.7427603
15.349209 0.35347107 1.7470503
15.349202 0.37059367 1.7459061
15.357419 0.39341566 1.7558095
15.362244 0.42425168 1.7513155
15.359925 0.43921372 1.743173
15.352061 0.45652923 1.7526609
15.346396 0.48997554 1.74325
15.345961 0.50090551 1.7392391
15.339902 0.53386068 1.7574741
15.343871 0.55053097 1.7490517
15.347685 0.57676613 1.739679
15.355758 0.58348787 1.7460049
15.342657 0.61894852 1.7537297
15.339431 0.63978595 1.7508682
15.35168 0.65888786 1.7415471
15.335756 0.67073733 1.7481209
15.349291 0.69756371 1.746721
15.333385 0.72462618 1.7548321
15.333438 0.74633145 1.7544806
15.331696 0.7527377 1.7493823
15.341501 0.78371871 1.7491031
15.341905 0.80356437 1.7541308
15.328604 0.83113056 1.7532055
15.342999 0.83632058 1.7517051
15.334501 0.87464041 1.7478952
15.336653 0.89794737 1.7545247
15.325349 0.91572946 1.7465718
15.332615 0.93857563 1.7442738
15.327962 0.94247502 1.7422751
15.521862 0.97817808 1.7288907
15.531682 1.0125092 1.7414714
11.309935 -4.9847474 1.9845965
11.316931 -4.9742522 1.9843271
11.335007 -4.9615679 1.9880219
11.329109 -4.9328098 1.986447
11.333555 -4.9149203 1.9919245
11.352007 -4.9071898 1.9931861
11.361277 -4.8964238 2.0015683
11.361745 -4.8697238 1.996207
11.374855 -4.8527451 1.9845889
11.368313 -4.8372178 1.9998031
11.391588 -4.8344131 1.9920406
11.378937 -4.8115683 1.9989872
11.385994 -4.7975826 2.0028219
11.396724 -4.7764068 1.9996089
11.405857 -4.7576756 1.9984697
11.420445 -4.7473607 1.9892362
11.416272 -4.7346225 1.9949341
11.42046 -4.70824 1.991488
11.439264 -4.6955495 1.9891669
11.446427 -4.6761808 1.98651
11.448783 -4.660295 1.9907851
11.463353 -4.643796 2.0020227
11.464849 -4.6469531 1.9913543
11.470156 -4.6260715 1.985961
11.472227 -4.6027265 2.0033886
11.473138 -4.5914402 1.9952118
11.484792 -4.5709515 2.0038445
11.502122 -4.5528774 2.0029216
11.495984 -4.5425801 1.9987417
11.507502 -4.5316777 1.9979743
11.51634 -4.5049553 1.9971272
11.509432 -4.4901762 1.9968045
11.533738 -4.4803939 1.9973408
11.527354 -4.4517732 2.0027659
11.535554 -4.4475269 1.9955339
11.54116 -4.4287949 2.0035772
11.558565 -4.4048104 1.9960899
11.564582 -4.3898759 1.9906474
11.569653 -4.3874369 1.9994645
11.57052 -4.3598151 2.0031376
11.570599 -4.3496671 1.9974775
11.589808 -4.3327174 1.9905322
11.588671 -4.3177295 1.9972966
11.588048 -4.2953711 1.9966
11.592827 -4.2910357 1.984059
11.610353 -4.2672954 1.9941509
11.615898 -4.2523274 1.9921193
11.613934 -4.2374988 1.9889061
11.626505 -4.2237325 1.9920068
11.62787 -4.195209 1.9865959
11.632886 -4.1926951 1.9951909
11.632218 -4.1770387 1.9845846
11.644584 -4.148562 1.9928073
11.64369 -4.1467285 1.987221
11.662077 -4.1261134 1.9897944
11.667901 -4.1139493 1.9999238
11.663794 -4.0821919 1.9888287
11.677632 -4.0783291 1.996361
11.688234 -4.0478034 2.0014503
11.681915 -4.0417972 1.9988458
11.690162 -4.0166383 2.0025294
11.706981 -3.9979863 1.9856358
11.693171 -3.9927866 2.000977
11.707561 -3.9742751 2.0019016
11.716341 -3.9631481 1.9871829
11.727673 -3.9519467 1.9883622
11.729111 -3.9305792 1.9850248
11.73943 -3.901077 1.9892679
11.73726 -3.8866534 1.9877467
11.740156 -3.884208 1.9959333
11.740424 -3.8591514 1.9929729
11.744353 -3.8428886 1.9923505
11.751367 -3.8260264 2.0006061
11.753697 -3.8203416 1.9910436
11.77693 -3.7914209 1.9962709
11.765421 -3.7766907 1.9963546
11.775068 -3.7660217 2.0014532
11.781356 -3.750509 1.9996933
11.791862 -3.7226205 1.9959891
11.800826 -3.7172666 1.9983548
11.797953 -3.697052 1.9893939
11.812096 -3.6782935 2.0003049
11.805593 -3.6578841 1.99168
11.807324 -3.6404831 1.992334
11.819469 -3.6251659 1.9854956
11.816818 -3.6066513 1.9969666
11.834229 -3.6037595 2.0026786
11.836714 -3.5798283 1.987468
11.837417 -3.5706146 2.0037034
11.854392 -3.5376396 1.9888426
11.85371 -3.5327168 1.997739
11.864044 -3.5188065 1.9889297
11.865266 -3.4965312 1.984058
11.85784 -3.4776359 2.0001085
11.871045 -3.4716823 1.9949902
11.877388 -3.4534433 1.9918938
11.875179 -3.4228356 1.9951888
11.878659 -3.4147604 1.985908
11.886906 -3.3909776 1.9893267
11.891364 -3.3751917 1.9891995
11.900938 -3.3650365 1.997467
11.899385 -3.3494732 2.0031099
11.909001 -3.3375907 1.9944862
11.913721 -3.3180139 1.9882095
11.914469 -3.2900891 1.9913307
11.930075 -3.2806547 1.9961286
11.922562 -3.2582397 1.9949653
11.93832 -3.2571321 1.9853015
11.944774 -3.2325423 2.0028381
11.934624 -3.2082353 1.9995717
11.944323 -3.1990716 1.9898648
11.942266 -3.1761553 1.9991192
11.945829 -3.1682956 2.0036473
11.960746 -3.1403639 1.9911369
11.969362 -3.1363101 1.9899297
11.961076 -3.1212523 2.0015287
11.977565 -3.0982871 1.998908
11.972867 -3.0841196 2.0007541
11.978481 -3.0680301 1.9905427
11.981609 -3.0466006 1.9879844
11.981448 -3.0399578 1.9979298
11.991556 -3.0198345 1.9941254
11.990895 -3.0005877 2.0015082
12.188137 -3.0390973 1.9837571
12.199514 -3.004858 1.9697622
12.209661 -3.0032742 1.9741341
12.404981 -3.0169942 1.968387
12.404124 -3.0120194 1.9564917
12.405089 -2.9857297 1.9639766
12.609614 -3.0272226 1.9397889
15.528376 -0.95966208 1.7272288
15.338053 -0.9442625 1.7567737
15.338353 -0.91931528 1.7557896
15.33639 -0.89329773 1.7414659
15.326808 -0.87050366 1.7473185
15.328426 -0.85826647 1.7468786
15.32797 -0.8277573 1.7390742
15.334218 -0.81531549 1.7494724
15.332073 -0.77854526 1.7515121
15.342198 -0.76865631 1.7447696
15.335905 -0.73556536 1.7441926
15.342373 -0.71519822 1.7450749
15.341969 -0.69583386 1.7495147
15.34055 -0.67970538 1.7385805
15.344778 -0.65440297 1.7490469
15.334828 -0.62869602 1.7503556
15.34441 -0.60462999 1.7407767
15.346156 -0.59546977 1.7422411
15.338271 -0.56957895 1.739076
15.352396 -0.55465758 1.7443984
15.339748 -0.52709365 1.7414086
15.346494 -0.51409674 1.7573816
15.354091 -0.48250926 1.7513129
15.346099 -0.47331524 1.7399653
15.347142 -0.44083855 1.7525117
15.358623 -0.4192265 1.7493551
15.351381 -0.40891907 1.7488533
15.354531 -0.37772068 1.7560993
15.359116 -0.35523325 1.7478226
15.360505 -0.33941719 1.7530526
15.347187 -0.31701496 1.7444305
15.350849 -0.28860357 1.7473887
15.350454 -0.27330077 1.7405164
15.363961 -0.24666685 1.7414194
15.366091 -0.21963608 1.7533793
15.360737 -0.20174205 1.7455306
15.352196 -0.19167615 1.7465678
15.363123 -0.15901735 1.7573812
15.361267 -0.14230113 1.749259
15.351104 -0.12469266 1.7555292
15.36614 -0.10086969 1.742777
15.352526 -0.073822007 1.7570113
15.361839 -0.047576755 1.7451227
15.36425 -0.028202636 1.7384418
15.367535 -0.0070471489 1.757365
15.37156 0.011280141 1.8649579
15.358892 0.037946556 1.8689864
15.367231 0.055282112 1.8642457
15.366353 0.070532806 1.8547927
15.357324 0.095421888 1.8615198
15.374534 0.11517925 1.8506409
15.358962 0.1411829 1.8653806
15.357594 0.15639089 1.8649364
15.364308 0.17393096 1.8624369
15.364312 0.19470599 1.8596634
15.363209 0.23067583 1.8509434
15.357465 0.25399175 1.8674482
15.355721 0.26569098 1.8598467
15.369205 0.29658684 1.8660543
15.373206 0.31855708 1.8557093
15.363905 0.33787173 1.8636802
15.363695 0.36177871 1.8562137
15.358194 0.36451221 1.8625141
15.352221 0.39418358 1.8649141
15.363716 0.4241119 1.8666487
15.352409 0.43322039 1.8629133
15.352352 0.45689908 1.8610542
15.36877 0.47917625 1.8694552
15.357556 0.49531117 1.8673136
15.35252 0.5158509 1.8657043
15.357109 0.54752243 1.8619721
15.349639 0.55944687 1.8607101
15.354672 0.58636385 1.8607454
15.345977 0.60782915 1.8690168
15.359651 0.64134312 1.8657818
15.355029 0.64413232 1.8702214
15.346642 0.66747677 1.8569065
15.356367 0.68788117 1.8644367
15.354464 0.71774399 1.8666707
15.350388 0.74327272 1.868014
15.344672 0.75412238 1.8595996
15.355195 0.77826381 1.8616815
15.344426 0.80823052 1.869253
15.353662 0.83032286 1.856864
15.35114 0.84694082 1.856564
15.345353 0.85981882 1.8576295
15.343975 0.88522148 1.8606172
15.349254 0.90128958 1.862588
15.342031 0.93642426 1.8530021
15.337013 0.94848388 1.8675265
15.333309 0.97585893 1.8514836
15.341161 0.9948172 1.8581666
12.401483 -4.9730043 2.0115249
12.410572 -4.9664235 2.0059249
12.425558 -4.93645 2.006305
12.433228 -4.9269381 2.0145636
12.43627 -4.9189429 2.0002768
12.442349 -4.903357 2.001487
12.449273 -4.878397 2.0059741
12.458426 -4.8592658 2.0079849
12.459118 -4.8510423 2.0060616
12.460949 -4.8182087 2.0135767
12.475326 -4.8150339 2.011148
12.473876 -4.7897167 2.0179877
12.486803 -4.7763362 2.0174794
12.500086 -4.7621832 2.0091517
12.501602 -4.7318625 2.0114779
12.508808 -4.722312 2.0120394
12.5172 -4.6926637 2.000201
12.530053 -4.6806631 2.010124
12.524894 -4.6747489 2.0108914
12.537786 -4.6537561 2.0071039
12.53817 -4.6251154 2.0090928
12.556101 -4.6246281 2.0189915
12.560846 -4.5978947 2.0048542
12.56506 -4.5845342 2.0074434
12.56092 -4.5562887 2.002918
12.579082 -4.5474448 2.0104985
12.577782 -4.5367923 2.0102732
12.584619 -4.5198445 2.0045855
12.581353 -4.4945903 2.0073402
12.598831 -4.4829535 2.0136061
12.612497 -4.457418 2.0110223
15.333342 -0.96963048 1.8642995
15.33619 -0.95172411 1.8649956
15.347869 -0.93432683 1.8559597
15.333586 -0.92281717 1.8512089
15.336077 -0.88390636 1.8691311
15.34038 -0.86555654 1.8687437
15.33298 -0.84368777 1.85709
15.345896 -0.82604527 1.8677763
15.350614 -0.81316012 1.8583442
15.349513 -0.78513443 1.8682396
15.338719 -0.75556409 1.8670951
15.353698 -0.74450815 1.8624587
15.349343 -0.72310793 1.8538193
15.355923 -0.69729453 1.8552876
15.357721 -0.67026466 1.8542627
15.357411 -0.66017616 1.8701822
15.356686 -0.6387018 1.866563
15.364275 -0.60549587 1.8591774
15.362521 -0.58872765 1.8632662
15.351306 -0.57418472 1.8539685
15.349956 -0.5515303 1.8528273
15.367431 -0.5349623 1.8613268
15.36024 -0.5037846 1.8698099
15.36438 -0.48703313 1.8626881
15.349957 -0.46945882 1.8611765
15.354481 -0.43313944 1.8683326
15.354894 -0.41846246 1.8555408
15.351657 -0.39708158 1.8545314
15.361006 -0.37831062 1.8688656
15.354413 -0.35158172 1.8563168
15.358492 -0.32699946 1.8649955
15.361401 -0.30570838 1.8688141
15.372778 -0.29234493 1.8623812
15.372609 -0.27554855 1.8512697
15.365289 -0.25385109 1.8563013
15.356426 -0.22827739 1.8562202
15.37469 -0.20290804 1.8693832
15.360132 -0.18136224 1.8624934
15.364535 -0.17102568 1.8529398
15.363242 -0.14780955 1.86868
15.36937 -0.1210116 1.8675662
15.364148 -0.091773018 1.8663069
15.362714 -0.071594328 1.8569736
15.374817 -0.051992591 1.8629988
15.375778 -0.040089667 1.8692831
15.361742 -0.017397137 1.8597019
15.375586 0.0060868142 1.9663149
15.374567 0.031889971 1.9807696
15.366629 0.061837532 1.9641205
15.369106 0.070263661 1.969247
15.367294 0.10461956 1.9797306
15.384339 0.11358386 1.9780115
15.380095 0.14097509 1.9750298
15.366487 0.16036035 1.9702082
15.378874 0.18062805 1.975848
15.377515 0.20680974 1.9627384
15.366546 0.21882437 1.9688252
15.369895 0.2498349 1.9792621
15.367669 0.27295136 1.9781938
15.368764 0.29862022 1.9640987
15.374955 0.30258158 1.9629067
15.3716 0.32372162 1.9692265
15.366496 0.36078098 1.9814852
15.378381 0.38442641 1.9716771
15.365414 0.40068305 1.9806848
15.378056 0.41583496 1.9744227
15.377559 0.44030106 1.9787242
15.363119 0.46842998 1.9725856
15.359086 0.4746764 1.9681131
15.373955 0.50239122 1.9678599
15.374699 0.51670086 1.9701188
15.37422 0.54808885 1.9720691
15.360032 0.57483613 1.9696308
15.358072 0.59396076 1.9693907
15.366275 0.60064131 1.9639608
15.363455 0.64051735 1.9722368
15.354342 0.66047931 1.9635339
15.369503 0.66661394 1.9815158
15.358494 0.68935817 1.9643006
15.362983 0.72764361 1.973358
15.367188 0.74737513 1.9752836
15.353622 0.76736069 1.9671568
15.361978 0.77392012 1.9643377
15.347864 0.799312 1.9792051
15.353481 0.83372813 1.9793158
15.353638 0.84617627 1.9778665
15.342041 0.87039423 1.9749445
15.341711 0.89068347 1.9767234
15.339334 0.90090537 1.9798145
15.33971 0.93658733 1.9797601
15.349115 0.9574762 1.9780076
15.340415 0.96583068 1.9748126
15.343559 1.0036012 1.9767504
15.344718 -0.98165923 1.9662277
15.344783 -0.96030051 1.972437
15.338887 -0.93505543 1.9826512
15.339053 -0.90775925 1.9664247
15.339953 -0.89921069 1.9791558
15.350769 -0.87628514 1.9703469
15.351421 -0.85507596 1.9650719
15.355082 -0.8272475 1.9728527
15.344711 -0.8040579 1.9703026
15.355802 -0.79358637 1.9731089
15.348593 -0.76060289 1.98045
15.353236 -0.74891961 1.9677405
15.364058 -0.7244662 1.9788647
15.365066 -0.70115173 1.9758718
15.349816 -0.67821199 1.9800124
15.367268 -0.66570151 1.965662
15.355881 -0.63375306 1.9711022
15.359189 -0.61932975 1.9629508
15.370248 -0.59643263 1.9765671
15.358727 -0.56357032 1.9792317
15.369982 -0.55901289 1.9734547
15.368548 -0.53087795 1.9779346
15.374375 -0.51295626 1.96544
15.371296 -0.49503356 1.9748306
15.365194 -0.47333649 1.9657302
15.363204 -0.43513393 1.9677081
15.366833 -0.42923483 1.9802012
15.375872 -0.40091422 1.965683
15.376729 -0.3823913 1.9726261
15.371173 -0.35621628 1.9709944
15.368252 -0.33958289 1.972482
15.379523 -0.30515 1.9806652
15.375245 -0.28562722 1.96533
15.378442 -0.26989046 1.9664761
15.370999 -0.24093264 1.9678769
