# .PCD v0.7 - Point Cloud Data file format
VERSION 0.7
FIELDS x y z
SIZE 4 4 4
TYPE F F F
COUNT 1 1 1
WIDTH 1510
HEIGHT 1
VIEWPOINT 0 0 0 1 0 0 0
POINTS 1510
DATA ascii
-6.1624379 3.0305603 0.24886888
-6.1585717 3.0324695 0.24427228
-6.1540394 3.0192807 0.24426122
-6.158505 3.0130513 0.24605836
-6.3383098 3.0748351 0.18168239
-6.3322339 3.0786538 0.18620323
-6.3457561 3.0681367 0.17815749
-6.3553195 3.0533769 0.18913051
-6.3489485 3.0513985 0.1695542
-6.3598704 3.0377917 0.18721358
-6.3722019 3.030277 0.16953641
-6.3712583 3.0308449 0.18237744
-6.3748989 3.020149 0.1706447
-6.546586 3.0879869 0.10680894
-6.5485253 3.0682025 0.10696524
-6.5476084 3.0600932 0.11100151
-6.5672379 3.0427301 0.10853352
-6.5773363 3.0144873 0.10491704
-6.581214 3.0114596 0.10326843
-5.4996095 4.7485056 0.15026547
-5.4989934 4.7354403 0.16497789
-5.5146918 4.7386479 0.15477903
-5.5095925 4.7190495 0.16450346
-5.5137815 4.723 0.1676698
-5.5311852 4.709096 0.16159916
-5.5352635 4.7100611 0.15870771
-5.5335245 4.701561 0.15991616
-5.5442338 4.6906714 0.15217727
-5.5603328 4.6779385 0.15054952
-5.5550232 4.6724567 0.16264828
-5.5589623 4.6541896 0.14936857
-5.5681782 4.6468115 0.16699214
-5.5675821 4.6511106 0.15272212
-5.5772505 4.6377869 0.15011673
-5.5837417 4.633615 0.16133064
-5.5962925 4.6319098 0.16124186
-5.6117244 4.6184778 0.16039445
-5.6059361 4.6008596 0.15640832
-5.6078763 4.5936546 0.1674493
-5.631433 4.5982614 0.16077712
-5.62288 4.5854197 0.16361579
-5.4828582 4.4527855 0.23999949
-5.4897761 4.4444752 0.2353424
-5.5109534 4.4329548 0.22516671
-5.5147252 4.441391 0.23863354
-5.5072727 4.4237127 0.23821837
-5.5198979 4.4170289 0.2322033
-5.5333595 4.4025478 0.23641114
-5.5307965 4.4125304 0.22126429
-5.5371819 4.4053493 0.23858291
-5.5502286 4.3931031 0.23092768
-5.5604262 4.3825121 0.23557164
-5.5673647 4.3711996 0.23958901
-5.558949 4.3648963 0.23977841
-5.5606985 4.3609962 0.23610482
-5.5689707 4.3507133 0.22246256
-5.5776467 4.3339591 0.22985454
-5.5923266 4.329886 0.23049206
-5.6027884 4.3345079 0.22884758
-5.608386 4.3188663 0.22776578
-5.5966535 4.316288 0.22219013
-5.612566 4.3096128 0.23378433
-5.6238232 4.3020878 0.22183572
-5.631052 4.2890563 0.23136158
-5.6380806 4.2803426 0.22477382
-5.6287718 4.2694139 0.23569825
-5.4843593 4.1439204 0.31080768
-5.5011225 4.141923 0.29652017
-5.4972377 4.135488 0.29467502
-5.5149865 4.1294684 0.30501667
-5.5138059 4.1211834 0.3006174
-5.5181909 4.1229777 0.29738823
-5.5309701 4.0994949 0.29448801
-5.5356879 4.0947523 0.3064186
-5.5308685 4.0889397 0.297506
-5.5526261 4.0783834 0.30554324
-5.5434489 4.0694408 0.30790809
-5.5522866 4.0695047 0.2959632
-5.5554013 4.0592117 0.30527911
-5.5603504 4.0569181 0.29627955
-5.5749464 4.0415416 0.30670679
-5.5739312 4.0275068 0.30664793
-5.5761342 4.0264082 0.31083396
-5.5812268 4.0262966 0.29801333
-5.5943775 4.0166984 0.30712387
-5.5964303 4.0110254 0.31342974
-5.6104345 4.0002022 0.29855299
-5.6220632 3.9862027 0.31150749
-5.6256256 3.9747391 0.30194473
-5.6198611 3.9639666 0.29787171
-5.6230855 3.9642265 0.30621356
-5.6358714 3.9511199 0.30831987
-5.648705 3.9414172 0.29713431
-5.4844942 3.8259699 0.38678783
-5.5057926 3.8294194 0.38152981
-5.4979692 3.816391 0.37842929
-5.5038295 3.8149223 0.37234393
-5.5045557 3.8073776 0.38010499
-5.5123167 3.8018124 0.38425633
-5.5296297 3.7875426 0.38549659
-5.5310049 3.7755687 0.37486601
-5.5440278 3.7763178 0.37900567
-5.5349331 3.769731 0.38132736
-5.5370131 3.7599945 0.38234279
-5.5425649 3.7542877 0.37449414
-5.5533638 3.7417212 0.38131106
-5.5672522 3.7286005 0.37436044
-5.567215 3.7200494 0.36757395
-5.5794063 3.709022 0.38293841
-5.5674348 3.705956 0.37175661
-5.5742126 3.706778 0.37633166
-5.59161 3.6998298 0.369394
-5.5848565 3.6872182 0.3836152
-5.5957708 3.6777573 0.37585279
-5.6056585 3.6679647 0.37014377
-5.603384 3.6725829 0.3796356
-5.6142817 3.6485109 0.38378167
-5.6121187 3.6496637 0.36715859
-5.6167316 3.6438022 0.36729753
-5.6259689 3.635078 0.37216678
-5.6263771 3.6247311 0.38566175
-5.6421995 3.6221309 0.38001958
-5.644948 3.6114171 0.36958376
-5.4963021 3.4951565 0.45064801
-5.4924312 3.4940941 0.45661646
-5.4942579 3.480407 0.45504254
-5.5065827 3.4809122 0.45724341
-5.5147505 3.4686587 0.44845083
-5.5195303 3.4568603 0.44165769
-5.5241609 3.4608815 0.45400816
-5.523911 3.4495404 0.44388667
-5.5301552 3.4474123 0.45904708
-5.5420313 3.4275591 0.45138291
-5.544332 3.4242022 0.45510939
-5.5386939 3.4095795 0.44545716
-5.5470762 3.4179819 0.44980821
-5.5570216 3.3989007 0.44236147
-5.5647554 3.3964827 0.45036522
-5.5612707 3.3941045 0.45428124
-5.5645685 3.3719051 0.44993585
-5.5755048 3.3747537 0.44197345
-5.5765519 3.3561454 0.45961359
-5.5824275 3.3504381 0.44513813
-5.5959563 3.3471956 0.45505008
-5.5857477 3.334347 0.4580901
-5.6051807 3.3378603 0.45728979
-5.6002517 3.3161616 0.44517261
-5.6027584 3.3114522 0.45840806
-5.6172504 3.314939 0.45704257
-5.6078153 3.2998295 0.44126159
-5.622715 3.2984736 0.45611966
-5.6255655 3.28075 0.46016645
-5.6307654 3.2818191 0.44630936
-5.6304297 3.2740171 0.45701998
-5.6401711 3.26107 0.44269842
-5.6468611 3.2533259 0.45971319
-5.6543407 3.2351358 0.44285893
-5.6539264 3.239053 0.44913107
-5.4984179 3.1411221 0.51986837
-5.5059834 3.1294034 0.530209
-5.5093188 3.1273663 0.52704906
-5.4977856 3.107049 0.51402718
-5.5021949 3.106091 0.52994257
-5.5204506 3.0900173 0.52593023
-5.5279851 3.0887399 0.5168516
-5.52983 3.0852983 0.52791595
-5.5346494 3.0788929 0.52868354
-5.5363121 3.0574062 0.52126795
-5.5316925 3.0540736 0.51578647
-5.5494599 3.0475297 0.52627248
-5.5368762 3.0419934 0.52241373
-5.5474415 3.0323231 0.52593595
-5.5510178 3.0225654 0.51620471
-5.5586681 3.0188632 0.51811022
-5.5703197 3.0119274 0.52645463
-5.7350235 3.0955279 0.44594434
-5.7247906 3.0902669 0.45989278
-5.733779 3.0676112 0.46008891
-5.7501717 3.0738325 0.44469279
-5.7520342 3.0665324 0.45049912
-5.7434001 3.0560517 0.45852157
-5.7586131 3.0392306 0.44463187
-5.7502928 3.0430472 0.44874859
-5.7716928 3.0234165 0.45693308
-5.7711754 3.0163264 0.44595751
-5.7623029 3.0126984 0.45827234
-5.9461117 3.08916 0.38020709
-5.9507618 3.0751214 0.38064429
-5.955204 3.0689611 0.37533134
-5.9550309 3.0651977 0.3707529
-5.9490395 3.0543172 0.38373432
-5.9550142 3.0524607 0.36794096
-5.9748673 3.0431507 0.38401634
-5.970592 3.0366554 0.36851931
-5.9781203 3.0148811 0.37399638
-5.9766121 3.0061717 0.38391545
-6.1492748 3.0863993 0.29967299
-6.1604743 3.082787 0.30284035
-6.1512246 3.0790095 0.30816606
-6.1672759 3.0596712 0.29805288
-6.1678939 3.0505779 0.30538961
-6.175518 3.0397525 0.29920626
-6.1789236 3.0333049 0.31205508
-6.1862416 3.0353522 0.30675712
-6.189045 3.0140789 0.30803883
-6.1863585 3.0185091 0.3089712
-6.3613844 3.0818717 0.22211479
-6.3599744 3.0771756 0.23338605
-6.3753848 3.0660057 0.22949021
-6.3654571 3.0630488 0.2348721
-6.3856301 3.0437269 0.23978296
-6.3784537 3.0410211 0.22249642
-6.3774486 3.0391383 0.22739646
-6.3835821 3.0141537 0.22298373
-6.3950009 3.0105705 0.2259434
-6.573772 3.0926664 0.14884931
-6.5630617 3.0725236 0.1559974
-6.5660591 3.0580711 0.16734682
-6.5777721 3.0524769 0.15642975
-6.5933685 3.0410662 0.15146534
-6.5835705 3.0337262 0.15609436
-6.5888481 3.0377936 0.16693896
-6.5913997 3.0270851 0.16482797
-5.5311251 5.0016966 0.14252606
-5.5543585 4.994071 0.1335036
-5.5517664 4.98557 0.14406571
-5.5644283 4.9906778 0.13996962
-5.5568357 4.9820652 0.13763791
-5.5746932 4.9741149 0.12915617
-5.572556 4.9672208 0.13153227
-5.5823665 4.954031 0.12977742
-5.6014094 4.9528117 0.13034175
-5.6071568 4.9446583 0.13756719
-5.6037569 4.9344831 0.14239785
-5.6171575 4.9280357 0.14735518
-5.6195698 4.9111319 0.13157347
-5.6314087 4.9085059 0.14867111
-5.4861975 4.7782159 0.21671125
-5.504272 4.7593703 0.21281871
-5.5108171 4.7695694 0.20983274
-5.5149755 4.7568545 0.20146732
-5.5208778 4.7519832 0.2197022
-5.5262055 4.7282395 0.21761331
-5.5242963 4.7347598 0.21318835
-5.5375462 4.7147326 0.21016511
-5.5458274 4.7191358 0.21809621
-5.54988 4.6985312 0.21126953
-5.5568237 4.6888227 0.2042166
-5.5674901 4.6876793 0.20600764
-5.5820379 4.6866188 0.20569679
-5.5795612 4.6680169 0.22037971
-5.5854387 4.6701193 0.21790875
-5.5930705 4.6534905 0.21942113
-5.6027803 4.6453552 0.21518965
-5.5969043 4.6505451 0.21867624
-5.6140399 4.6340165 0.21432035
-5.6232343 4.6199884 0.21712352
-5.6192441 4.6255584 0.21799123
-5.6222954 4.6069932 0.20549724
-5.498724 4.4826055 0.29150695
-5.5001092 4.4852009 0.27494165
-5.5068007 4.4684172 0.28828806
-5.5159526 4.4704895 0.27282372
-5.523581 4.4493289 0.27705175
-5.5154305 4.4405107 0.27430576
-5.5237823 4.441011 0.28287682
-5.536479 4.4387617 0.28527427
-5.5463619 4.4269352 0.28110504
-5.5553665 4.4184799 0.28624284
-5.5568542 4.4151855 0.27266881
-5.5640945 4.3967419 0.28937817
-5.5678892 4.3978319 0.27700067
-5.5783272 4.3759847 0.27440095
-5.584218 4.3727126 0.27835479
-5.5858703 4.3637838 0.28121299
-5.5902572 4.3526855 0.29230312
-5.6060624 4.3550611 0.28888378
-5.5994592 4.3537145 0.281387
-5.6170144 4.3295131 0.27319181
-5.6094208 4.3299632 0.28946832
-5.6153903 4.3293004 0.27507573
-5.6246395 4.3109603 0.28955621
-5.626255 4.3082886 0.28998101
-5.4817729 4.192945 0.34670708
-5.5018549 4.175118 0.35053971
-5.4990683 4.178978 0.35109103
-5.5051804 4.1730952 0.36184379
-5.5147009 4.1598678 0.35908404
-5.5117078 4.1551266 0.35996538
-5.5168991 4.1440091 0.34914759
-5.5258031 4.1329412 0.34552658
-5.5290885 4.1186328 0.35143307
-5.5378828 4.108706 0.36254418
-5.5462418 4.1005611 0.35907269
-5.5496368 4.0981522 0.3454594
-5.5691886 4.0843372 0.36339912
-5.5681782 4.0902066 0.36315772
-5.5764041 4.072341 0.35739854
-5.587379 4.0632429 0.35461569
-5.5774617 4.0547185 0.34844103
-5.598351 4.0630431 0.35893244
-5.6028509 4.0538249 0.36285713
-5.6014328 4.0415435 0.34460482
-5.6088929 4.0266252 0.3459655
-5.6198134 4.0140209 0.35268304
-5.6243367 4.0075645 0.35335946
-5.630909 4.0078073 0.34768692
-5.6377115 4.0055013 0.35193822
-5.6302624 3.9978876 0.35488948
-5.6455855 3.985847 0.35712156
-5.4942369 3.8713698 0.42726517
-5.5050716 3.8654327 0.42423829
-5.5119705 3.8465369 0.41675967
-5.5171113 3.8457932 0.42219931
-5.5208802 3.8397305 0.42287996
-5.517921 3.8347354 0.42495698
-5.5142746 3.8287475 0.43513706
-5.5362902 3.8215258 0.43087968
-5.5340433 3.8073106 0.4268845
-5.5488343 3.8033195 0.41873261
-5.5413828 3.7833776 0.43118724
-5.5555501 3.7779765 0.4253906
-5.5527334 3.7710407 0.4283914
-5.5573845 3.7643182 0.4183495
-5.5565853 3.7591693 0.42995319
-5.5750942 3.7623122 0.42427754
-5.5715156 3.7544227 0.42033732
-5.5777454 3.7298284 0.41690588
-5.588222 3.7327807 0.42699742
-5.5826831 3.7262311 0.4208433
-5.6052852 3.7124114 0.42250016
-5.5954213 3.7096918 0.42651612
-5.6113434 3.6950457 0.43136394
-5.6042538 3.680994 0.41726413
-5.6271949 3.6729772 0.42579785
-5.6185217 3.6716752 0.42526385
-5.6355128 3.6591651 0.4246372
-5.6364331 3.6656275 0.42722046
-5.6407743 3.6468046 0.42056754
-5.6350126 3.6387014 0.43518361
-5.4982047 3.5324678 0.49557924
-5.496778 3.5221744 0.48931506
-5.5113244 3.521107 0.49624503
-5.5010118 3.5122664 0.49697107
-5.5047889 3.5056107 0.49753475
-5.5200214 3.4927437 0.50465828
-5.5157771 3.4879897 0.50714093
-5.5321488 3.4874084 0.50396204
-5.5259261 3.4675686 0.48984346
-5.5263457 3.4585617 0.49551201
-5.5321383 3.4542336 0.5035426
-5.5492978 3.4562414 0.48896462
-5.552711 3.4486005 0.50101101
-5.5491834 3.4361594 0.49191546
-5.5649185 3.424818 0.50386965
-5.5600791 3.42311 0.4906691
-5.5681057 3.4105015 0.50043356
-5.5736384 3.4063656 0.49734268
-5.5823393 3.393286 0.50214452
-5.5851479 3.3846097 0.50567889
-5.5822768 3.3749526 0.49263123
-5.5913644 3.372937 0.48934406
-5.5950193 3.3722987 0.5061757
-5.6066165 3.3599679 0.49833235
-5.6072984 3.3566706 0.5069204
-5.616015 3.3429701 0.50158
-5.6179214 3.3259907 0.49141723
-5.6300526 3.3282144 0.50491154
-5.6252632 3.3264625 0.49312562
-5.6356611 3.3066165 0.50046933
-5.6425142 3.2943449 0.50596851
-5.6424031 3.2976785 0.4972713
-5.6455688 3.2820389 0.49576163
-5.6518917 3.2794731 0.4897534
-5.4842563 3.1677597 0.56005991
-5.4896822 3.1653299 0.57273799
-5.5004382 3.165632 0.57628822
-5.5013461 3.1584303 0.56992042
-5.508749 3.1406341 0.56966549
-5.5079269 3.1370451 0.57743573
-5.5197506 3.1311979 0.560812
-5.5260639 3.1300445 0.57540578
-5.5210638 3.1102982 0.56225061
-5.5375628 3.1087902 0.57442629
-5.5400591 3.0976775 0.57591724
-5.5440116 3.0855479 0.56266195
-5.535275 3.0870614 0.57739842
-5.5429773 3.0720549 0.57262915
-5.5570369 3.0740228 0.57776558
-5.5513401 3.0611792 0.56702125
-5.5578628 3.0608678 0.57814372
-5.560998 3.0385878 0.5758332
-5.5695286 3.0456421 0.56150252
-5.5712032 3.0205209 0.57339633
-5.5806918 3.0172162 0.56191576
-5.5886779 3.014261 0.56605011
-5.7544832 3.0924463 0.50767487
-5.7610898 3.0788667 0.49382296
-5.7524543 3.0754972 0.48970136
-5.7586708 3.0620823 0.50050449
-5.7756205 3.0663929 0.49877062
-5.7814369 3.051805 0.50253701
-5.7695522 3.0529125 0.50114393
-5.771987 3.0365601 0.5024218
-5.7825165 3.0349233 0.48819298
-5.7845154 3.0294936 0.49881276
-5.8023686 3.0070152 0.50731468
-5.9527206 3.0878 0.41850907
-5.9711242 3.0756967 0.42615855
-5.9736381 3.0816488 0.42845073
-5.9853368 3.0749114 0.4231168
-5.9787579 3.0666072 0.43126422
-5.9884009 3.054426 0.42859426
-5.979425 3.0440366 0.41765296
-5.9891601 3.027333 0.43316212
-5.9931116 3.032835 0.43133441
-6.0064321 3.0246766 0.43512723
-6.1783257 3.0995059 0.35046113
-6.1802692 3.0767381 0.35380745
-6.174551 3.0757344 0.35145396
-6.1865287 3.0672979 0.35071728
-6.1838279 3.0496953 0.35003662
-6.1929679 3.0466924 0.34554067
-6.2047658 3.0368965 0.35902736
-6.2074928 3.0215852 0.36418846
-6.2146983 3.02653 0.36323524
-6.2037196 3.0023506 0.36251318
-6.3771687 3.0784578 0.28999269
-6.3953786 3.0757666 0.27511239
-6.3902297 3.0630703 0.28786907
-6.3874216 3.0626609 0.28083614
-6.4053378 3.0492048 0.28485307
-6.4039221 3.0308492 0.27452576
-6.4069896 3.024924 0.28306699
-6.4165583 3.0204885 0.28496742
-6.4209533 3.0130513 0.28048897
-6.5955253 3.0795736 0.2087398
-6.6016798 3.0660346 0.21265033
-6.6085691 3.0585663 0.20279846
-6.6103258 3.0605154 0.20918503
-6.5993128 3.0495279 0.20410304
-6.6153202 3.0448675 0.21451157
-6.6072974 3.0258536 0.21551707
-6.6295891 3.0279899 0.21955609
-6.7934322 3.0816572 0.13635044
-6.8053632 3.0779915 0.14645132
-6.8017597 3.0731707 0.13326201
-6.7981191 3.0664728 0.13575201
-6.810554 3.0571506 0.13999809
-6.8128276 3.030324 0.13542339
-6.8287015 3.0187495 0.12909749
-6.8296442 3.0153944 0.14735334
-5.5715098 4.9984612 0.18944216
-5.5753593 4.9973631 0.18753387
-5.5754066 4.9880481 0.18463849
-5.5870147 4.9832778 0.19851819
-5.5981874 4.9822397 0.20066829
-5.6021471 4.9668679 0.19298814
-5.6030731 4.9491382 0.20098945
-5.6233068 4.9454322 0.19319899
-5.6285353 4.9485302 0.2034861
-5.6279268 4.9442191 0.18519449
-5.5044861 4.8001108 0.25884745
-5.5054445 4.8022304 0.26878825
-5.5083008 4.7912517 0.25721708
-5.5140414 4.7756028 0.26868841
-5.5258913 4.7757082 0.26694414
-5.5355806 4.7587705 0.25765991
-5.5329394 4.7478113 0.25848752
-5.5422859 4.7435126 0.26346061
-5.559412 4.740869 0.25939289
-5.5462399 4.7257061 0.25888443
-5.5713491 4.7196598 0.26506916
-5.5732012 4.7193341 0.26106608
-5.5851016 4.7028203 0.27378637
-5.588563 4.7072239 0.25856897
-5.5805416 4.6864233 0.2711775
-5.5942535 4.6825695 0.2545779
-5.5972385 4.6879821 0.25475839
-5.5993857 4.6706624 0.25838858
-5.6165481 4.6628199 0.26713243
-5.6177678 4.6547418 0.26848015
-5.6194849 4.6481371 0.27155781
-5.635006 4.6462502 0.26209497
-5.4896259 4.5204964 0.3343201
-5.4962425 4.4965601 0.3283447
-5.5180655 4.5071836 0.32938159
-5.5072699 4.4906225 0.33438641
-5.5130625 4.4775934 0.33263478
-5.5186644 4.4689226 0.34140348
-5.5406246 4.4695845 0.33017898
-5.5338306 4.4555106 0.33873475
-5.5456781 4.4461927 0.32855269
-5.5544372 4.4478154 0.3443605
-5.5526481 4.4363761 0.34082663
-5.5690303 4.4245944 0.34104836
-5.5713768 4.4172535 0.33959433
-5.5726757 4.4069614 0.3292889
-5.5889587 4.397119 0.33367217
-5.5869827 4.387907 0.33711186
-5.5962272 4.3829546 0.32894889
-5.5966849 4.3910069 0.33445629
-5.6085758 4.3734107 0.33839875
-5.6106381 4.3732443 0.33172566
-5.6168818 4.3610444 0.34138325
-5.6266479 4.3586287 0.32703817
-5.6361818 4.340023 0.33313963
-5.6471586 4.3262634 0.33674532
-5.4996462 4.2087483 0.40872055
-5.4963646 4.2131467 0.40888959
-5.5096326 4.1944137 0.41192839
-5.5110526 4.181324 0.41084957
-5.5269547 4.1824346 0.40001357
-5.5189033 4.1675625 0.39685833
-5.5375142 4.1725154 0.40935907
-5.5264568 4.1537604 0.40730897
-5.5497341 4.1515188 0.41452572
-5.5468984 4.1443362 0.39586395
-5.5604467 4.1419072 0.40118313
-5.5524158 4.1286159 0.39859104
-5.5642052 4.1279011 0.40496421
-5.5729446 4.1116004 0.40595463
-5.5827522 4.1052213 0.39577004
-5.583385 4.0927057 0.39843625
-5.587162 4.0873809 0.41378674
-5.5984278 4.0789042 0.39812118
-5.591732 4.0729308 0.40796101
-5.5978088 4.0755625 0.3983736
-5.6025367 4.0504045 0.41412088
-5.6219344 4.0590248 0.40434802
-5.6239128 4.0415931 0.40163997
-5.6195078 4.0411472 0.41041857
-5.6341009 4.0366092 0.40061325
-5.6388674 4.0171428 0.40609574
-5.4881487 3.9114614 0.48447195
-5.4947257 3.8885419 0.47178379
-5.4969578 3.8779898 0.4809497
-5.5093389 3.8870213 0.48058227
-5.5112972 3.8769753 0.48289993
-5.5174971 3.8731709 0.48168904
-5.5334592 3.8530157 0.47090507
-5.5321188 3.8428831 0.4675422
-5.5419884 3.8437634 0.46751592
-5.5416532 3.8254721 0.4759056
-5.5358243 3.8306756 0.47463542
-5.5420156 3.8147242 0.47813031
-5.560884 3.8019524 0.47876507
-5.5705762 3.8021998 0.47613129
-5.5606246 3.7858796 0.47115871
-5.5683446 3.7887387 0.47009632
-5.5772643 3.7810042 0.47660103
-5.5769572 3.7799683 0.48070288
-5.5800023 3.7544096 0.47342235
-5.5830626 3.7545223 0.47559533
-5.5977225 3.7457895 0.47072387
-5.5936413 3.7361801 0.4776606
-5.6060548 3.7330058 0.47959256
-5.6178222 3.7254326 0.46954659
-5.6122122 3.7130933 0.47096217
-5.6315641 3.7183051 0.483026
-5.6319675 3.6998575 0.47515202
-5.625855 3.6869664 0.47404599
-5.6356297 3.6762691 0.47519237
-5.6526742 3.6677392 0.48427022
-5.4903321 3.5681286 0.54284835
-5.4899106 3.5596621 0.54924297
-5.502542 3.543978 0.54030377
-5.5132308 3.5417106 0.55163908
-5.5139551 3.5302262 0.53848988
-5.5132527 3.5245526 0.53841472
-5.5204754 3.5236268 0.54776132
-5.535562 3.5139539 0.55209339
-5.531743 3.4996359 0.55361187
-5.5267677 3.493392 0.55449128
-5.5327029 3.4973953 0.54529595
-5.550457 3.4867742 0.55531991
-5.5418053 3.4684658 0.5373522
-5.5620823 3.4644017 0.54481649
-5.5510125 3.4645362 0.54850286
-5.5730815 3.450285 0.55422854
-5.5752149 3.4337115 0.54674858
-5.5679903 3.4269419 0.53732264
-5.5764232 3.4288704 0.54131234
-5.5833268 3.4206433 0.54679871
-5.5893397 3.4113386 0.54403561
-5.5845375 3.4091268 0.53840566
-5.5896997 3.400403 0.54222816
-5.6128192 3.3962278 0.54975426
-5.6084633 3.3879366 0.54518926
-5.6204104 3.3823802 0.55415392
-5.6266203 3.3594835 0.55433303
-5.6202998 3.3485928 0.5555371
-5.623394 3.3540406 0.54647094
-5.6224871 3.3373454 0.53698546
-5.6360831 3.3393862 0.5460096
-5.6324315 3.3309681 0.54064322
-5.6543984 3.3221149 0.55438071
-5.6525321 3.3148589 0.55177736
-5.5012803 3.202601 0.61913091
-5.4962997 3.1973805 0.61836839
-5.5023432 3.190634 0.62256318
-5.5081973 3.1948812 0.62372798
-5.5128365 3.1806962 0.61820775
-5.5065312 3.1720691 0.62386584
-5.5097003 3.1544859 0.61944497
-5.5238347 3.1451836 0.6144926
-5.5233245 3.1385324 0.60858005
-5.5290661 3.1383545 0.62331104
-5.5374007 3.1321764 0.60775363
-5.5487776 3.115433 0.61466205
-5.5409064 3.1170888 0.62251633
-5.5488296 3.1173232 0.62231654
-5.5555768 3.0973401 0.61563683
-5.5678334 3.0880735 0.60804093
-5.5544214 3.0800376 0.61057913
-5.5654192 3.082257 0.61153847
-5.5813589 3.069365 0.61357611
-5.5832 3.0550992 0.62317163
-5.5702991 3.0568564 0.61433071
-5.5929446 3.0515828 0.61649424
-5.5886712 3.038516 0.60806751
-5.5965323 3.0218508 0.60763502
-5.6045823 3.022752 0.61498547
-5.5993013 3.0156994 0.62084121
-5.7667608 3.0944786 0.53603208
-5.7666383 3.0781829 0.55163342
-5.7855449 3.0702181 0.54213285
-5.782403 3.0646718 0.54616249
-5.7896543 3.0562747 0.53975123
-5.7857351 3.0494697 0.53587425
-5.7996411 3.0511651 0.54674429
-5.8019624 3.0292151 0.5487687
-5.8047051 3.0234201 0.53951985
-5.8000855 3.0271003 0.55104977
-5.8095994 3.01266 0.54106861
-5.9799933 3.0882177 0.47245842
-5.9884043 3.0833392 0.47437045
-5.9863038 3.0658753 0.47882187
-6.0001621 3.0654213 0.48296803
-6.0004201 3.0531363 0.46840683
-6.0045433 3.0511837 0.48364463
-6.0177851 3.0311372 0.48504207
-6.0089903 3.0325642 0.46875992
-6.0094328 3.0228148 0.4842793
-6.0183334 3.0077453 0.4734855
-6.1848717 3.0962012 0.41039473
-6.2020493 3.077054 0.40120417
-6.1973023 3.0642853 0.40292704
-6.2080922 3.0619247 0.41257921
-6.2147236 3.0635607 0.39833575
-6.2159042 3.0453167 0.41053516
-6.2218351 3.0380623 0.41108921
-6.226356 3.0238223 0.40147725
-6.2271471 3.0133479 0.41052905
-6.2324066 3.0181687 0.41293019
-6.3972621 3.0892024 0.33855695
-6.4060874 3.0662131 0.34410864
-6.4040909 3.0722468 0.32556239
-6.4203591 3.051755 0.33333218
-6.4269624 3.0488842 0.33142078
-6.4277964 3.0490727 0.3399539
-6.4364185 3.0275588 0.3299273
-6.4444742 3.0257397 0.33436114
-6.4421296 3.0073333 0.3370268
-6.6205378 3.0866299 0.26281831
-6.6268244 3.0750568 0.25787014
-6.6170645 3.0589383 0.25889221
-6.6217399 3.0490837 0.25491363
-6.6249485 3.0472162 0.25941494
-6.6403742 3.0429876 0.27002287
-6.6376987 3.022155 0.2698029
-6.6464767 3.0169175 0.25705829
-6.8159552 3.0846984 0.20108266
-6.8304076 3.0819087 0.18610892
-6.8221807 3.0747082 0.20066783
-6.8377423 3.0654976 0.19290359
-6.8382382 3.0503111 0.19827674
-6.8376989 3.0347004 0.2030573
-6.841125 3.0201192 0.19523816
-6.8400359 3.0143373 0.19246438
-7.0198607 3.0904014 0.12773038
-7.0284615 3.066689 0.11745154
-7.0297933 3.0683708 0.12737572
-7.0366802 3.059881 0.12404602
-7.0385265 3.043885 0.12305734
-7.0458007 3.0365818 0.12240569
-7.0408249 3.0330226 0.11612107
-7.0504627 3.0142303 0.12378515
-5.6070628 5.003911 0.25423831
-5.6020298 4.9880505 0.24817364
-5.6062493 4.9810977 0.25473931
-5.6181421 4.9892302 0.23972574
-5.6153941 4.9737372 0.24939196
-5.4810829 4.8411183 0.32351846
-5.5041547 4.8310409 0.30939201
-5.5092826 4.822031 0.31666392
-5.5036454 4.8079414 0.32020488
-5.5180941 4.8055367 0.32007071
-5.5207868 4.7981033 0.31080753
-5.5317445 4.802659 0.31351778
-5.5287561 4.7899413 0.31711906
-5.5391912 4.7722654 0.31670633
-5.5446291 4.7642617 0.30866387
-5.56039 4.7564301 0.31972286
-5.5710506 4.7522564 0.30838972
-5.5758271 4.7496734 0.3157413
-5.5733209 4.7394347 0.31670782
-5.5872622 4.7414451 0.32298303
-5.5813274 4.7274485 0.30954736
-5.6046443 4.7091699 0.30839989
-5.6052403 4.7005439 0.32227603
-5.6022243 4.708137 0.32622722
-5.6196098 4.6969352 0.30993491
-5.6250267 4.6766047 0.31358057
-5.6393738 4.6722345 0.32083091
-5.5002542 4.5502419 0.38232329
-5.498394 4.5370145 0.3923372
-5.4955568 4.5364347 0.39216757
-5.506434 4.5283685 0.3858172
-5.5107355 4.5235519 0.38901287
-5.5161738 4.5046954 0.39141679
-5.5277252 4.4954009 0.38925678
-5.5353146 4.495255 0.38374713
-5.5391855 4.4962158 0.38576835
-5.5394001 4.4893422 0.39129025
-5.5523534 4.4633007 0.3821561
-5.5528407 4.4654431 0.38748118
-5.563303 4.4567361 0.37992167
-5.5739245 4.4434547 0.39199963
-5.5708852 4.4321632 0.38697392
-5.5846395 4.4417148 0.39081362
-5.5959787 4.4259844 0.39308912
-5.589467 4.4089246 0.38295808
-5.6084542 4.4142418 0.38153574
-5.6054091 4.4055829 0.38099626
-5.6168313 4.3901973 0.38218069
-5.6173768 4.3805408 0.39328167
-5.632586 4.3866272 0.38345832
-5.635344 4.3682866 0.38814503
-5.497303 4.2446294 0.45837769
-5.4928265 4.248138 0.45693308
-5.5044999 4.226469 0.44757578
-5.5138869 4.2174625 0.44898432
-5.5133944 4.2156096 0.46354499
-5.5143132 4.2029305 0.45728964
-5.5357609 4.2049475 0.46350056
-5.5360131 4.1925268 0.44791514
-5.5451536 4.1909933 0.44628465
-5.5441065 4.1727872 0.45419082
-5.5583625 4.1699867 0.46086496
-5.5514116 4.1575665 0.45873404
-5.5658946 4.1593657 0.46262893
-5.5697241 4.13766 0.46522054
-5.572134 4.1423187 0.45367011
-5.5799727 4.1319189 0.45716012
-5.5940557 4.1259217 0.4503949
-5.5819168 4.1255112 0.45894471
-5.6053524 4.101788 0.4537048
-5.6104074 4.1049299 0.45801103
-5.6075454 4.0996227 0.44727707
-5.6179986 4.0870619 0.45189101
-5.6105714 4.0858035 0.44608057
-5.6192384 4.0664897 0.44634897
-5.6253033 4.070529 0.45906842
-5.6429071 4.0524826 0.4491888
-5.6370101 4.0460949 0.46112043
-5.5049458 3.9287233 0.52949536
-5.4970903 3.922703 0.5329349
-5.5144639 3.9173365 0.5273487
-5.5075207 3.9005301 0.52429599
-5.5113006 3.898958 0.51653123
-5.5304556 3.8904891 0.51536447
-5.5354104 3.8790188 0.52274829
-5.5400858 3.8671381 0.52204406
-5.5320311 3.863297 0.53117359
-5.5538449 3.8509855 0.52180338
-5.5437169 3.8434381 0.53181094
-5.5542397 3.849205 0.52348834
-5.5613127 3.8430459 0.51749706
-5.5739603 3.8292675 0.52240485
-5.5696507 3.8171356 0.53345358
-5.5730944 3.811264 0.5237543
-5.5776939 3.8058426 0.53031266
-5.5948987 3.8011396 0.53272629
-5.5927968 3.7898748 0.51904207
-5.6015549 3.7821679 0.52079707
-5.5996718 3.7699513 0.52276307
-5.6077704 3.7725623 0.51826167
-5.6041803 3.7534406 0.5153746
-5.6265712 3.747 0.52648979
-5.624043 3.7501879 0.53326118
-5.630455 3.7352393 0.52195668
-5.6265554 3.7209873 0.53303379
-5.636086 3.7148163 0.5272184
-5.6431928 3.716022 0.51795584
-5.4867702 3.5911596 0.59784895
-5.5056405 3.5962267 0.58432072
-5.5025344 3.5784373 0.60124338
-5.5039186 3.5694692 0.58689147
-5.5081792 3.5633307 0.59395349
-5.5213141 3.5649297 0.59206498
-5.5276666 3.5453153 0.60309696
-5.5253129 3.5547876 0.58775342
-5.5318713 3.5399058 0.59412247
-5.5442343 3.5230827 0.58958787
-5.5458488 3.5306349 0.59066284
-5.5365968 3.5243168 0.58449048
-5.5608621 3.5060945 0.58822131
-5.5481939 3.491467 0.59068352
-5.5698671 3.4975467 0.59471369
-5.564467 3.4754493 0.58805645
-5.5609446 3.471946 0.58950508
-5.5663795 3.4757321 0.58815348
-5.5871472 3.457885 0.59965408
-5.5815344 3.4525895 0.60207278
-5.5804458 3.4505825 0.59979141
-5.5982709 3.4427204 0.59894669
-5.6022577 3.4354746 0.58764136
-5.6025028 3.4257681 0.58947688
-5.6002746 3.4192491 0.58516747
-5.6140056 3.4029791 0.58654261
-5.6143823 3.3950701 0.59220314
-5.6332998 3.3865538 0.58944541
-5.6335578 3.382087 0.59664291
-5.6423044 3.3680384 0.58635378
-5.6286211 3.3598738 0.60187346
-5.637208 3.3586679 0.5973534
-5.6466289 3.3582482 0.59341681
-5.6473441 3.342346 0.58760947
-5.5043201 3.2384248 0.67216259
-5.5073547 3.2407377 0.65925771
-5.5090032 3.2274036 0.6662994
-5.5049806 3.2198706 0.67268711
-5.5037045 3.2167873 0.66247678
-5.5152206 3.2096543 0.66609341
-5.517015 3.2008903 0.66942728
-5.5232787 3.1882141 0.65944374
-5.5340519 3.1707807 0.65693569
-5.5287509 3.177285 0.66642702
-5.5292463 3.1695626 0.65490365
-5.534215 3.1633039 0.65338176
-5.5520778 3.139884 0.66622037
-5.5428882 3.1449637 0.65922695
-5.5472999 3.1357853 0.65685749
-5.5619106 3.1195462 0.65506846
-5.5728946 3.125957 0.67223519
-5.5605335 3.110538 0.66445154
-5.578145 3.1087687 0.66696656
-5.5782537 3.0967126 0.66372424
-5.5888605 3.0885625 0.66050386
-5.5909796 3.0798342 0.65877533
-5.5946093 3.0776231 0.66138381
-5.5853896 3.0689704 0.65683478
-5.6031528 3.0602643 0.6708762
-5.6032743 3.0412943 0.65645337
-5.6051741 3.0356772 0.65622264
-5.6098957 3.0267465 0.66835988
-5.6223903 3.0245192 0.66652095
-5.612359 3.0064867 0.66042525
-5.7912874 3.0902767 0.58494741
-5.7878194 3.0878625 0.59758979
-5.8060689 3.0860891 0.59583813
-5.8016987 3.0777955 0.59325701
-5.8018661 3.0559881 0.58979893
-5.8079805 3.0582974 0.59520584
-5.8085065 3.0429347 0.60283649
-5.8292522 3.0470665 0.58938336
-5.8178492 3.0229089 0.60155547
-5.8282733 3.0129774 0.60355377
-5.8247819 3.0140297 0.58907068
-5.9947824 3.0884254 0.53123772
-6.0051861 3.0830424 0.52877647
-6.0173292 3.0663023 0.52613539
-6.012042 3.0736561 0.52980655
-6.0302014 3.0591457 0.52391285
-6.0229416 3.0483477 0.53078794
-6.0280399 3.0410321 0.52993226
-6.0265794 3.0293353 0.53306258
-6.0329347 3.031419 0.53441077
-6.0372801 3.0211873 0.52496636
-6.2243381 3.0954392 0.46346116
-6.2120547 3.0801029 0.45401028
-6.2222204 3.0769012 0.45622554
-6.2350149 3.0632529 0.45420697
-6.2241263 3.0557003 0.44609603
-6.2391195 3.03965 0.45561132
-6.2472253 3.0427325 0.44624078
-6.2361746 3.0314951 0.4536095
-6.241981 3.0181096 0.45150372
-6.2464275 3.0045748 0.44761389
-6.4296927 3.0772893 0.3941527
-6.4361396 3.0654566 0.3830868
-6.432025 3.0677342 0.37751955
-6.4456825 3.0614808 0.38701046
-6.4413457 3.0503676 0.3776609
-6.4451079 3.048501 0.38097921
-6.4593415 3.0227563 0.39610428
-6.4629335 3.0122776 0.38872197
-6.4591441 3.0201952 0.37669015
-6.6278377 3.0866051 0.31082794
-6.6301284 3.0643294 0.31458285
-6.6368303 3.059886 0.31549513
-6.6545849 3.043824 0.30768088
-6.6578941 3.0383582 0.32261521
-6.6516991 3.0414705 0.31544432
-6.6548405 3.0250497 0.31542075
-6.6746511 3.0186114 0.31867212
-6.8305817 3.0896244 0.25143316
-6.8427305 3.0715392 0.25018051
-6.8468976 3.0593288 0.24562748
-6.8478765 3.049103 0.24808006
-6.8650866 3.0364382 0.25537634
-6.8613715 3.0302684 0.25590348
-6.8654571 3.0250263 0.24026397
-6.8745952 3.0102031 0.25704166
-7.0429969 3.0913708 0.17767225
-7.0594068 3.0817637 0.17021841
-7.0525513 3.0716691 0.18626061
-7.0638843 3.0537045 0.17378524
-7.0564561 3.0358384 0.17867291
-7.0735669 3.0412455 0.18291445
-7.0682116 3.0136809 0.18407668
-7.0755458 3.0140569 0.18866047
-7.2552719 3.0675542 0.10856231
-7.2577925 3.0628757 0.11228118
-7.2635217 3.046087 0.11185488
-7.2595687 3.0371644 0.11167673
-7.2630553 3.0393596 0.11126512
-7.2704859 3.0344703 0.10275614
-7.2703776 3.021244 0.10625406
-5.6185012 5.0173602 0.30475429
-5.6206222 5.0045047 0.29936776
-5.4828577 4.8743424 0.37743244
-5.5060573 4.862546 0.3791413
-5.5066729 4.8459697 0.3758454
-5.5150909 4.8427887 0.36640307
-5.5288482 4.8286023 0.37984359
-5.5358849 4.8341093 0.36137703
-5.5318737 4.8214898 0.37121788
-5.5457935 4.8194327 0.37443182
-5.5468254 4.8024378 0.37318486
-5.5622206 4.7902861 0.36694685
-5.5629911 4.7817721 0.36299276
-5.57335 4.7768273 0.37492922
-5.5819893 4.7780252 0.37798542
-5.5739136 4.7775517 0.36556676
-5.5952687 4.7500572 0.3666769
-5.5831733 4.7422514 0.38101882
-5.5895329 4.745172 0.37047529
-5.606041 4.7408767 0.36561802
-5.6193237 4.7222428 0.37151846
-5.613843 4.7148967 0.37302917
-5.6345892 4.7134509 0.37379742
-5.6392784 4.7083068 0.37740195
-5.4871812 4.5809937 0.43765756
-5.4966879 4.568778 0.43757552
-5.4986029 4.5618348 0.43780768
-5.5193968 4.5536056 0.43805212
-5.5258379 4.5456223 0.42904443
-5.5228119 4.5477271 0.44357771
-5.5246325 4.5231338 0.44732288
-5.5405416 4.5305948 0.43157643
-5.5349293 4.5238724 0.44224826
-5.5485382 4.4990129 0.43564942
-5.5585313 4.5079522 0.42979985
-5.5559216 4.4937472 0.43942359
-5.5733833 4.4839787 0.4298023
-5.5706015 4.4797568 0.43965822
-5.5875649 4.4754238 0.42924696
-5.5935249 4.4604359 0.44866505
-5.5849404 4.4499359 0.43122292
-5.5926003 4.4498243 0.42898408
-5.6159954 4.4416122 0.44777402
-5.6087079 4.4260674 0.42946416
-5.6280079 4.4267945 0.44786227
-5.6331468 4.4163857 0.43983248
-5.6286511 4.4147587 0.42982009
-5.6337657 4.4021459 0.44338068
-5.5002289 4.2835321 0.50807524
-5.5057158 4.2606368 0.49793056
-5.5117736 4.2525258 0.50510681
-5.5152631 4.2429447 0.50000113
-5.5209808 4.2361469 0.51452136
-5.5278978 4.2428045 0.50134343
-5.5331135 4.2363176 0.496748
-5.5399208 4.2108378 0.50960767
-5.5347466 4.2159886 0.50871307
-5.5395741 4.2021484 0.50308692
-5.5508304 4.1991735 0.50199646
-5.5650444 4.1966524 0.50570112
-5.5693927 4.1740031 0.50899374
-5.5665536 4.1737838 0.51041228
-5.5688095 4.1737556 0.51274824
-5.5765343 4.1527081 0.50946492
-5.5974259 4.1523318 0.5074268
-5.6029019 4.1510253 0.50764877
-5.5955076 4.1407576 0.50076962
-5.6089969 4.1315174 0.5078066
-5.6081014 4.1168652 0.49963307
-5.6082854 4.113831 0.49671108
-5.6247535 4.1122713 0.49892074
-5.6379185 4.0993624 0.50870001
-5.6296535 4.0899978 0.50624806
-5.6390419 4.0786977 0.51055408
-5.4988327 3.962501 0.56996071
-5.4933677 3.9565935 0.56821829
-5.5076694 3.9438374 0.58403784
-5.5088396 3.9433382 0.57845461
-5.5229621 3.9294701 0.5660643
-5.5252471 3.9211419 0.57849377
-5.5304437 3.9220591 0.57722497
-5.5334196 3.9155138 0.57091635
-5.5466056 3.9029245 0.58312058
-5.5422325 3.8866277 0.5719105
-5.5535426 3.8833394 0.58218098
-5.5530992 3.8710222 0.57423156
-5.5543866 3.8698976 0.58122152
-5.5598445 3.8530865 0.57541537
-5.5708742 3.8476262 0.58345157
-5.5742831 3.8453429 0.57087815
-5.5852523 3.8433146 0.56694776
-5.5774789 3.8237512 0.56420565
-5.5960035 3.816432 0.57661563
-5.6023126 3.8189049 0.58047742
-5.5998211 3.8154759 0.56880748
-5.6070485 3.7978883 0.57258403
-5.6022139 3.7843993 0.58300745
-5.6103787 3.7908289 0.56439883
-5.6243386 3.7715938 0.56811631
-5.6302509 3.7743034 0.57734442
-5.628726 3.7513876 0.57234579
-5.6311207 3.7615774 0.5755927
-5.6362462 3.7385643 0.5793367
-5.4917626 3.6310461 0.64104092
-5.5004501 3.6150451 0.63948375
-5.5007963 3.6171057 0.6481775
-5.4973559 3.6092789 0.65122843
-5.5034809 3.5985546 0.64856225
-5.508204 3.5991266 0.6345216
-5.5291986 3.5790312 0.65105879
-5.5209546 3.585695 0.63255543
-5.5376983 3.5751874 0.6321246
-5.5311842 3.5647666 0.63657063
-5.540915 3.5468423 0.64490199
-5.5365949 3.5452766 0.64491719
-5.5538206 3.5483992 0.63468516
-5.5623422 3.5399871 0.64432538
-5.5678015 3.5304637 0.65094733
-5.5759168 3.52122 0.64585435
-5.5780611 3.5159738 0.64838594
-5.5836577 3.5039532 0.64530832
-5.5877471 3.5001595 0.63945711
-5.5922561 3.4878397 0.65092599
-5.592308 3.4707377 0.63221848
-5.6040177 3.4628942 0.6397
-5.5957017 3.4627523 0.63806587
-5.5976062 3.4590056 0.6357882
-5.6098599 3.454705 0.65176237
-5.6154809 3.4471843 0.64627522
-5.6261835 3.4224031 0.64333093
-5.6143436 3.4168983 0.63616186
-5.6255703 3.4121666 0.63300186
-5.6426373 3.4077775 0.64533156
-5.6482248 3.4081767 0.64837557
-5.6525083 3.3816957 0.65139925
-5.6492991 3.3883498 0.64211076
-5.4859247 3.2817502 0.7045756
-5.4864717 3.2640765 0.70291948
-5.4910331 3.265568 0.70159268
-5.5010715 3.2611318 0.70334119
-5.5140433 3.2532997 0.70744824
-5.5141735 3.2389941 0.71469361
-5.5174527 3.2323637 0.70542639
-5.5283914 3.2248774 0.70444155
-5.5362754 3.2178276 0.70486552
-5.5411253 3.2186961 0.69983983
-5.5352526 3.2058485 0.71227413
-5.5345674 3.1970074 0.7147181
-5.5355282 3.1881468 0.70634347
-5.5578046 3.1737797 0.70122904
-5.5583215 3.1709619 0.71598518
-5.5547209 3.172524 0.70414454
-5.5638638 3.1553063 0.71338862
-5.562263 3.1516385 0.70286787
-5.5616364 3.1445644 0.71302509
-5.5805745 3.1371078 0.71178472
-5.584528 3.1199806 0.70543706
-5.576036 3.1079836 0.71799475
-5.5850892 3.0994608 0.70944452
-5.6025062 3.0930855 0.71428609
-5.6050262 3.0906062 0.70407474
-5.5927796 3.0761302 0.7031967
-5.6123629 3.0769024 0.71287841
-5.6026907 3.0636561 0.70667565
-5.6235285 3.0554061 0.70118845
-5.6141982 3.0525765 0.71604049
-5.6260972 3.0501416 0.70156693
-5.6243324 3.0405359 0.70290416
-5.6299996 3.0262032 0.70353258
-5.644206 3.0187688 0.70560569
-5.6335597 3.0131185 0.71302557
-5.819406 3.0921469 0.64613771
-5.8199501 3.0875039 0.63552374
-5.810801 3.0768046 0.63950729
-5.8278432 3.0695281 0.64309078
-5.8303614 3.0558314 0.6517005
-5.838016 3.0544746 0.64573723
-5.8401327 3.0391097 0.63803589
-5.8409009 3.0422943 0.64387542
-5.8410292 3.0354786 0.65016019
-5.8390732 3.0235038 0.63868004
-5.8496857 3.0161588 0.64598107
-6.0271378 3.0981395 0.56910509
-6.0276852 3.0877457 0.57732868
-6.0242372 3.0645821 0.5664171
-6.0371938 3.0631618 0.56995612
-6.0415287 3.058337 0.58029151
-6.0518155 3.055634 0.58342111
-6.0497918 3.0363903 0.57790059
-6.0619164 3.0412338 0.57373524
-6.0677447 3.032238 0.56577212
-6.0650411 3.0168228 0.57864666
-6.2438302 3.0989895 0.50845295
-6.2431302 3.0814371 0.50395739
-6.2541947 3.0716105 0.50473279
-6.2561588 3.0730932 0.51252854
-6.2545714 3.0544946 0.50394607
-6.2626367 3.0498519 0.501113
-6.2675595 3.0314634 0.50749445
-6.2579913 3.0251691 0.50718385
-6.2725759 3.0172534 0.50634766
-6.2751117 3.0162363 0.49857232
-6.454711 3.0902793 0.43055648
-6.4469905 3.0682118 0.44137532
-6.4637527 3.0593548 0.431097
-6.4597273 3.0527971 0.43103674
-6.4678931 3.0520775 0.4411194
-6.4646292 3.0475314 0.43530667
-6.4641852 3.0222886 0.43985882
-6.4773474 3.0108283 0.44687575
-6.4908075 3.0089855 0.434742
-6.6560445 3.0875154 0.36269855
-6.6582007 3.0616169 0.38027796
-6.660696 3.0677166 0.36480978
-6.6723595 3.0613196 0.36951065
-6.6742883 3.0432007 0.37668562
-6.6762643 3.0411561 0.37217876
-6.6881447 3.0266032 0.37216961
-6.6858249 3.0167089 0.37596726
-6.8707614 3.0746589 0.30969664
-6.8769536 3.0662942 0.29830816
-6.8752656 3.0678229 0.2957983
-6.8779445 3.0514693 0.29670167
-6.8830304 3.0368814 0.31302276
-6.8835711 3.0348778 0.31227046
-6.8793974 3.0151806 0.30272907
-6.8880353 3.0177293 0.30047867
-7.0738354 3.0874867 0.24535325
-7.0670671 3.0686388 0.23734447
-7.0764871 3.0608587 0.23983476
-7.0845003 3.0511634 0.24355945
-7.0838881 3.0474195 0.23841773
-7.0857716 3.0252466 0.22653343
-7.0867386 3.0222247 0.22967809
-7.0913701 3.0028851 0.2404421
-7.2702351 3.0648758 0.17347398
-7.285234 3.0692358 0.16635264
-7.2824697 3.0446472 0.16374902
-7.2871528 3.051101 0.17218484
-7.2998304 3.0323946 0.162734
-7.2900038 3.0299213 0.17348735
-7.2964382 3.0122924 0.17040193
-7.4821992 3.0682461 0.10739139
-7.4861021 3.043206 0.10107088
-7.4956951 3.0492723 0.10217501
-5.5007768 4.9059649 0.41910046
-5.4982171 4.8888412 0.42675278
-5.4981537 4.8855343 0.41542977
-5.5090714 4.8777132 0.42040235
-5.521101 4.8746219 0.41550782
-5.5364232 4.8542237 0.42756581
-5.5348353 4.8560629 0.4244979
-5.5368552 4.8408804 0.42440364
-5.5382185 4.8278766 0.43126407
-5.5637383 4.8348174 0.43001771
-5.5607305 4.8090692 0.42966536
-5.5631738 4.8126884 0.4198775
-5.5779543 4.8031683 0.43447998
-5.5840468 4.7895164 0.42896846
-5.585156 4.7906103 0.42808172
-5.5911484 4.7831469 0.4345226
-5.605072 4.7640252 0.43053824
-5.6020532 4.7696261 0.41911614
-5.6191168 4.7605968 0.42244437
-5.6293097 4.7527685 0.42047665
-5.6207376 4.7346592 0.42053375
-5.6325068 4.7408061 0.43199259
-5.4891744 4.5979638 0.48800918
-5.4959383 4.596807 0.49188849
-5.5082035 4.5812087 0.48467225
-5.5213442 4.5862746 0.49781224
-5.5280333 4.5640621 0.49965939
-5.5186963 4.5715036 0.49494606
-5.5407701 4.5485048 0.48905045
-5.539505 4.5419259 0.48318344
-5.5401974 4.5505214 0.48707312
-5.5608211 4.5339379 0.4849849
-5.5499754 4.5223885 0.48883653
-5.5693884 4.5104752 0.49922279
-5.5649114 4.5126863 0.48171097
-5.5876398 4.5081353 0.4969739
-5.5772171 4.5032635 0.49774235
-5.5849366 4.4940858 0.49367923
-5.5973587 4.4891806 0.49435312
-5.595665 4.4718761 0.49619305
-5.5998278 4.4602041 0.49438173
-5.6200895 4.4542227 0.48374954
-5.6224289 4.4453902 0.48933887
-5.6209054 4.4434366 0.49079475
-5.6289845 4.4322414 0.48225057
-5.4858789 4.3084054 0.56323934
-5.4960227 4.2976427 0.56087601
-5.5053878 4.2854099 0.55715013
-5.518805 4.2869935 0.55634284
-5.5115376 4.2764978 0.56606346
-5.5224199 4.2680559 0.55195355
-5.5351024 4.2655578 0.55971193
-5.5384059 4.2469149 0.56649613
-5.5361099 4.2559786 0.55919397
-5.5523467 4.2431359 0.54857272
-5.5571175 4.2308745 0.55818331
-5.5471745 4.2144575 0.5647167
-5.5595841 4.2146535 0.56671095
-5.5757084 4.2073989 0.55799079
-5.5726295 4.193368 0.56648535
-5.5798187 4.1944008 0.55425686
-5.5811076 4.1886859 0.56725705
-5.5946264 4.1855907 0.54934955
-5.6013508 4.1707053 0.54824954
-5.595366 4.1654854 0.56205857
-5.5999913 4.1613865 0.55136633
-5.6149955 4.153111 0.55202532
-5.6234555 4.1382961 0.56065661
-5.62991 4.1332159 0.54981822
-5.6250734 4.1170626 0.55274189
-5.6317315 4.1195574 0.56449944
-5.4978023 3.9958792 0.62463742
-5.5035124 3.9954216 0.62321168
-5.5071192 3.974045 0.61472595
-5.5118151 3.9644468 0.62885374
-5.5226912 3.9560063 0.62672424
-5.5242491 3.9583335 0.62416923
-5.5251369 3.9579623 0.61465722
-5.5373826 3.9368868 0.62793058
-5.5404558 3.9263866 0.63292474
-5.5405951 3.9349568 0.62829548
-5.5489655 3.9103684 0.61858881
-5.5434732 3.905622 0.61610901
-5.5593963 3.9028101 0.61994475
-5.5637941 3.9008324 0.62188232
-5.5740533 3.8934979 0.62308687
-5.566431 3.870115 0.61433423
-5.5813527 3.8713419 0.63293338
-5.5857759 3.8658106 0.61818779
-5.5969148 3.8626823 0.62068051
-5.6030483 3.8448808 0.61948937
-5.5938005 3.8441637 0.62146372
-5.6142483 3.8343828 0.62645292
-5.6171646 3.8341122 0.61639905
-5.6162348 3.8148661 0.63214391
-5.6133561 3.8107724 0.62833863
-5.6292615 3.7997019 0.62894195
-5.6339092 3.7990992 0.61857146
-5.6399465 3.7794526 0.6304763
-5.6407185 3.7740355 0.62706703
-5.4818258 3.6634071 0.69996434
-5.5011282 3.6520271 0.6936875
-5.498446 3.6455352 0.68546629
-5.5107632 3.6414511 0.68481863
-5.513124 3.643611 0.6927765
-5.5197291 3.6339519 0.6844998
-5.530129 3.6136792 0.69301891
-5.5199142 3.6140397 0.68880922
-5.5400596 3.5936327 0.69283402
-5.5282888 3.5977125 0.69933009
-5.539917 3.5887721 0.68752831
-5.5449233 3.5856199 0.69203031
-5.5561953 3.570231 0.69773096
-5.5556779 3.5675941 0.68704545
-5.5557971 3.5476553 0.6862247
-5.5679479 3.5461597 0.68345708
-5.5683641 3.5393021 0.68813568
-5.5802507 3.5276856 0.68090087
-5.5763359 3.5209398 0.68099213
-5.5883856 3.5109696 0.6929034
-5.5939283 3.5143659 0.68362129
-5.5912614 3.4977393 0.69894129
-5.6040821 3.4948134 0.68663335
-5.6111913 3.4773669 0.69945645
-5.6089745 3.4847519 0.68011576
-5.6075678 3.4649265 0.68706143
-5.6289177 3.469614 0.69493812
-5.6255779 3.4473338 0.69899404
-5.6294622 3.4538755 0.68410665
-5.633244 3.4332647 0.68705845
-5.6451039 3.4319971 0.68122256
-5.6462345 3.4182708 0.68658322
-5.6520343 3.4165881 0.69684774
-5.4883265 3.3155646 0.76378852
-5.493454 3.2989106 0.75967157
-5.497911 3.2884951 0.76357943
-5.4954114 3.2815497 0.7600317
-5.5050249 3.2827537 0.76206726
-5.5105715 3.2648721 0.758515
-5.5109944 3.2679961 0.76222891
-5.5284553 3.2640369 0.75255883
-5.5317407 3.2437127 0.75705302
-5.529655 3.2423432 0.74776155
-5.5372939 3.2276206 0.7624352
-5.5442672 3.2323682 0.74813932
-5.555347 3.2172449 0.75111848
-5.5425081 3.2091966 0.75484955
-5.553206 3.1961002 0.7474882
-5.5618577 3.2020113 0.74995506
-5.5540504 3.1920428 0.76326221
-5.5625186 3.1891465 0.76033282
-5.580646 3.1674862 0.76480812
-5.5742683 3.1724231 0.75564927
-5.5771708 3.1542213 0.75950933
-5.5853891 3.1535354 0.75586468
-5.5878925 3.1462486 0.76485091
-5.5874057 3.1362686 0.75354928
-5.6031771 3.120048 0.75691772
-5.6062984 3.119622 0.75397021
-5.6069422 3.1114388 0.74883324
-5.6142683 3.0992117 0.74858505
-5.6245122 3.093271 0.75446814
-5.63027 3.0781112 0.75308555
-5.625176 3.0844402 0.76130486
-5.6362104 3.066932 0.75664818
-5.6308789 3.071291 0.75252068
-5.6365499 3.0604959 0.76623535
-5.633512 3.0382779 0.75155753
-5.6470942 3.0372758 0.76428789
-5.6436129 3.0399566 0.75667518
-5.6452575 3.0196271 0.76468188
-5.6671395 3.0133581 0.75460029
-5.8299756 3.09376 0.69093078
-5.8274579 3.0951707 0.68774104
-5.836709 3.0698185 0.69491357
-5.850606 3.0740588 0.69432116
-5.8486185 3.0568771 0.69081587
-5.8529053 3.0469725 0.69298095
-5.8518586 3.0477133 0.68203801
-5.8580699 3.0361521 0.68167579
-5.8718824 3.0271516 0.68888998
-5.877677 3.0204639 0.69774711
-5.8735414 3.0219722 0.6867888
-6.0349598 3.0958555 0.6191116
-6.0514936 3.0789745 0.62053102
-6.0608435 3.0724695 0.61435896
-6.0507736 3.0722125 0.6191799
-6.0641971 3.0519187 0.62227666
-6.0754437 3.05691 0.61430055
-6.0776215 3.0399168 0.62295532
-6.0801497 3.0333264 0.63080782
-6.0754519 3.0251458 0.62017673
-6.0818849 3.0052929 0.61926371
-6.2486248 3.0795906 0.54860151
-6.2674994 3.0782011 0.55580127
-6.2649426 3.071739 0.56495833
-6.2685452 3.059612 0.56232703
-6.2673149 3.0583148 0.5478763
-6.2829752 3.0500124 0.56689715
-6.2865996 3.043762 0.55741119
-6.2815571 3.0192013 0.5498271
-6.2886496 3.0235443 0.56256038
-6.4567537 3.0867195 0.49765852
-6.4754791 3.0753887 0.4986448
-6.4785676 3.0694695 0.48699382
-6.4744434 3.0703816 0.497639
-6.4811502 3.0519528 0.48492134
-6.4904752 3.0390041 0.49967653
-6.4942379 3.0346324 0.49490535
-6.4989676 3.0308614 0.49266568
-6.4931703 3.0163457 0.49465314
-6.6663423 3.0978618 0.42349124
-6.6754808 3.0866921 0.4295195
-6.6832213 3.0610862 0.43326035
-6.6899629 3.0566683 0.42013144
-6.6883426 3.040638 0.41697001
-6.6960635 3.0421526 0.42444116
-6.6964893 3.0385807 0.42803091
-6.702147 3.0154717 0.41632202
-6.7125626 3.0118463 0.42992121
-6.8775806 3.0749822 0.3518036
-6.888329 3.0635273 0.35165575
-6.8839402 3.0672195 0.34967425
-6.8935089 3.0474432 0.3514289
-6.8993239 3.0451841 0.35811365
-6.8982539 3.0287917 0.35812214
-6.920332 3.0289111 0.3490051
-6.9149256 3.0128248 0.36568201
-7.0991383 3.0701208 0.28233522
-7.1019282 3.0661201 0.29102692
-7.091105 3.053658 0.29547444
-7.1120996 3.0547214 0.29809728
-7.1132278 3.0444353 0.29404831
-7.1163239 3.0288279 0.29986468
-7.117651 3.0116396 0.2930699
-7.2862258 3.0728788 0.23325022
-7.3009338 3.0628674 0.22949593
-7.3047452 3.0624564 0.21932076
-7.3118649 3.0552351 0.22127995
-7.3160315 3.049495 0.22915755
-7.3114915 3.038835 0.23449796
-7.3224897 3.0114243 0.23083299
-7.3308511 3.0071144 0.22681886
-7.4979987 3.0751138 0.15085378
-7.5046635 3.054554 0.15393563
-7.5181079 3.0435531 0.15507454
-7.5250711 3.0421197 0.15640552
-7.5157743 3.0211368 0.16753474
-7.5166378 3.0172813 0.16165806
-7.7170916 3.0396318 0.10006505
-7.7334862 3.0222459 0.10136809
-5.4935279 4.9311075 0.47825977
-5.4947867 4.9258871 0.48432019
-5.5077505 4.9081545 0.48432955
-5.5061107 4.8912964 0.48023668
-5.5237336 4.8919616 0.48834214
-5.5232706 4.8882103 0.47564146
-5.5321808 4.8759398 0.47024375
-5.536346 4.8681407 0.47444794
-5.5564437 4.8528714 0.4700112
-5.5595832 4.8458652 0.48008144
-5.5552549 4.8476453 0.47707155
-5.5724297 4.835012 0.47652945
-5.5835333 4.8362508 0.48595285
-5.5746164 4.8259544 0.48622528
-5.5897818 4.8248491 0.47487995
-5.5968308 4.8110108 0.48750973
-5.5965691 4.7950544 0.47560525
-5.6016946 4.8017149 0.48364687
-5.6226048 4.7750492 0.48417446
-5.6279411 4.7720037 0.48546028
-5.6231956 4.7600355 0.47629961
-5.4967113 4.6358194 0.54719448
-5.4953265 4.6292415 0.54221535
-5.5045071 4.6182976 0.53474206
-5.5134044 4.6188946 0.53397512
-5.5136366 4.5991383 0.54719055
-5.5212283 4.6063275 0.55228013
-5.5207133 4.5950646 0.55186957
-5.5321465 4.5895538 0.55264187
-5.5430408 4.5853591 0.53822684
-5.5526385 4.5725498 0.53971136
-5.5513864 4.5681167 0.54666853
-5.5641336 4.551517 0.53473175
-5.5618491 4.552175 0.53954387
-5.5670271 4.5303626 0.55265474
-5.5729613 4.5347342 0.5337199
-5.585669 4.51792 0.54969394
-5.5932765 4.5080161 0.54213387
-5.6012836 4.513063 0.53680098
-5.6085072 4.4935889 0.53501958
-5.6101351 4.4908795 0.54818445
-5.6102672 4.4757748 0.54468036
-5.6234317 4.4742632 0.55234998
-5.6285214 4.4613662 0.54845947
-5.6287885 4.4696102 0.55054736
-5.4871955 4.3413339 0.60971224
-5.4931011 4.3237495 0.61496615
-5.5030222 4.3248448 0.61813319
-5.5204926 4.3042092 0.61417329
-5.5232849 4.3026147 0.59857434
-5.5278478 4.3056464 0.60810971
-5.5392356 4.2947893 0.61039245
-5.5341163 4.2769995 0.59902471
-5.5413165 4.2803416 0.60262978
-5.5523963 4.2696266 0.60235739
-5.5613775 4.257966 0.59859049
-5.5560884 4.2464247 0.60492748
-5.5655346 4.250977 0.60005617
-5.5718031 4.2440624 0.60225397
-5.5820203 4.2203488 0.61057061
-5.5878258 4.2180538 0.6096406
-5.5840845 4.2103434 0.60558319
-5.5980501 4.1937122 0.61147463
-5.6033721 4.1958313 0.60845453
-5.6050787 4.1928091 0.60247439
-5.6070461 4.1867342 0.61259693
-5.6127696 4.1718655 0.59894967
-5.6321454 4.1734576 0.61763442
-5.6363816 4.1546764 0.61719286
-5.6384087 4.1515632 0.60083371
-5.6321082 4.1485186 0.60998434
-5.4938445 4.0236583 0.66414243
-5.4923539 4.0223179 0.66458523
-5.504961 4.0014968 0.67497599
-5.5005779 4.0047998 0.67018193
-5.5221639 3.9919548 0.66715825
-5.5136166 3.9791946 0.67711943
-5.5187058 3.9728568 0.676534
-5.5250998 3.9680696 0.66503739
-5.5319242 3.967031 0.67830527
-5.5350966 3.9580576 0.67641419
-5.549108 3.9402196 0.66897631
-5.5538559 3.9294593 0.66788632
-5.5581503 3.9316683 0.67367136
