# .PCD v0.7 - Point Cloud Data file format
VERSION 0.7
FIELDS x y z
SIZE 4 4 4
TYPE F F F
COUNT 1 1 1
WIDTH 1538
HEIGHT 1
VIEWPOINT 0 0 0 1 0 0 0
POINTS 1538
DATA ascii
8.1524286 -4.9828196 0.79568517
8.1468143 -4.9729242 0.79211551
8.1640968 -4.9559841 0.78507084
8.1773109 -4.9517846 0.79002202
8.172225 -4.929337 0.78818405
8.0158243 -4.8323436 0.82890314
8.0120306 -4.8069644 0.84323573
8.0292492 -4.8096838 0.84283203
8.0332451 -4.7944379 0.83164263
8.0396423 -4.7716846 0.84518349
8.0389404 -4.7647109 0.83432478
8.0582428 -4.7503037 0.84199584
8.0539598 -4.7455511 0.8352319
8.0626173 -4.7345052 0.84128237
8.0762091 -4.7154503 0.838386
8.0879478 -4.7129235 0.84036392
8.0951462 -4.7009234 0.83654022
8.0966606 -4.698422 0.83880651
8.0977554 -4.6786256 0.84511918
8.107646 -4.6591182 0.84297627
8.1110611 -4.6469827 0.8365888
8.1236019 -4.6421995 0.8333807
8.1237984 -4.6283383 0.84368831
8.1372147 -4.6124434 0.83379561
8.1366653 -4.6095643 0.83170217
8.153204 -4.6015382 0.84087092
8.1517048 -4.5928907 0.83076578
8.1663656 -4.5692887 0.8318792
8.1632776 -4.571136 0.84149677
8.1664858 -4.5496221 0.83932054
8.1875353 -4.5512066 0.83796912
8.0118742 -4.4321513 0.87532508
8.0231638 -4.434216 0.88996971
8.0247459 -4.4093304 0.88917136
8.0364199 -4.4114442 0.87990558
8.0459852 -4.3834534 0.88731003
8.0447025 -4.3833809 0.89199752
8.0532999 -4.3750501 0.88891327
8.062995 -4.3561945 0.89259899
8.0622911 -4.3405013 0.8864069
8.0793962 -4.3301139 0.8872301
8.0751333 -4.3314195 0.88110298
8.0829678 -4.3076267 0.88173097
8.0854301 -4.3084269 0.8760556
8.087079 -4.2837138 0.87706888
8.0994463 -4.2755809 0.87486649
8.0992022 -4.2748585 0.88152188
8.1036291 -4.2516527 0.88528496
8.1249571 -4.2448497 0.87667185
8.1299543 -4.2248316 0.89251143
8.1287441 -4.2137756 0.88748956
8.1283407 -4.2130322 0.88990462
8.1417952 -4.1904898 0.88484699
8.1558609 -4.191504 0.88771456
8.1442356 -4.1768732 0.88401264
8.1536074 -4.1558628 0.87715304
8.1607618 -4.1610684 0.87971628
8.1745548 -4.1478028 0.87417769
8.1720953 -4.1391501 0.88412631
8.1810074 -4.1114249 0.88276833
8.0117455 -4.0231938 0.92637807
8.0113211 -4.0091271 0.93414629
8.0332956 -4.007484 0.93310767
8.0301971 -3.9776361 0.91969758
8.0299511 -3.9852595 0.92955315
8.0459862 -3.9693403 0.9290455
8.0551472 -3.9520812 0.93195045
8.046855 -3.9468269 0.93673116
8.053009 -3.9298143 0.93876654
8.0690956 -3.9296565 0.93712127
8.0638084 -3.9105139 0.92466789
8.0768719 -3.8974082 0.93510222
8.0776873 -3.8879249 0.9359929
8.0774488 -3.867121 0.9355365
8.0837841 -3.8721294 0.93625432
8.0999594 -3.846652 0.92168105
8.0956116 -3.8375483 0.93314868
8.1141529 -3.8222551 0.93864489
8.1174583 -3.8263111 0.92992026
8.1227846 -3.7997677 0.9301123
8.1264486 -3.8039827 0.93819821
8.1376438 -3.7805905 0.92813325
8.1392584 -3.7818232 0.93628758
8.1417465 -3.7687187 0.93397403
8.1437626 -3.7546878 0.93537283
8.1464815 -3.7298746 0.93096232
8.1546106 -3.734787 0.92436123
8.154192 -3.7065198 0.92175144
8.1592531 -3.7002923 0.92377639
8.1755733 -3.6940694 0.92102796
8.1720705 -3.6894965 0.92274028
8.1766376 -3.6790266 0.93651313
8.191123 -3.6522255 0.93771446
8.0158997 -3.5686851 0.96591759
8.0160837 -3.5481453 0.97155398
8.0176516 -3.5501225 0.97064245
8.0347919 -3.5291901 0.97345024
8.0253162 -3.5138805 0.97314954
8.0332155 -3.5186973 0.96769321
8.0431242 -3.4923651 0.97706962
8.0502682 -3.4946921 0.97962165
8.0591087 -3.4775925 0.98123902
8.0617065 -3.4711308 0.97824562
8.0654907 -3.4471533 0.96785599
8.0722179 -3.4479733 0.96682847
8.0645657 -3.4321918 0.97263902
8.0759859 -3.4242196 0.96819043
8.0901985 -3.4106576 0.96785313
8.084095 -3.3941159 0.97149366
8.0925188 -3.3925695 0.97025406
8.0903034 -3.3687668 0.97546834
8.0906248 -3.3609953 0.96655649
8.1125469 -3.3554826 0.97287345
8.1114607 -3.351027 0.97192854
8.1199684 -3.3246696 0.97891748
8.1274338 -3.3307738 0.97043496
8.1206932 -3.3102512 0.97866493
8.129488 -3.3002944 0.96919042
8.1379299 -3.2812037 0.96498454
8.1299963 -3.2784355 0.97104537
8.1408072 -3.2626138 0.96962267
8.1568174 -3.2511859 0.96467847
8.143899 -3.2425351 0.97394758
8.1572819 -3.2396545 0.97636622
8.1697044 -3.2129338 0.97382969
8.1690989 -3.2034006 0.97386986
8.159996 -3.2052443 0.98310685
8.1791067 -3.1829135 0.97096878
8.1687279 -3.1767457 0.96658278
8.1741257 -3.1631002 0.97362
8.1855698 -3.1432168 0.96512771
8.1955748 -3.131881 0.97670543
8.0187073 -3.0482845 1.0108138
8.012908 -3.045805 1.0111885
8.0295115 -3.0354133 1.0269071
8.0235634 -3.0301201 1.0207759
8.0376396 -3.0184085 1.0214117
8.0409365 -2.9920483 1.0129826
8.0320807 -3.000514 1.0193195
8.2214079 -3.0559506 0.98264992
8.2352657 -3.0361643 0.97969359
8.2406158 -3.0307715 0.97665274
8.2375278 -3.0047164 0.97606158
8.243288 -3.0087302 0.96677142
8.4324617 -3.0470569 0.93144459
8.4343758 -3.0486517 0.9354642
8.4301424 -3.0403931 0.91999912
8.4465284 -3.0130439 0.91969198
8.4544687 -3.0187421 0.91971105
8.4487295 -3.001874 0.92101854
8.6351557 -3.060529 0.88539374
8.6350918 -3.0326896 0.88892496
8.6519709 -3.0321608 0.88702452
8.648242 -3.0100787 0.8896178
8.6552067 -3.006068 0.88904881
8.652071 -2.9844108 0.87512499
8.8570833 -3.0348244 0.83245009
8.8625574 -3.029243 0.83059657
8.8477068 -3.0199394 0.83126712
8.8528576 -3.0005765 0.83702219
8.8592997 -3.0025799 0.83745968
9.0599279 -3.0512056 0.788441
9.0595722 -3.0246379 0.79313737
9.0572977 -3.0260248 0.78785241
9.0575991 -3.0046566 0.79450852
9.0773144 -2.9906161 0.79074657
9.2681036 -3.0408933 0.74283242
9.2565136 -3.028676 0.75339943
9.263052 -3.0155389 0.74092001
9.2702427 -3.0014634 0.75544745
9.468524 -3.0451169 0.71036547
9.4619551 -3.0366709 0.71183348
9.4715919 -3.0128286 0.7072379
9.4659081 -3.0154901 0.7086181
9.4749203 -3.0020621 0.69872344
9.6763372 -3.0317936 0.66497618
9.6682882 -3.0209894 0.65455014
9.6775503 -3.0060196 0.66342223
9.6773605 -3.0087376 0.65250623
9.8707657 -3.0461144 0.61749095
9.8726664 -3.0368524 0.61110455
9.8747101 -3.018415 0.61996245
9.8782015 -2.9945772 0.61945534
10.083491 -3.0372436 0.55782944
10.083808 -3.0382369 0.56165618
10.094212 -3.0277622 0.56120598
10.096091 -3.0095813 0.55806965
10.087525 -2.9863646 0.57640678
10.274614 -3.0228434 0.51327974
10.284042 -3.0206397 0.52215308
10.28368 -3.0007854 0.52651471
10.483942 -3.0376332 0.47028995
10.486086 -3.0204239 0.46936134
10.487702 -3.0085294 0.46857584
10.492917 -3.0005691 0.47273946
10.689271 -3.0399082 0.42807031
10.697895 -3.0278482 0.43275645
10.703362 -3.0085468 0.42658392
10.707146 -2.9931319 0.42514962
10.900655 -3.0249424 0.38632715
10.89546 -3.0086417 0.37824935
10.894606 -3.0033014 0.3934792
11.090596 -3.0316997 0.34604773
11.097861 -3.0308087 0.34112221
11.10432 -3.0089087 0.34951824
11.114921 -2.9821737 0.33740079
11.294207 -3.0216401 0.29718745
11.310095 -3.0090082 0.28660172
11.299789 -2.9967902 0.29650727
11.496369 -3.0326676 0.24685182
11.511076 -3.0079079 0.24354362
11.497683 -2.98821 0.25037265
11.708046 -3.0335641 0.19998677
11.707718 -3.0066175 0.20025864
11.702441 -2.9974279 0.20694712
11.894292 -3.0300505 0.15963773
11.905315 -3.0072095 0.15319771
11.901346 -2.9927011 0.16362607
8.1731815 -4.9742885 0.85810375
8.1772451 -4.9595928 0.85968679
8.0143509 -4.8630714 0.91588372
8.0300159 -4.8341432 0.9082042
8.0374708 -4.829978 0.90888834
8.0314655 -4.8129315 0.90917379
8.0316219 -4.8069658 0.91180766
8.0521364 -4.7945008 0.90914178
8.0468864 -4.7902331 0.90814191
8.0623026 -4.7684278 0.90645397
8.0663595 -4.7612391 0.90108114
8.0782528 -4.7569356 0.89900982
8.0717125 -4.7357011 0.90070653
8.0975351 -4.7255764 0.9001509
8.0956621 -4.714756 0.91257054
8.0944576 -4.7166858 0.91083694
8.1135225 -4.7051868 0.90386015
8.1152058 -4.6798863 0.89812982
8.1142073 -4.666533 0.90543967
8.1321936 -4.6644449 0.90331787
8.1284752 -4.6449656 0.89713836
8.139369 -4.6402431 0.9040066
8.1481752 -4.628695 0.9008444
8.1586618 -4.6179433 0.91653246
8.1685781 -4.6156678 0.91175735
8.1708975 -4.6011839 0.91376007
8.1714668 -4.5742059 0.91595948
8.1850443 -4.5721006 0.91214842
8.0225487 -4.4623036 0.95418924
8.0175409 -4.4565134 0.94316971
8.0303955 -4.440949 0.96029133
8.037055 -4.4409842 0.9507876
8.0305662 -4.4186902 0.94147527
8.0409012 -4.4123697 0.95154893
8.0469074 -4.4025793 0.95252365
8.0681229 -4.3968983 0.95659858
8.0713263 -4.3770614 0.95625854
8.0767126 -4.3700447 0.94662195
8.0782719 -4.3615789 0.9601416
8.0780382 -4.3443537 0.9482702
8.0867691 -4.3404913 0.94077259
8.0926056 -4.3161716 0.94204086
8.108922 -4.3045259 0.95439565
8.1159115 -4.2887163 0.94185448
8.112958 -4.2930551 0.94787908
8.1109638 -4.2823167 0.94835085
8.133028 -4.2544999 0.95741767
8.134737 -4.2474036 0.94225055
8.1467934 -4.2448401 0.94429022
8.1523542 -4.2285872 0.95228726
8.1460276 -4.2096643 0.95287037
8.1521864 -4.2109499 0.94648886
8.1595984 -4.2019477 0.96046019
8.1593494 -4.1919703 0.95893961
8.166543 -4.1709437 0.94177043
8.1797457 -4.1578937 0.94402105
8.0194855 -4.0602446 0.98658121
8.0220718 -4.0555801 1.0010834
8.0294752 -4.0447936 0.98680598
8.0189018 -4.0343661 0.99743003
8.0363102 -4.0161686 0.99561715
8.0342865 -3.9976985 1.0011506
8.0458651 -3.9976881 1.00431
8.0514002 -3.9837821 0.98606235
8.055398 -3.9685221 0.99744862
8.062212 -3.9658833 0.99048436
8.0712595 -3.9553938 1.0012599
8.0790339 -3.9279873 0.98552597
8.0812941 -3.9188304 0.98939627
8.0892611 -3.9058838 0.99250424
8.0878363 -3.9011505 1.0026121
8.0845833 -3.8840473 0.99998432
8.1068478 -3.8809557 0.98615366
8.1122561 -3.8779044 0.99500769
8.119401 -3.8564141 0.98789281
8.1179161 -3.8536539 0.99217999
8.1294508 -3.8273733 0.99571198
8.1317463 -3.818831 0.99539834
8.1382914 -3.8135247 0.99298155
8.1286907 -3.8057323 0.99224371
8.1421824 -3.7848294 0.98496395
8.1457663 -3.772629 1.0035046
8.1467066 -3.763598 0.9938463
8.1538 -3.7545764 0.99594122
8.1697321 -3.7438123 0.98822081
8.1585331 -3.7399192 0.99194747
8.1716051 -3.7298617 0.99063408
8.1881933 -3.7028639 0.98653477
8.1844521 -3.6946599 0.9964059
8.0204678 -3.6009836 1.0465454
8.0134277 -3.5997672 1.0424181
8.0190926 -3.5802586 1.0391332
8.023283 -3.5650859 1.0335141
8.0377989 -3.5680795 1.0455438
8.0343933 -3.5603855 1.0369575
8.0432529 -3.5491188 1.0408769
8.0558224 -3.5299923 1.0434592
8.0470638 -3.519474 1.0416373
8.0541897 -3.4978776 1.0366101
8.0711718 -3.4876196 1.0334468
8.0744581 -3.4894383 1.0403247
8.0736008 -3.470613 1.0355287
8.0694437 -3.4526036 1.0347161
8.0796518 -3.4450684 1.0397135
8.0818729 -3.4459119 1.0412016
8.0954933 -3.4228551 1.0427461
8.0930166 -3.4121714 1.0321999
8.0931063 -3.4151738 1.0409479
8.1113586 -3.3959618 1.0400616
8.1045685 -3.3846643 1.0381953
8.1145983 -3.3749609 1.0432657
8.1114912 -3.3509789 1.0359098
8.1235714 -3.3560033 1.035305
8.1348238 -3.3356528 1.0309707
8.1310577 -3.3178983 1.0345209
8.1287632 -3.3113258 1.0298494
8.1479979 -3.3120158 1.0445766
8.1566706 -3.2973862 1.0450096
8.1540756 -3.2892587 1.0333558
8.1505775 -3.272661 1.0416945
8.1651983 -3.250756 1.0284246
8.1648731 -3.2566662 1.0478184
8.1771755 -3.2351873 1.0308629
8.1688585 -3.2271318 1.0429263
8.1761904 -3.2075026 1.0414063
8.1870565 -3.1948118 1.0351143
8.1932354 -3.1875145 1.0367814
8.0123024 -3.1053038 1.0855396
8.0135117 -3.1013923 1.0872421
8.0230503 -3.0855591 1.074172
8.0209131 -3.0796709 1.0916303
8.0254898 -3.0586569 1.0917954
8.0294447 -3.0498731 1.0820501
8.0364285 -3.0339243 1.0889642
8.0354595 -3.0351453 1.0841056
8.0529556 -3.0099852 1.0805295
8.0441437 -3.0031161 1.072836
8.056983 -2.9998105 1.0850792
8.2376366 -3.0476878 1.0462416
8.2371807 -3.0420418 1.0358771
8.2436399 -3.0228412 1.0402156
8.2475405 -3.0233562 1.0343769
8.2515907 -3.0041928 1.0461247
8.2658787 -3.0023069 1.0426179
8.4505196 -3.0521529 1.0028623
8.4469233 -3.0419583 1.0008706
8.4597359 -3.0247898 0.9945271
8.464838 -3.0189798 1.0002625
8.4621668 -2.9995897 0.99494022
8.4644604 -2.9849164 1.0037701
8.6603775 -3.0530093 0.9564817
8.656702 -3.036195 0.94099146
8.6671724 -3.0195446 0.95315278
8.6693726 -3.0128033 0.95568246
8.6680498 -2.9890568 0.94336081
8.8552265 -3.0568569 0.9056291
8.87603 -3.032136 0.89709353
8.8704729 -3.0265381 0.90257049
8.8706331 -3.0078204 0.91563439
8.8854551 -2.9910009 0.91156238
9.0739822 -3.0488484 0.86874247
9.0742168 -3.0319586 0.85447782
9.0789423 -3.028832 0.86477995
9.0758123 -3.0077207 0.86973375
9.0951939 -2.9921317 0.86633849
9.2675619 -3.039113 0.82291579
9.2807589 -3.0281749 0.81566805
9.2854023 -3.0270307 0.82164729
9.2955046 -3.0099454 0.81396776
9.2986536 -3.0022411 0.81072503
9.4834585 -3.0349038 0.7758311
9.4835806 -3.0315115 0.76899362
9.4894199 -3.0076301 0.77262425
9.5055428 -2.9910982 0.78470176
9.6926794 -3.0381637 0.73587906
9.6904058 -3.0233328 0.73232925
9.6885099 -3.0195563 0.72677684
9.6993465 -3.0153694 0.72942191
9.6961441 -2.9852951 0.73619986
9.8917274 -3.033747 0.6939047
9.897645 -3.029582 0.68961751
9.8924685 -3.0095389 0.69549304
9.9004345 -2.9878821 0.69201452
10.098815 -3.0307446 0.64800775
10.10253 -3.0200419 0.64628494
10.101221 -3.0158648 0.64587998
10.116343 -2.9978173 0.63573283
10.293007 -3.0285378 0.59242886
10.305259 -3.0310044 0.60948753
10.304269 -3.0085483 0.60203511
10.304783 -2.9844127 0.60494488
10.50841 -3.0240169 0.55027014
10.510548 -3.0252473 0.54725671
10.509187 -2.9990799 0.56399524
10.715263 -3.0469964 0.51353037
10.712026 -3.0266197 0.51696855
10.708362 -3.015321 0.50435531
10.714529 -2.9986529 0.52230752
10.909134 -3.0264807 0.45960236
10.912908 -3.0267429 0.46879438
10.909206 -3.010689 0.46773845
11.116555 -3.0343285 0.42321455
11.124938 -3.0280778 0.42662203
11.110286 -3.007401 0.421534
11.132351 -2.9924858 0.42742002
11.316195 -3.0357263 0.37492698
11.315079 -3.0159218 0.38260883
11.321328 -2.9941537 0.37201026
11.514164 -3.0397887 0.32732102
11.519505 -3.0157418 0.33096567
11.534015 -2.9996102 0.33543572
11.716311 -3.0375748 0.28893548
11.729083 -3.0220461 0.29700172
11.72524 -3.0053923 0.29023576
11.925355 -3.0391738 0.25905105
11.922332 -3.0131743 0.24359529
11.930611 -2.9925187 0.2521542
8.0161057 -4.8923793 0.96892822
8.0239782 -4.8702798 0.97834378
8.0367556 -4.861105 0.97554535
8.0333042 -4.8521333 0.97128135
8.0322828 -4.8373914 0.98179585
8.0412703 -4.8267288 0.97228378
8.0458994 -4.8166165 0.97962576
8.0600204 -4.8162942 0.97959381
8.0775089 -4.7959948 0.96938074
8.0768547 -4.782238 0.98490614
8.0759134 -4.778533 0.96751744
8.0863113 -4.7537727 0.98104876
8.0861092 -4.7430367 0.97256547
8.1030931 -4.7425389 0.98185551
8.115797 -4.7298326 0.97467917
8.1189995 -4.7148938 0.96694762
8.1126738 -4.7020655 0.97810113
8.1336746 -4.701839 0.97834063
8.1346283 -4.6908321 0.9676339
8.1453524 -4.6671715 0.97942865
8.1515856 -4.6511288 0.9836638
8.1604147 -4.6513491 0.98138553
8.1627598 -4.6384163 0.97855997
8.1766052 -4.6351295 0.98493981
8.1797247 -4.6057525 0.97272396
8.1756516 -4.599771 0.98413622
8.0134974 -4.4908366 1.0194483
8.012681 -4.4835658 1.0212655
8.0320883 -4.4818926 1.0227512
8.0407734 -4.4560299 1.0165499
8.0412378 -4.4504528 1.0150346
8.0459213 -4.4425502 1.0219332
8.0483112 -4.4187899 1.0103894
8.0678606 -4.4076557 1.0107484
8.0737734 -4.3998575 1.0090913
8.0674543 -4.4025717 1.0220137
8.0725317 -4.3835297 1.0165992
8.0905142 -4.3715787 1.0272733
8.0902987 -4.3664784 1.0084298
8.0915527 -4.3589358 1.0242491
8.1065893 -4.3371568 1.0144371
8.1000948 -4.316905 1.021311
8.1204834 -4.3204598 1.0207196
8.1293125 -4.3106465 1.020028
8.1184845 -4.301085 1.0158916
8.1259832 -4.2839913 1.0177891
8.146389 -4.2679534 1.0274682
8.1413651 -4.2600508 1.0178298
8.1469984 -4.2384658 1.0220143
8.1537733 -4.2417135 1.0224553
8.1563501 -4.2159948 1.0133815
8.1691008 -4.2228251 1.0132562
8.1687088 -4.1953058 1.018265
8.1877089 -4.1849809 1.0217675
8.0120506 -4.0823617 1.065895
8.0260677 -4.0876074 1.053388
8.021966 -4.0584235 1.0655742
8.0275278 -4.0602241 1.0543098
8.0434351 -4.0423355 1.0532686
8.0435114 -4.0436006 1.0576099
8.044014 -4.0282011 1.0562918
8.0554256 -4.0059481 1.056757
8.0666971 -4.0099683 1.0533469
8.0629616 -3.9808528 1.0688589
8.0627136 -3.9792936 1.0664498
8.0641851 -3.9694266 1.0676187
8.0731335 -3.9493549 1.0667876
8.0942526 -3.949399 1.0529637
8.0840921 -3.9391975 1.0658286
8.0928745 -3.9145658 1.06622
8.1059818 -3.9150631 1.0507953
8.0977554 -3.8897634 1.0663997
8.1099787 -3.8787913 1.0667524
8.1187763 -3.8771389 1.0649813
8.1230698 -3.8613029 1.0535225
8.124938 -3.8495481 1.0606755
8.1279602 -3.8343813 1.0566376
8.1301346 -3.8236163 1.0612853
8.1384697 -3.8285174 1.0648563
8.1596537 -3.8101263 1.0617732
8.1612129 -3.8041012 1.0668992
8.1673326 -3.7917604 1.0660241
8.1690397 -3.7726388 1.0648121
8.1710844 -3.7701466 1.0539364
8.1713419 -3.7487717 1.0675726
8.1801243 -3.7309232 1.0616323
8.196044 -3.7354321 1.0595198
8.0100384 -3.642107 1.0992174
8.0264235 -3.6270657 1.1002681
8.0263634 -3.6161723 1.1083487
8.0232038 -3.6090355 1.1110855
8.025156 -3.6010797 1.0947868
8.046217 -3.5767007 1.1062258
8.0460501 -3.5755458 1.1087661
8.0549917 -3.5593863 1.1012828
8.0575542 -3.5396805 1.1002424
8.0541611 -3.5292761 1.1032798
8.0686388 -3.5322106 1.1071992
8.0604076 -3.5038364 1.0949806
8.0732107 -3.5005827 1.102469
8.0740795 -3.4855325 1.105901
8.0776691 -3.4735599 1.1060883
8.0849438 -3.4655399 1.0994471
8.1036425 -3.4626844 1.1027464
8.1048651 -3.4358695 1.1109841
8.0985889 -3.4314587 1.1076989
8.1112566 -3.4153924 1.103583
8.106945 -3.4097831 1.1052903
8.1265383 -3.397325 1.1041226
8.1138964 -3.3969674 1.0949528
8.128727 -3.3806295 1.1095704
8.1269741 -3.3655748 1.1048909
8.1453924 -3.3481019 1.0969551
8.1371546 -3.3367717 1.1005914
8.1521997 -3.3290441 1.0997528
8.1554661 -3.3124025 1.1120284
8.1554317 -3.3078871 1.1090667
8.1512661 -3.2924607 1.1004043
8.1687908 -3.2822037 1.092883
8.1651335 -3.269335 1.0943961
8.1722889 -3.266366 1.100917
8.1740465 -3.2498651 1.111156
8.1911097 -3.2396445 1.1075248
8.1802197 -3.2223458 1.1038738
8.0111332 -3.1429396 1.1389858
8.0229092 -3.1369021 1.1369848
8.0269461 -3.1155345 1.1481301
8.0280046 -3.1029534 1.1433259
8.0203857 -3.097451 1.1373965
8.0252304 -3.080195 1.1529471
8.0315714 -3.0803554 1.1400715
8.0444183 -3.0633147 1.1522955
8.0474892 -3.0537522 1.1433322
8.0469122 -3.0396037 1.1402535
8.0626688 -3.0372331 1.1534306
8.0511303 -3.0274789 1.1414725
8.0575752 -3.0180657 1.1397026
8.0751495 -2.991955 1.139329
8.2510891 -3.0659719 1.1108749
8.2579937 -3.0510569 1.1108712
8.2604322 -3.0341148 1.0995039
8.2699795 -3.0286252 1.0939679
8.2717342 -3.0043488 1.1067792
8.2845097 -3.0049169 1.1025176
8.4579401 -3.060606 1.0670077
8.4608746 -3.0451882 1.0524105
8.4718351 -3.0275464 1.0559875
8.4810085 -3.0165358 1.0544302
8.4697924 -3.0169599 1.0557677
8.4924965 -2.9947486 1.0605078
8.6794825 -3.0394349 1.0082797
8.6708736 -3.0334697 1.0124085
8.676712 -3.0299699 1.0092833
8.6753445 -3.0178988 1.0140539
8.6896992 -3.0003352 1.0182188
8.8756695 -3.0478976 0.98360527
8.8823633 -3.0446949 0.97721457
8.8926163 -3.0365505 0.97001833
8.8812952 -3.023838 0.97057563
8.8912945 -2.9926202 0.98151594
8.9060163 -2.9829004 0.98101968
9.0961637 -3.0482917 0.93199962
9.0852299 -3.0295801 0.93676782
9.0911531 -3.0164585 0.94149792
9.1018295 -2.9931886 0.93167663
9.2822771 -3.0540986 0.88357604
9.3049469 -3.0311067 0.88868499
9.3012066 -3.0221047 0.88954759
9.3102531 -3.0086503 0.89072591
9.2998381 -2.9894056 0.89071971
9.5063925 -3.0395436 0.84563321
9.5064688 -3.0288155 0.84737849
9.499898 -3.0132647 0.85515648
9.5180779 -2.9960167 0.84337133
9.5209684 -2.9923007 0.84216529
9.7004795 -3.0365644 0.80617106
9.7078848 -3.0235445 0.80259883
9.7203798 -3.0185041 0.81506091
9.7137194 -2.9886398 0.80800414
9.9150028 -3.0509644 0.76482093
9.9095554 -3.0191362 0.76081884
9.9213953 -3.0114827 0.75429404
9.9149599 -2.9946322 0.77006304
10.123387 -3.0403428 0.72742575
10.112986 -3.0305707 0.71762741
10.121358 -3.0119245 0.72890335
10.136108 -2.9901135 0.71965867
10.314683 -3.0355084 0.67951596
10.31836 -3.036025 0.6780768
10.334961 -3.0062265 0.67832494
10.33075 -3.0061195 0.67657608
10.530241 -3.0328312 0.62625808
10.535539 -3.0154889 0.64134532
10.536585 -3.0010095 0.63340545
10.537366 -3.001178 0.64112782
10.736351 -3.0305841 0.59098887
10.738643 -3.0158007 0.59093106
10.731668 -2.9940464 0.58683091
10.935168 -3.045454 0.54542738
10.929035 -3.0316269 0.5418129
10.943129 -3.0062151 0.54389864
10.935452 -2.9932203 0.55929255
11.128365 -3.0307107 0.5149563
11.147879 -3.0195675 0.51280445
11.13943 -2.991843 0.51579148
11.327435 -3.0280886 0.46566576
11.338989 -3.0152583 0.45774814
11.350463 -2.993614 0.4566122
11.526778 -3.0308681 0.41929367
11.535166 -3.0282724 0.42294645
11.539916 -2.9958043 0.41675791
11.735901 -3.0443828 0.38591337
11.738154 -3.0233302 0.3762483
11.738441 -3.0069933 0.38219222
11.945927 -3.0316889 0.33792895
11.94707 -3.0126765 0.33501905
11.940456 -3.0063443 0.34912401
8.0174732 -4.9181457 1.0365496
8.0231628 -4.8974643 1.0346701
8.0237265 -4.8988891 1.0496315
8.0281801 -4.8826222 1.0348574
8.0457878 -4.8744879 1.0475692
8.045969 -4.863133 1.0341668
8.0509977 -4.840652 1.0492576
8.0697823 -4.8391776 1.0382775
8.0632296 -4.8186893 1.0437478
8.0727539 -4.819118 1.0379567
8.0720081 -4.7927976 1.0447953
8.0814495 -4.7876468 1.0411371
8.088995 -4.7887754 1.0448666
8.0914869 -4.7722797 1.0536661
8.0991888 -4.7649875 1.0393933
8.1195869 -4.7443113 1.0452591
8.1265669 -4.7253876 1.0423805
8.1286221 -4.7144451 1.0497408
8.1396809 -4.716804 1.0463454
8.1361942 -4.696373 1.0512671
8.1469002 -4.6834068 1.0512457
8.1444292 -4.6877017 1.0451025
8.1582842 -4.6711378 1.0465484
8.1758528 -4.6587529 1.0531988
8.1822052 -4.6453218 1.0358404
8.1742687 -4.6381321 1.0478481
8.0218515 -4.534101 1.0884222
8.016736 -4.5113468 1.0876485
8.0189648 -4.5041265 1.0931778
8.0377827 -4.486969 1.0877912
8.0415068 -4.4856668 1.0840145
8.0451937 -4.4733796 1.0845774
8.0627222 -4.4537673 1.09033
8.0616798 -4.443099 1.0770838
8.0672731 -4.4325762 1.0858762
8.0754919 -4.4164715 1.0904564
8.0757027 -4.4089189 1.091171
8.07551 -4.392797 1.0834579
8.0945282 -4.3807459 1.0917747
8.0990591 -4.3761606 1.0860492
8.0981884 -4.3741202 1.0904179
8.1135244 -4.3546453 1.0758562
8.1094084 -4.3438792 1.0896814
8.1110287 -4.3403759 1.08294
8.1193867 -4.3174858 1.0754781
8.1365223 -4.3125668 1.0928692
8.1382217 -4.2936115 1.0865525
8.1406193 -4.2810073 1.0850884
8.1552887 -4.2755284 1.0843977
8.1582584 -4.2716455 1.0770057
8.1554871 -4.254745 1.0803596
8.1770687 -4.2486038 1.0918851
8.1840725 -4.2326589 1.0828648
8.184886 -4.2211576 1.0860268
8.0049696 -4.1175919 1.1217123
8.0114222 -4.1129212 1.1300174
8.0152512 -4.0925684 1.1259323
8.0327473 -4.0758185 1.1230972
8.0287628 -4.0703845 1.1343782
8.0440731 -4.0679502 1.1181713
8.0519753 -4.0542407 1.1274858
8.0432158 -4.0448875 1.1315538
8.0659666 -4.0344524 1.1201708
8.05968 -4.0091095 1.1288849
8.0765409 -4.0156012 1.119998
8.0681095 -4.001389 1.1246041
8.0879669 -3.9890819 1.1183776
8.083724 -3.9649966 1.1177073
8.0966301 -3.970597 1.1312692
8.1008015 -3.9465742 1.1160561
8.1087503 -3.94032 1.123335
8.1059971 -3.9284804 1.1287416
8.1072969 -3.9195302 1.1333503
8.117197 -3.9024894 1.1320604
8.115797 -3.8941965 1.1330297
8.125493 -3.8799276 1.1169543
8.1397791 -3.8713779 1.1219215
8.1478233 -3.8526325 1.1197016
8.1551819 -3.8465264 1.1206011
8.156086 -3.8417788 1.1342353
8.1617613 -3.8345964 1.1228281
8.1546993 -3.815665 1.1319572
8.173028 -3.8009167 1.1187253
8.1759501 -3.781734 1.1312155
8.1775656 -3.7894034 1.1206722
8.1801348 -3.7728114 1.1330638
8.0088053 -3.6654575 1.1636257
8.0201206 -3.6576059 1.1606219
8.0292006 -3.6477838 1.1723673
8.0191631 -3.6424296 1.1574963
8.0227451 -3.6367562 1.1584359
8.0349045 -3.6234848 1.1669279
8.0361767 -3.617209 1.1587818
8.0442019 -3.5933197 1.158424
8.0447016 -3.5931075 1.1589955
8.0546417 -3.5756023 1.1647502
8.0569582 -3.5568802 1.1645479
8.0688591 -3.5519738 1.1610221
8.0777397 -3.543103 1.1761359
8.078351 -3.5293684 1.1654146
8.084075 -3.5171356 1.1691699
8.090723 -3.497812 1.1749929
8.0858469 -3.5022686 1.175881
8.0928097 -3.483737 1.1694404
8.0993986 -3.4697275 1.1719873
8.1065426 -3.470783 1.1608073
8.1194258 -3.4545121 1.1571103
8.1120911 -3.4313152 1.1670741
8.1212149 -3.4241958 1.1746559
8.1254368 -3.4214084 1.1647127
8.1389208 -3.3978245 1.1757356
8.1361456 -3.392504 1.1748085
8.1391764 -3.3769553 1.1581447
8.1430798 -3.3793242 1.168725
8.1405268 -3.3599689 1.162021
8.1605053 -3.3583179 1.1629605
8.1492872 -3.3286161 1.1688634
8.154356 -3.3310664 1.166649
8.1693735 -3.3091941 1.1602329
8.171957 -3.3078856 1.1652764
8.1845808 -3.2978625 1.1625695
8.1882114 -3.2753692 1.1738421
8.1908989 -3.2745829 1.1693158
8.196907 -3.2546153 1.171066
8.0115805 -3.1695571 1.2017728
8.0213318 -3.1618156 1.2018011
8.0320072 -3.1499667 1.200157
8.0285702 -3.1377077 1.2046822
8.0229034 -3.1350746 1.1996927
8.0308046 -3.1144857 1.204618
8.0437336 -3.1058843 1.2081664
8.0539398 -3.0982473 1.2028017
8.0554028 -3.0925021 1.2068106
8.0523243 -3.0653121 1.199368
8.0509806 -3.0660975 1.2132078
8.0593653 -3.0415621 1.2036114
8.0677633 -3.0307665 1.2146796
8.074501 -3.0278077 1.2068166
8.0657482 -3.0149002 1.2103901
8.07199 -2.9984601 1.2033502
8.0831413 -2.993444 1.2137032
8.2613916 -3.050571 1.1595162
8.2707901 -3.0422873 1.1608161
8.2841816 -3.0213885 1.1580789
8.2901144 -3.0061238 1.1633236
8.2898703 -3.0067484 1.161865
8.3000145 -2.9832346 1.1599573
8.4853392 -3.0436985 1.1287957
8.4787483 -3.0304132 1.1202471
8.4957142 -3.0150976 1.1168761
8.4856243 -3.0128262 1.1272529
8.5058708 -3.000051 1.1172409
8.6774645 -3.0473218 1.0830139
8.6858435 -3.0400014 1.0791056
8.6914682 -3.0309753 1.0789138
8.7023211 -3.0264039 1.086543
8.7116976 -2.9958835 1.0861259
8.699151 -2.9883459 1.0801512
8.901515 -3.0352907 1.0346709
8.9102745 -3.0256128 1.0536336
8.8956451 -3.0102472 1.0430268
8.911375 -2.9988408 1.0533484
8.9170761 -3.0046184 1.0497321
9.0950632 -3.0486231 1.000358
9.1036425 -3.0286474 1.00885
9.1120129 -3.0220485 1.0097854
9.107995 -3.0102847 1.0091074
9.1235418 -2.9952638 1.0038272
9.3190947 -3.0482314 0.9621309
9.3041983 -3.0353847 0.95866454
9.3282461 -3.0214 0.95814782
9.3216696 -2.9959006 0.95661569
9.3253965 -2.9888988 0.95687807
9.5119085 -3.0334048 0.92208284
9.523654 -3.0335755 0.91552675
9.5238724 -3.0096083 0.92286521
9.5250082 -2.9938745 0.92925704
9.7121983 -3.0454948 0.87699115
9.7274199 -3.0327754 0.88104337
9.7218885 -3.0191994 0.88495463
9.732872 -3.0058036 0.88985682
9.9303961 -3.0408549 0.84629661
9.9193735 -3.038451 0.837695
9.9285936 -3.020129 0.83132172
9.9439611 -3.0143008 0.83150041
9.9327526 -2.9924748 0.84236282
10.136338 -3.0300679 0.79470772
10.138901 -3.0147913 0.80180299
10.150139 -3.0085397 0.78805584
10.145411 -2.9920471 0.79431713
10.332358 -3.0240843 0.75943846
10.336481 -3.014297 0.75455081
10.337984 -2.999784 0.75822055
10.538882 -3.0348003 0.72539783
10.545447 -3.0238817 0.72550684
10.55217 -3.008364 0.71357757
10.549734 -3.0009089 0.70653754
10.748902 -3.0285912 0.67967415
10.746902 -3.0155184 0.6658808
10.751135 -3.0113683 0.67443055
10.761607 -2.9922292 0.67209202
10.946755 -3.0256128 0.64415532
10.958454 -3.0090265 0.63726431
10.953802 -3.0037487 0.63543934
11.146099 -3.0277765 0.58886737
11.149724 -3.0174201 0.58406556
11.161398 -3.0137048 0.59200341
11.355057 -3.0341554 0.55004203
11.353817 -3.0297484 0.54712522
11.358762 -3.0053272 0.55336261
11.372233 -2.9946306 0.54373723
11.552672 -3.0213504 0.5171721
11.556856 -3.0105591 0.51287842
11.574127 -2.988627 0.51857966
11.759084 -3.0363963 0.47562587
11.768943 -3.0155294 0.46843204
11.773977 -2.9872026 0.46938944
11.956663 -3.0266433 0.42419612
11.968657 -3.0031126 0.42853186
11.977711 -2.9988563 0.42144293
8.0197954 -4.9464145 1.105965
8.0259047 -4.9344058 1.1032836
8.0315056 -4.9295788 1.114329
8.0386658 -4.908493 1.1204759
8.0432987 -4.9089947 1.1120164
8.0421982 -4.8970952 1.1083114
8.0422411 -4.8853674 1.1162488
8.061533 -4.8707685 1.1083913
8.0658941 -4.8482466 1.1224551
8.0728397 -4.8494554 1.113873
8.0775194 -4.8390336 1.1222034
8.0876932 -4.8294039 1.1113666
8.09517 -4.8010573 1.1141722
8.0936756 -4.7924209 1.1068686
8.0983133 -4.786005 1.1078591
8.1144753 -4.7675285 1.109535
8.1269159 -4.7558317 1.1117154
8.1272793 -4.7516494 1.1172616
8.1397686 -4.7498975 1.1140876
8.146306 -4.7279754 1.1184522
8.1442461 -4.7281342 1.1219773
8.1504993 -4.7048631 1.1038616
8.1659012 -4.7008438 1.1028116
8.1640921 -4.6850309 1.1191088
8.174964 -4.6712785 1.1105224
8.1868105 -4.6680446 1.1091042
8.0099993 -4.5619287 1.1475954
8.0255346 -4.5394444 1.1594117
8.0266008 -4.5311041 1.1616435
8.024477 -4.5228448 1.1544516
8.0467024 -4.5032487 1.1557465
8.0524368 -4.5039849 1.1489484
8.0600395 -4.4958901 1.1547962
8.066577 -4.4761596 1.1450742
8.069396 -4.472096 1.1577134
8.0636129 -4.4627094 1.1421856
8.076396 -4.4463239 1.1442572
8.0881243 -4.4207592 1.1576325
8.0916529 -4.4204688 1.1481578
8.0973978 -4.408627 1.1557438
8.0959349 -4.4008694 1.1517185
8.1157513 -4.3936701 1.1557406
8.1087532 -4.3651457 1.1566321
8.1275873 -4.3563461 1.1460203
8.1366844 -4.3509736 1.1482292
8.1384039 -4.337615 1.1485733
8.1445808 -4.3376889 1.1540427
8.152812 -4.3122334 1.1538081
8.1544037 -4.3094335 1.1425864
8.1665049 -4.2870564 1.1519204
8.1661758 -4.2922945 1.1577177
8.1618061 -4.2638526 1.1594107
8.1814423 -4.2685289 1.1583161
8.1819534 -4.2404761 1.154701
8.0178556 -4.1390405 1.1846595
8.0098066 -4.1325765 1.1971087
8.0220861 -4.1259942 1.1981385
8.0398188 -4.1172214 1.193269
8.037302 -4.0928836 1.1998371
8.0435467 -4.0824542 1.1974109
8.0391111 -4.0783486 1.1983671
8.0604563 -4.0645914 1.1963772
8.0634794 -4.0571609 1.1983142
8.0653915 -4.0551653 1.1968994
8.063673 -4.0292163 1.195132
8.0723677 -4.0171056 1.1886503
8.0734949 -4.0184884 1.1975646
8.0956364 -4.0078959 1.1840572
8.0928936 -3.9855628 1.1836857
8.0967016 -3.9827106 1.1825325
8.0980692 -3.970005 1.1942668
8.1003761 -3.9616492 1.1885316
8.1206779 -3.9359498 1.198993
8.1229 -3.9340017 1.2002076
8.1236925 -3.9194202 1.1961207
8.1227016 -3.9017768 1.1928868
8.1352129 -3.9086223 1.1970038
8.1366224 -3.8789272 1.2004396
8.1445093 -3.8775609 1.194927
8.1520081 -3.8579555 1.2009773
8.1583385 -3.8625369 1.188436
8.1563873 -3.8503489 1.1929457
8.168685 -3.8233819 1.191842
8.1714277 -3.8196986 1.2013659
8.1753693 -3.8007135 1.1941435
8.1952076 -3.7881947 1.1932287
8.0139523 -3.706109 1.2336552
8.0145273 -3.6908197 1.2328955
8.0185223 -3.6730714 1.2221437
8.0369892 -3.6732354 1.2396311
8.0414915 -3.6524651 1.2211634
8.0334358 -3.6390264 1.2235023
8.0498743 -3.6386542 1.2214196
8.0451946 -3.6208875 1.231624
8.0500221 -3.6045115 1.2294095
8.0676117 -3.5936129 1.2283027
8.06427 -3.5914259 1.2353485
8.0618095 -3.5738335 1.2265059
8.0785742 -3.5773997 1.2242271
8.0845709 -3.5476375 1.2305921
8.0880384 -3.5384963 1.2265283
8.0930233 -3.5425174 1.2246968
8.1003313 -3.5151913 1.232024
8.1055412 -3.5176218 1.2258974
8.1009388 -3.5002849 1.2249193
8.1141071 -3.4904029 1.2236049
8.1061525 -3.4688909 1.2332358
8.125227 -3.4748523 1.2292104
8.1154442 -3.4490473 1.2303629
8.1233664 -3.4422278 1.2300149
8.1376381 -3.4369061 1.2275385
8.1278296 -3.43155 1.2297641
8.1361742 -3.4038205 1.2280324
8.1518297 -3.3958006 1.2325797
8.1613436 -3.3972857 1.2231667
8.1498623 -3.3704906 1.2323315
8.157052 -3.3565218 1.2316974
8.1738558 -3.3483338 1.233784
8.1666183 -3.334769 1.230351
8.1805182 -3.3381064 1.2224063
8.1740532 -3.3119807 1.2284453
8.1850967 -3.300456 1.2284957
8.198349 -3.3053639 1.224924
8.0079861 -3.2061558 1.2775445
8.023921 -3.1956546 1.2777847
8.030426 -3.1813638 1.2734487
8.0260811 -3.1845973 1.2717036
8.0210867 -3.1757245 1.2667619
8.0381632 -3.1587708 1.2639939
8.0317907 -3.1525838 1.2664909
8.0374584 -3.1375117 1.2637095
8.0491486 -3.1160305 1.2610421
8.060874 -3.1059148 1.2620497
8.0490122 -3.1088963 1.2776207
8.0702248 -3.0804279 1.2725168
8.071661 -3.0699224 1.2705216
8.0687466 -3.0682149 1.2741045
8.0640707 -3.0559399 1.2753655
8.0744381 -3.0510104 1.2623792
8.0820217 -3.0368598 1.2643727
8.0920858 -3.0214326 1.2702254
8.0993538 -3.0186899 1.2663398
8.1039371 -2.9885812 1.2613446
8.2733555 -3.0627933 1.2226058
8.2945814 -3.0517492 1.2406282
8.2906876 -3.023581 1.2379127
8.3047829 -3.0226238 1.2256548
8.3024445 -3.0106235 1.2344165
8.3013506 -2.992521 1.2368459
8.4916601 -3.0576572 1.182628
8.4996347 -3.050133 1.1920941
8.4934444 -3.0195591 1.1930236
8.5033531 -3.0086033 1.1927763
8.5082493 -2.996258 1.1951406
8.5139208 -2.9869523 1.196995
8.7025547 -3.0508146 1.1559278
8.7035904 -3.0395324 1.1437823
8.7123508 -3.0148058 1.1520658
8.709856 -3.0153737 1.1468741
8.7297745 -2.9942229 1.151535
8.9003944 -3.0530915 1.1123433
8.9151459 -3.0384037 1.1114031
8.9108086 -3.0180364 1.1095601
8.9262075 -3.0169845 1.108198
8.9239531 -2.9944568 1.1042715
9.1093826 -3.0548668 1.070101
9.1274986 -3.0357983 1.0746027
9.1334505 -3.0322046 1.0716848
9.1276684 -3.0153241 1.0760468
9.1366768 -3.0027277 1.0694019
9.3166065 -3.0502403 1.0359261
9.3306637 -3.0258608 1.0242398
9.3237629 -3.030057 1.0404861
9.335001 -3.0030766 1.0253438
9.3448591 -3.0025549 1.0402828
9.5374727 -3.0464735 0.98526549
9.5288105 -3.0364373 0.99612945
9.544632 -3.0246878 0.99786347
9.5375166 -3.0029418 1.0037484
9.7417765 -3.0551829 0.94996393
9.7324228 -3.0389051 0.95659339
9.7491045 -3.0128229 0.95459521
9.7540817 -2.9978762 0.95538741
9.7552853 -2.9959085 0.95014101
9.9487658 -3.0457664 0.91286087
9.9498091 -3.016145 0.91799724
9.9553452 -2.9994311 0.91987252
9.951726 -2.9911232 0.92019385
10.157578 -3.0305762 0.8694216
10.161617 -3.0202913 0.87141538
10.151383 -3.0036135 0.87610477
10.167759 -2.9944875 0.87328833
10.350184 -3.0399876 0.83229417
10.365392 -3.0128298 0.83919823
10.355332 -3.0038061 0.84012353
10.367503 -2.997978 0.83679682
10.553164 -3.0251689 0.79677433
10.572382 -3.0255785 0.79070497
10.5719 -3.0120728 0.78772885
10.768756 -3.0323133 0.76134807
10.75906 -3.0331974 0.75701076
10.774032 -3.0219057 0.74762851
10.766167 -3.0004363 0.75395709
10.965713 -3.0404899 0.71346813
10.963319 -3.0220635 0.72708201
10.981829 -2.9956636 0.71206707
11.166104 -3.0478547 0.6702047
11.180825 -3.0330954 0.67273122
11.169454 -3.0030296 0.67402595
11.175085 -2.9888992 0.6738835
11.383245 -3.0193546 0.63831407
11.377715 -3.0081534 0.63854808
11.382781 -2.9890211 0.64522702
11.583764 -3.0332716 0.58978444
11.574225 -3.0140355 0.59699857
11.578278 -3.0005023 0.59530675
11.77711 -3.0250549 0.55828279
11.783839 -3.0098085 0.55996662
11.793071 -2.9901538 0.55612868
11.973597 -3.0373268 0.51129735
11.984002 -3.0213921 0.51058573
11.998345 -2.9952128 0.52520549
8.0174236 -4.9705453 1.1895258
8.0146427 -4.945137 1.1814156
8.0386038 -4.9383945 1.1836151
8.0278893 -4.9342585 1.178037
8.0445719 -4.9282451 1.1840628
8.0508041 -4.8994594 1.1842084
8.0660448 -4.8984962 1.1812218
8.0560713 -4.8857145 1.1857182
8.0618954 -4.870615 1.1857098
8.0750103 -4.8676057 1.179249
8.0902014 -4.8441896 1.1817992
8.0951347 -4.8304811 1.1785755
8.0919428 -4.8197207 1.1909028
8.1109343 -4.8265705 1.1761649
8.104332 -4.8036175 1.1762292
8.1237402 -4.8012962 1.1738589
8.1232777 -4.7905817 1.1812216
8.1398134 -4.7766733 1.1901264
8.1408291 -4.7637577 1.1828814
8.14182 -4.7445283 1.1873869
8.1563349 -4.7368932 1.1840402
8.1533842 -4.7310944 1.1831247
8.1671934 -4.7152414 1.181682
8.173315 -4.7071352 1.1820928
8.1846819 -4.6923532 1.1741506
8.0058069 -4.5871477 1.2153109
8.0146999 -4.5670562 1.2177647
8.0309401 -4.5571046 1.2227925
8.0360689 -4.5527968 1.2293928
8.0339375 -4.5341411 1.2238696
8.0362959 -4.5275984 1.2146193
8.0552921 -4.5106187 1.2197967
8.0533571 -4.5064254 1.2294464
8.0699635 -4.5026913 1.2158128
8.0669651 -4.4741545 1.225562
8.0760088 -4.480751 1.211386
8.0881014 -4.4648504 1.2261223
8.0826311 -4.4390903 1.2196217
8.1021729 -4.434566 1.2262317
8.1083002 -4.4185224 1.2202913
8.1088877 -4.4064546 1.2096784
8.1202087 -4.4017081 1.2248217
8.1166916 -4.3852 1.2129256
8.1228085 -4.3783717 1.2135221
8.1352758 -4.3608136 1.211405
8.1374769 -4.3604665 1.2114328
8.1454859 -4.3542676 1.2160935
8.1482153 -4.3397627 1.215238
8.1644287 -4.3319244 1.2276216
8.1672354 -4.304152 1.2247548
8.1640863 -4.3019686 1.2226537
8.1703081 -4.2946253 1.2139876
8.1716576 -4.2769442 1.2105103
8.0071154 -4.168283 1.2606291
8.0170059 -4.1645036 1.2588732
8.024765 -4.1446214 1.2661188
8.0325356 -4.1428123 1.2482095
8.0449505 -4.1243405 1.2534428
8.0364952 -4.115706 1.2551438
8.0404081 -4.1102991 1.253238
8.0614376 -4.0940604 1.2621278
8.0603504 -4.0776024 1.2669648
8.0705824 -4.0657821 1.2580787
8.0773201 -4.0704956 1.2554483
8.0760651 -4.0511465 1.2654191
8.0730391 -4.0498519 1.2640859
8.0972424 -4.0265841 1.2533672
8.0835199 -4.0166817 1.249918
8.0950155 -4.0010009 1.2638927
8.1081972 -3.9871583 1.2520554
8.1194563 -3.97802 1.2652303
8.1195898 -3.9756877 1.2636285
8.1245441 -3.9688275 1.2626042
8.1205969 -3.9409163 1.2656158
8.1340036 -3.9399323 1.2567179
8.1373644 -3.9276311 1.2578483
8.1393776 -3.9167671 1.2509724
8.1506548 -3.9052498 1.2627164
8.1584682 -3.8878458 1.2588511
8.1602392 -3.8828542 1.2575307
8.1701574 -3.8721809 1.2540426
8.1732349 -3.866936 1.2615734
8.174695 -3.8422825 1.2646432
8.1751146 -3.8271067 1.264295
8.1785297 -3.8240387 1.2535942
8.0151606 -3.7399769 1.3019464
8.0106602 -3.722765 1.2917142
8.019268 -3.6997421 1.3016394
8.0396051 -3.6943579 1.2976012
8.0360603 -3.6926377 1.2871796
8.0311804 -3.6664183 1.2960488
8.0427961 -3.6625254 1.2987726
8.0419273 -3.6425607 1.2947521
8.0641127 -3.6475482 1.2945024
8.0659342 -3.6344767 1.2859079
8.0570393 -3.6122439 1.286824
8.0783844 -3.5997195 1.2937728
8.0694809 -3.6037793 1.2925578
8.0904875 -3.5926797 1.3055334
8.0874405 -3.5702858 1.2890283
8.093955 -3.5579178 1.2875341
8.089324 -3.5590641 1.2987176
8.1074009 -3.5461938 1.2986434
8.1014414 -3.5362372 1.3023518
8.1152163 -3.5095425 1.2878951
8.1203804 -3.4968104 1.3044271
8.1264458 -3.4877853 1.3022327
8.1194429 -3.4926994 1.3047204
8.1312103 -3.4816272 1.2870426
8.1359377 -3.4586074 1.3004868
8.1441431 -3.4540613 1.2950199
8.1508389 -3.4391198 1.2971205
8.1487026 -3.4310596 1.3007984
8.1464758 -3.4139004 1.3031332
8.167942 -3.4078927 1.300856
8.1549358 -3.4016304 1.2999972
8.1784449 -3.3741977 1.2968431
8.1797447 -3.3786461 1.2974476
8.1835155 -3.35619 1.2977898
8.1895924 -3.3538544 1.2898111
8.1890984 -3.3281441 1.2950308
8.001298 -3.246464 1.3419338
8.0173025 -3.2460632 1.3274398
8.0169687 -3.2326732 1.3387368
8.0189543 -3.222585 1.3246672
8.0186472 -3.2102556 1.3254786
8.0374651 -3.1991532 1.3423347
8.0331135 -3.1914718 1.3433481
8.0493517 -3.1647241 1.3354167
8.0459156 -3.1565878 1.3384132
8.0544853 -3.1536186 1.335706
8.0482588 -3.1412838 1.3291689
8.0508232 -3.1174824 1.3318592
8.0588779 -3.1185367 1.3367603
8.0582142 -3.1021118 1.3405635
8.0634651 -3.0904851 1.3255038
8.0695114 -3.0845153 1.3303483
8.0723982 -3.0673568 1.3316693
8.0762825 -3.0584049 1.3285272
8.0922203 -3.0573175 1.3423045
8.0911379 -3.032073 1.3278275
8.1073332 -3.0174518 1.3344561
8.0969753 -3.0046477 1.3336504
8.109293 -3.0081544 1.3405488
8.1064949 -2.9966753 1.3326242
8.291687 -3.0522356 1.286976
8.2976961 -3.0378549 1.2941341
8.3085327 -3.0248904 1.2871848
8.3206749 -3.0123284 1.2979155
8.3096581 -3.0081005 1.2984558
8.3124027 -2.9892101 1.2929567
8.5054197 -3.044775 1.2526925
8.5203762 -3.0282533 1.2520331
8.5145111 -3.0236232 1.2565653
8.5155268 -3.0059834 1.2612693
8.5286016 -2.9915307 1.2670556
8.7193327 -3.0604441 1.2175496
8.7120714 -3.0373824 1.2275223
8.717844 -3.0264018 1.2184687
8.7343302 -3.0106449 1.2220489
8.7313395 -2.9963341 1.2129194
8.9285078 -3.0617712 1.1849329
8.9179049 -3.0324192 1.179695
8.9266253 -3.0331676 1.1872116
8.9398613 -3.0171177 1.1804864
8.9377832 -3.0121946 1.1763263
8.9414749 -2.9859498 1.1764785
9.1399412 -3.0334918 1.1494383
9.1422472 -3.0369768 1.1393111
9.1354818 -3.0082004 1.1527711
9.1522789 -3.0066226 1.1483662
9.1599283 -2.9977424 1.1501672
9.3443041 -3.0446928 1.110777
9.336875 -3.0259421 1.0962825
9.3569441 -3.0181839 1.105379
9.3502703 -2.9967141 1.1069343
9.5463886 -3.0556686 1.0641679
9.5557537 -3.0263519 1.0617462
9.5561571 -3.0189743 1.0630976
9.5664139 -3.0025895 1.0604774
9.5701122 -2.9936173 1.0666813
9.7567711 -3.0398026 1.0309092
9.7579107 -3.0335429 1.034483
9.7577362 -3.0189531 1.0237753
9.7630491 -2.9885168 1.027788
9.965148 -3.0465269 0.98213017
9.9611549 -3.0217457 0.98248655
9.9724722 -3.0118511 0.99884295
9.9613485 -3.0057869 0.98925442
10.159584 -3.0501988 0.94462574
10.167231 -3.018327 0.95373142
10.181062 -3.0113575 0.96192694
10.177198 -3.0074894 0.9627744
10.365228 -3.043484 0.90650153
10.374268 -3.0226376 0.90514189
10.367299 -3.0115843 0.9097147
10.37275 -2.9887688 0.90517521
10.567183 -3.0332761 0.87853462
10.569382 -3.0184345 0.88214958
10.581971 -3.017571 0.88396025
10.588008 -2.9933057 0.8834632
10.772078 -3.0327954 0.83765382
10.775449 -3.0067308 0.83961767
10.779646 -3.0051625 0.84685743
10.974815 -3.0313668 0.80238104
10.979507 -3.0159295 0.79258251
10.988751 -2.9992449 0.79112166
10.993435 -3.0009565 0.80508476
11.179012 -3.0362196 0.76104003
11.198795 -3.0113349 0.76119637
11.200367 -3.004611 0.77085328
11.391094 -3.0376594 0.72151399
11.404482 -3.0205851 0.72129542
11.399813 -3.0035226 0.72759897
11.592246 -3.0345709 0.68711835
11.588461 -3.0149801 0.68484932
11.594854 -3.0103641 0.68393689
11.789858 -3.0343895 0.64788246
11.808778 -3.017082 0.65083313
11.801725 -3.0042181 0.64305818
12.005104 -3.0423176 0.60829473
12.007887 -3.0149517 0.61367476
11.999403 -2.9984291 0.60023654
8.0159616 -4.9831533 1.2514384
8.0215549 -4.9664445 1.241182
8.0370646 -4.964829 1.2434212
8.0460052 -4.9551091 1.2481886
8.0536203 -4.9426994 1.2545871
8.0503387 -4.9230542 1.2529311
8.0659733 -4.9212022 1.2469047
8.0639515 -4.9020953 1.2443784
8.0724268 -4.8848944 1.2550588
8.073554 -4.8760285 1.2468624
8.0870171 -4.8782449 1.2549117
8.1049652 -4.8618197 1.248482
8.0926409 -4.8368201 1.2524706
8.10254 -4.8298011 1.2549715
8.1171904 -4.8220716 1.2586652
8.1182241 -4.804513 1.2507778
8.1375856 -4.7981925 1.2535061
8.1309052 -4.7807517 1.2440953
8.1416826 -4.7816772 1.2406303
8.1431236 -4.7683015 1.2547666
8.156353 -4.7482738 1.2554116
8.1576166 -4.7370934 1.2411983
8.1724339 -4.7250161 1.2406908
8.1712236 -4.7298036 1.2558995
8.0022449 -4.6083527 1.2841859
8.0270605 -4.5911732 1.2820486
8.0239735 -4.5813475 1.2949008
8.0235987 -4.5849037 1.2938534
8.0337973 -4.5643663 1.2805303
8.0405159 -4.5490565 1.2892237
8.0413542 -4.5471697 1.2865762
8.0628233 -4.5306573 1.2837315
8.0700617 -4.525949 1.2815766
8.0767784 -4.5090556 1.2832385
8.0786877 -4.4974766 1.2966107
8.0722065 -4.4875183 1.2959858
8.0835724 -4.4670682 1.2940003
8.0877752 -4.4733982 1.2772639
8.0909147 -4.4559183 1.2898607
8.1007147 -4.4380946 1.2865547
8.1191931 -4.4257903 1.2939137
8.1150084 -4.4183602 1.2865545
8.1279621 -4.410018 1.2926644
8.1387463 -4.4012709 1.2844194
8.131176 -4.3769102 1.2964963
8.1369619 -4.3653107 1.2872655
8.142107 -4.368609 1.2872103
8.1652508 -4.3539534 1.289542
8.1716423 -4.342391 1.2780609
8.1706152 -4.3272452 1.2931031
8.1662655 -4.3198223 1.2891401
8.1892595 -4.3027697 1.281289
8.010911 -4.2073278 1.3271139
8.012496 -4.1991038 1.3136898
8.0258198 -4.1845884 1.3332824
8.0312061 -4.1704097 1.3331221
8.0273447 -4.1571918 1.3183023
8.0434132 -4.1469212 1.3267685
8.0417976 -4.1363335 1.3154191
8.0486851 -4.1328321 1.3278289
8.0505991 -4.1197233 1.3162667
8.0685339 -4.1096482 1.3303531
8.0786028 -4.0899653 1.3168646
8.0778198 -4.0745659 1.3204225
8.0835972 -4.0716939 1.3273102
8.0889511 -4.0492725 1.3171831
8.0941296 -4.0565333 1.3290719
8.1044722 -4.0335312 1.3200214
8.1032658 -4.0179343 1.3303405
8.110693 -4.021224 1.3329347
8.1105156 -4.0083575 1.3174036
8.1187592 -3.9832988 1.3207053
8.1210737 -3.9738982 1.3324394
8.1298838 -3.9709918 1.3283151
8.1422358 -3.9480035 1.3157965
8.1414604 -3.9453411 1.3144246
8.1505413 -3.9431643 1.3145099
8.151495 -3.9162934 1.3263074
8.1633825 -3.9162619 1.3224039
8.1655741 -3.8944197 1.3239051
8.1703434 -3.8783565 1.3269588
8.1795654 -3.8796349 1.32375
8.1720734 -3.8641682 1.3186123
8.1962996 -3.8454449 1.325044
8.1963854 -3.8399074 1.3231192
8.2039366 -3.840668 1.3325044
8.2101002 -3.8178535 1.3327061
8.2163324 -3.7995756 1.3284107
8.2143469 -3.7948844 1.3327712
8.2284412 -3.7934611 1.3275908
8.2240219 -3.7727115 1.3270828
8.2226391 -3.7681665 1.313898
8.2380323 -3.7565248 1.3247739
8.248271 -3.746052 1.3229593
8.2449265 -3.7208724 1.3152612
8.2596397 -3.713505 1.315374
8.2637234 -3.7053213 1.3268651
8.267992 -3.6962364 1.3251905
8.2679491 -3.6744525 1.316756
8.2722502 -3.6638732 1.3182863
8.2713556 -3.6629975 1.3291005
8.289937 -3.6487718 1.3329864
8.2953167 -3.6444044 1.3170334
8.2915564 -3.6150334 1.3200654
8.3059654 -3.6142271 1.3167816
8.2926607 -3.6039102 1.329363
8.2994518 -3.5946977 1.3186182
8.3177185 -3.5863879 1.3254414
8.3142939 -3.5632761 1.3225242
8.3224192 -3.561002 1.3186549
8.332058 -3.5447457 1.3241227
8.3324947 -3.5350156 1.3322706
8.3368015 -3.5249963 1.333233
8.3451385 -3.5038118 1.3320065
8.356492 -3.4932771 1.3200191
8.3445454 -3.4810901 1.3267745
8.3651628 -3.4671378 1.3311613
8.3550205 -3.4599295 1.3322698
8.371685 -3.4411397 1.3248948
8.3654156 -3.439203 1.328192
8.3752604 -3.4325891 1.3161362
8.3905563 -3.4104834 1.3221946
8.3939848 -3.4090006 1.3266494
8.3983593 -3.3840938 1.3206587
8.4014902 -3.3727305 1.3335662
8.3926182 -3.3581948 1.3270173
8.4104843 -3.3479052 1.3227702
8.4127216 -3.3526065 1.3140744
8.4160509 -3.3254759 1.3325045
8.4119892 -3.3294301 1.3212008
8.4312077 -3.3083389 1.3248339
8.418354 -3.2967341 1.3188883
8.4315424 -3.286468 1.3227348
8.4291687 -3.2765782 1.319791
8.4407883 -3.2682915 1.3165063
8.4452991 -3.2535949 1.3160468
8.4432449 -3.2457333 1.3141599
8.4569263 -3.2203195 1.3158476
8.4618959 -3.2162457 1.3329358
8.4652796 -3.2008862 1.314333
8.4773426 -3.1909444 1.3250782
8.4730225 -3.1784761 1.3156784
8.4827394 -3.1774223 1.3247885
8.4762869 -3.1633289 1.3320256
8.4868746 -3.1421864 1.3157808
8.4941607 -3.1410873 1.3224568
8.5009708 -3.1265802 1.3252131
8.5058765 -3.1029129 1.3215947
8.512455 -3.0987806 1.3302559
8.5161037 -3.0757535 1.3224758
8.5211334 -3.0651352 1.3328304
8.5168924 -3.0632927 1.3238405
8.5232344 -3.0561719 1.3240848
8.5186701 -3.0399261 1.3265967
8.521327 -3.0174992 1.3184196
8.5277214 -3.0121756 1.3195037
8.5407753 -3.004415 1.3232505
8.7220516 -3.0613143 1.2821543
8.7343016 -3.0505073 1.2899946
8.7351952 -3.040374 1.2889998
8.748292 -3.0095174 1.2867548
8.7517262 -3.0071926 1.2944779
8.7461538 -3.0027993 1.2774415
8.9468307 -3.0508809 1.2481042
8.9440689 -3.0366333 1.2459623
8.9531126 -3.0202148 1.2572457
8.943223 -3.0149493 1.2443854
8.9570627 -2.9980807 1.2479258
9.1529112 -3.0355806 1.2134379
9.1502075 -3.0338209 1.2135632
9.1464911 -3.023195 1.2123581
9.1605129 -3.0133486 1.2212855
9.1622391 -2.9932714 1.2224076
9.3538036 -3.0437696 1.1702369
9.3658657 -3.0199697 1.1765045
9.3557682 -3.0113602 1.1867145
9.376935 -2.9968569 1.1697083
9.3652239 -2.9927127 1.1770831
9.5643492 -3.0431077 1.1401573
9.5583982 -3.0204518 1.1488922
9.5725536 -3.0057456 1.1354872
9.5854855 -3.0012336 1.1391571
9.7749701 -3.0378902 1.1134661
9.7779961 -3.0350955 1.1022043
9.7854929 -3.0244853 1.1016921
9.7792377 -3.0082018 1.0967333
9.9711428 -3.0526094 1.0765554
9.9781342 -3.0350101 1.0641142
9.9724798 -3.0097735 1.0679483
9.9865417 -2.9947274 1.0610973
10.177608 -3.0463438 1.038945
10.187039 -3.0323701 1.0246121
10.18012 -3.0207391 1.0389609
10.184152 -3.0103288 1.0224776
10.385504 -3.0521939 0.98631144
10.377798 -3.0287144 0.98945081
10.385114 -3.0254879 0.99218619
10.388892 -2.9995208 0.99860835
10.589118 -3.0379293 0.95968777
10.584325 -3.031733 0.95854932
10.59266 -3.0069518 0.94846141
10.595482 -2.9969907 0.95814806
10.793161 -3.0316143 0.92860001
10.796033 -3.0127196 0.91191179
10.802401 -3.0052674 0.91468626
10.809241 -2.9897697 0.92645419
11.008706 -3.0235627 0.89029592
11.001451 -3.0051446 0.8822673
11.000599 -2.9995985 0.87581712
11.207188 -3.0346735 0.8441292
11.202965 -3.0137892 0.83910352
11.208632 -2.9942856 0.84925377
11.413903 -3.0412836 0.80676341
11.416397 -3.0185931 0.80476695
11.42218 -3.0137508 0.81515563
11.600865 -3.0362539 0.76930839
11.621216 -3.0227139 0.78362709
11.622046 -3.000653 0.78101444
11.614825 -2.9836485 0.76859272
11.811557 -3.0228903 0.74065763
11.822882 -3.0013921 0.73463535
