# .PCD v0.7 - Point Cloud Data file format
VERSION 0.7
FIELDS x y z
SIZE 4 4 4
TYPE F F F
COUNT 1 1 1
WIDTH 1521
HEIGHT 1
VIEWPOINT 0 0 0 1 0 0 0
POINTS 1521
DATA ascii
-7.1649132 2.334631 1.0143042
-7.1602502 2.3291907 1.0336713
-7.1698966 2.3082469 1.0238526
-7.1752462 2.3110309 1.0240319
-7.1830091 2.2856052 1.0283818
-7.1812992 2.2804744 1.016965
-7.1912746 2.2746675 1.0158527
-7.1969466 2.252212 1.0285976
-7.2005458 2.2457566 1.0268761
-7.1862073 2.2440586 1.0266564
-7.2027707 2.2259305 1.0198004
-7.0208082 2.1590033 1.0684458
-7.0243001 2.1625962 1.0752558
-7.0175972 2.1440418 1.0748813
-7.0307012 2.1409125 1.0791175
-7.0194411 2.1226673 1.0682634
-7.0395842 2.1176069 1.0816475
-7.0408263 2.1100204 1.0826257
-7.0293093 2.1019671 1.0672023
-7.0395002 2.0913703 1.080139
-7.0498972 2.0673141 1.0850103
-7.0471363 2.0633962 1.0697135
-7.0466352 2.0589833 1.0678226
-7.0593104 2.0442567 1.0771942
-7.0523462 2.0393963 1.073258
-7.0611324 2.0287514 1.080902
-7.0607586 2.0209057 1.0733153
-7.066987 2.0147467 1.0679758
-7.0722232 2.0030193 1.0844207
-7.0728693 1.9840022 1.0801105
-7.0805645 1.9774755 1.0815904
-7.083375 1.9765832 1.069002
-7.0814686 1.959052 1.0818547
-7.081439 1.9516917 1.0698389
-7.0920238 1.9341279 1.0828243
-7.0865312 1.9305969 1.0750309
-6.906601 1.8600403 1.1201805
-6.9009533 1.8565116 1.1181258
-6.9006319 1.8505239 1.1342213
-6.9038525 1.8466541 1.1211811
-6.9113693 1.8378386 1.1314995
-6.9173927 1.8289491 1.1308148
-6.9159908 1.8046885 1.1224917
-6.9217234 1.8031658 1.1167052
-6.9194579 1.793753 1.1232554
-6.9241934 1.7725136 1.1161789
-6.9167085 1.7670919 1.1186581
-6.9349799 1.769901 1.1272595
-6.9352922 1.7556014 1.1195278
-6.9394956 1.740638 1.1175843
-6.9367256 1.7407008 1.116487
-6.943624 1.7172697 1.1161654
-6.9311934 1.7177563 1.1212518
-6.947072 1.6950132 1.134488
-6.9487238 1.6970247 1.1279869
-6.9438119 1.6767762 1.1299257
-6.9459624 1.6664745 1.1161255
-6.945621 1.66035 1.1348203
-6.9566641 1.6563481 1.1289052
-6.9554253 1.6505646 1.1177195
-6.9561167 1.629959 1.116293
-6.9578915 1.6248499 1.1211348
-6.9599743 1.6145525 1.1161662
-6.9569573 1.6107438 1.1181607
-6.7720909 1.5447714 1.1827954
-6.7822523 1.5491806 1.1859754
-6.7904611 1.5337658 1.1685699
-6.7924571 1.5210062 1.1747593
-6.7957449 1.5195034 1.1866693
-6.7849345 1.5015253 1.1825216
-6.7852969 1.5051289 1.1674974
-6.7870722 1.4892166 1.1770962
-6.8039927 1.4734669 1.1861329
-6.8058681 1.4629662 1.1810993
-6.8057361 1.4509507 1.1827008
-6.8118749 1.4509194 1.1781926
-6.7948203 1.4448111 1.1677541
-6.8151584 1.4388255 1.1740431
-6.8092933 1.4116576 1.1683193
-6.8115053 1.4173923 1.1741108
-6.8178515 1.4048437 1.1730016
-6.8192086 1.3925854 1.1854793
-6.8109536 1.3854593 1.1717091
-6.8136487 1.3784968 1.1769427
-6.8213639 1.3536925 1.1796685
-6.8274641 1.3447621 1.1718733
-6.8180594 1.3348857 1.167483
-6.8190804 1.3266578 1.1866229
-6.8337984 1.3262677 1.1681136
-6.8342271 1.3056256 1.1848603
-6.8288507 1.3005836 1.1785827
-6.8245707 1.2961178 1.1695737
-6.8277993 1.2818266 1.1829681
-6.8447847 1.2867472 1.1789323
-6.8365235 1.2658458 1.1796272
-6.8455229 1.2607238 1.1809292
-6.651978 1.2124739 1.232814
-6.6530886 1.1997217 1.2350945
-6.655046 1.1940916 1.2265304
-6.6554999 1.1898596 1.226872
-6.659194 1.1728172 1.2317222
-6.6691527 1.1618555 1.2216594
-6.668107 1.1494519 1.2268611
-6.6536546 1.1418363 1.2265413
-6.6632247 1.1442423 1.2348804
-6.6720867 1.1393958 1.2276607
-6.6596336 1.1195017 1.2361555
-6.6662021 1.1201695 1.2212002
-6.6704769 1.1005392 1.2299192
-6.6633024 1.1021014 1.2237127
-6.6757736 1.0816032 1.2297728
-6.6833816 1.0727665 1.2341822
-6.6810393 1.0665828 1.2355016
-6.6734824 1.0564463 1.218521
-6.6862321 1.0383213 1.2332644
-6.69063 1.0329025 1.2324815
-6.6822343 1.0214922 1.2211266
-6.6853304 1.0250561 1.219764
-6.6833692 1.0058748 1.2280976
-6.6926761 0.99538416 1.2273222
-6.6881762 0.99392587 1.2353795
-6.6976027 0.98635006 1.223933
-6.6826072 0.96259403 1.2356377
-6.6862793 0.96785951 1.2265429
-6.6869187 0.96182656 1.2286623
-6.692802 0.95283455 1.234704
-6.6994548 0.93366355 1.2186786
-6.6974492 0.93280846 1.2355621
-6.6967936 0.91531408 1.2226113
-6.7077913 0.90989929 1.228519
-6.6995511 0.89035767 1.2223192
-6.7032404 0.88274932 1.2178967
-6.5065498 0.84669036 1.2699916
-6.5099206 0.85335481 1.2857898
-6.5223732 0.84070092 1.2849135
-6.5126939 0.82347208 1.2844056
-6.5169601 0.8208853 1.2740887
-6.5172391 0.80158579 1.2722807
-6.5206218 0.8042109 1.282344
-6.5169425 0.7970944 1.27636
-6.5273428 0.77946085 1.2802037
-6.5239301 0.77936739 1.28581
-6.5249271 0.76536769 1.2695234
-6.5247359 0.74916637 1.2690077
-6.5287333 0.74166882 1.2849462
-6.5335941 0.72499436 1.2727658
-6.5189505 0.72518468 1.2871099
-6.5346107 0.72621441 1.2712673
-6.5320663 0.70496708 1.2871644
-6.5394459 0.688492 1.285061
-6.725173 0.70266223 1.2235225
-6.714695 0.70107859 1.2219287
-6.7185979 0.69955254 1.2354556
-6.7187738 0.67926019 1.2219033
-6.7194529 0.67599964 1.2299768
-6.7241797 0.66889471 1.2305006
-6.7210741 0.65743738 1.2203411
-6.7236114 0.65131092 1.2203389
-6.7219777 0.62870723 1.2282186
-6.7244339 0.61968964 1.2287533
-6.7289805 0.61827433 1.2326248
-6.9167938 0.6253134 1.1733953
-6.9335508 0.61212707 1.1729617
-6.9367676 0.59970611 1.18164
-6.9335232 0.58753502 1.1764636
-6.9221921 0.59155238 1.1735891
-6.9303231 0.57957762 1.1686655
-6.9286003 0.56595498 1.1670249
-6.9268661 0.55484188 1.1721913
-6.9372392 0.54213548 1.1777521
-7.1199222 0.54031867 1.1203917
-7.1258817 0.54933006 1.1333951
-7.1201377 0.52243143 1.1228964
-7.1348138 0.51314962 1.1296626
-7.1207972 0.50793236 1.1339445
-7.1319437 0.49485314 1.1319317
-7.1259503 0.49443579 1.1276331
-7.1248665 0.47652081 1.1194021
-7.1254096 0.46110609 1.1297492
-7.3337994 0.46823305 1.0661632
-7.3236041 0.45384338 1.0667864
-7.3198361 0.45423985 1.0663846
-7.3230505 0.44111189 1.0690488
-7.3367491 0.43402597 1.0723969
-7.3236675 0.42166045 1.0804944
-7.3262897 0.41883889 1.0654805
-7.3309102 0.40268677 1.0800177
-7.3198147 0.38828054 1.0666095
-7.5301008 0.38371497 1.0168382
-7.5168743 0.37441608 1.0229223
-7.5163002 0.37594974 1.0248585
-7.5150881 0.36187449 1.0174338
-7.5342636 0.34519374 1.0271245
-7.5307598 0.33540887 1.0199739
-7.5238929 0.31928611 1.0307028
-7.5289145 0.32110727 1.028856
-7.7221961 0.30643675 0.9701851
-7.727675 0.29555175 0.97827435
-7.7265468 0.28806832 0.98231095
-7.7242565 0.2743336 0.96756738
-7.7158666 0.26168054 0.96487683
-7.7255254 0.25073239 0.97863108
-7.7225943 0.24108729 0.96622545
-7.7299571 0.23540951 0.97455633
-7.917789 0.22246525 0.92636758
-7.9215508 0.219246 0.92144167
-7.9271436 0.21642576 0.92479134
-7.9204731 0.2085418 0.92804968
-7.9256978 0.18218598 0.91461891
-7.9268708 0.1785059 0.91824824
-7.9227719 0.16358568 0.92001987
-8.1147251 0.16288979 0.87072027
-8.1195364 0.14166701 0.87349087
-8.1167374 0.13340645 0.88138044
-8.1055918 0.13095741 0.86170501
-8.1116991 0.10504884 0.86987793
-8.1027174 0.093834102 0.86629862
-8.1103706 0.089561164 0.86590379
-8.3081512 0.081957445 0.81930298
-8.3059473 0.071513206 0.81101018
-8.3000975 0.06539306 0.81886661
-8.312459 0.040906478 0.81356865
-8.3031864 0.03180778 0.81838793
-8.3111258 0.025691304 0.82628697
-8.3111601 0.010887971 0.82307756
-8.5042629 -0.010124118 0.7743814
-8.4957666 -0.022036666 0.77673042
-8.4908323 -0.02148209 0.76614767
-8.5062771 -0.045201998 0.77766436
-8.4973869 -0.046627134 0.77034831
-8.4967728 -0.062128153 0.76852375
-8.7016869 -0.071805738 0.72290534
-8.6984777 -0.09056589 0.71071887
-8.6904335 -0.097240314 0.72402781
-8.6944733 -0.10393938 0.71414518
-8.701705 -0.13033852 0.71511447
-8.686697 -0.12826481 0.71605307
-8.8827009 -0.14478998 0.65850914
-8.8758879 -0.15359391 0.66004592
-8.8775406 -0.17358093 0.67203927
-8.8864918 -0.19304378 0.66041309
-8.8772507 -0.20412605 0.67286307
-9.0760403 -0.21696799 0.60778528
-9.0736437 -0.23733556 0.61910307
-9.07792 -0.24190208 0.61587268
-9.0720615 -0.25387695 0.61839372
-9.0852156 -0.27103737 0.61513889
-9.0774136 -0.2710343 0.61100143
-9.2695208 -0.2909123 0.55956084
-9.2667618 -0.30650079 0.57147169
-9.2719927 -0.3313078 0.55633873
-9.2688303 -0.3471579 0.56254214
-9.273201 -0.3487505 0.57316428
-9.4649639 -0.37608328 0.50518775
-9.4521275 -0.38049468 0.51625097
-9.4625034 -0.39940867 0.50802612
-9.4503403 -0.41185594 0.51532722
-9.4614124 -0.41689783 0.51531714
-9.6497974 -0.4503195 0.46365723
-9.6454792 -0.45253363 0.4602823
-9.649231 -0.48043722 0.46505421
-9.648098 -0.48565641 0.46692929
-9.6407423 -0.49574116 0.46016428
-9.8358698 -0.53535891 0.4159106
-9.8348961 -0.5324443 0.41138536
-9.8428411 -0.56046665 0.42116627
-9.8389921 -0.57690489 0.41171932
-10.020885 -0.59660077 0.35953003
-10.029689 -0.6007874 0.36721581
-10.019215 -0.62130374 0.36617395
-10.032097 -0.626239 0.37071416
-10.020186 -0.65072602 0.36351985
0.24032438 4.0762687 1.9719347
0.22857057 4.0796437 1.9653857
0.21546213 4.0836282 1.9614487
0.21716109 4.0754085 1.9731483
0.1996955 4.0704513 1.9628701
0.20539162 4.0674448 1.9625102
0.20611291 4.0772734 1.9772401
0.18695106 4.066607 1.9709045
0.19243908 4.0777912 1.9659126
0.17071614 4.0759506 1.973579
0.18064724 4.0748458 1.9665819
0.16649018 4.0676527 1.9626545
0.16578388 4.0730171 1.962414
0.16114026 4.0857468 1.9736642
0.14819603 4.0866776 1.9796754
0.14497332 4.0789719 1.9624063
0.14139046 4.0776548 1.9746999
0.13253717 4.0828438 1.9760689
0.13734795 4.0791888 1.9683722
0.11716663 4.0794797 1.9785928
0.12465161 4.0753703 1.9674742
0.10513928 4.0827732 1.9689364
0.10169923 4.0751395 1.9755446
0.098018527 4.068532 1.9746721
0.085587785 4.0746498 1.9745278
0.099168099 4.0832162 1.9664831
0.075479202 4.0738697 1.9769347
0.084083691 4.0813413 1.9723964
0.074057072 4.0792942 1.9640324
0.076333687 4.0827379 1.9757963
0.068830729 4.0793376 1.9632961
0.050209202 4.0820971 1.9780518
0.053049736 4.0870886 1.9650346
0.042498372 4.0740714 1.9652786
0.031074384 4.074296 1.9715177
0.039506115 4.0737734 1.9662074
0.019893086 4.0752349 1.9714435
0.03073154 4.0709734 1.9640515
0.01703167 4.0823584 1.9745214
0.014967834 4.0816932 1.968351
0.0046679433 4.0791979 1.978705
0.0018678476 4.0837545 1.9717507
-0.0061765187 4.0768251 1.9697282
-0.0072380579 4.0850182 1.9746367
-0.028055532 4.0874605 1.9797258
-0.022633893 4.0840082 1.9642565
-0.022522474 4.0866165 1.9702204
-0.037174881 4.0857372 1.9719027
-0.03921916 4.0768313 1.964958
-0.050793491 4.0715356 1.9773436
-0.048538055 4.0816135 1.9672378
-0.055928506 4.0745654 1.9617006
-0.070273079 4.0851464 1.9692535
-0.066640101 4.0803394 1.9650267
-0.078098476 4.0803885 1.9632778
-0.0844675 4.0715332 1.97812
-0.0863057 4.0684624 1.9756217
-0.082179829 4.0764132 1.9723033
-0.096371382 4.0679922 1.9801463
-0.097507536 4.0736709 1.9627687
-0.10625783 4.0872774 1.9755521
-0.1051136 4.0791669 1.9613781
-0.12950645 4.0823846 1.9778841
-0.12634613 4.0749083 1.9696898
-0.12741227 4.081646 1.9616598
-0.13022709 4.0676866 1.9648968
-0.13819946 4.0775619 1.9651937
-0.14866973 4.0772347 1.9735798
-0.16245817 4.068388 1.9736916
-0.16840328 4.0840769 1.9796362
-0.17172572 4.0766864 1.97935
-0.16226439 4.0761118 1.9711235
-0.18697667 4.0768151 1.9662929
-0.17518266 4.0663495 1.9741719
-0.19158238 4.0804882 1.9689825
-0.19601186 4.0774817 1.9700361
-0.1972039 4.0721731 1.9611747
-0.19809853 4.0820642 1.9722041
-0.2106068 4.0638356 1.9746124
-0.22300281 4.065331 1.9729432
-0.22945379 4.0691724 1.9641253
-0.23619051 4.0681434 1.9749823
-0.23115328 4.0680699 1.9668
-0.23094615 4.0654583 1.9684174
-0.24285957 4.072114 1.9644468
-0.25996181 4.0800071 1.9777514
-0.25600994 4.0723743 1.9660364
-0.26091897 4.0695128 1.9645094
-0.27479813 4.0598087 1.9650587
-0.2662684 4.063374 1.9674163
-0.27940735 4.0661526 1.9739363
-0.28136361 4.0678587 1.9797561
-0.29246232 4.060266 1.9658393
-0.29174271 4.0585437 1.9696553
-0.30940506 4.0705705 1.9604795
-0.31103745 4.0711579 1.9795572
-0.31936467 4.0613585 1.9713705
-0.31940618 4.0723114 1.9606986
-0.32097417 4.0750461 1.9607068
-0.3219921 4.0719705 1.9646723
-0.34065175 4.0614157 1.9718165
-0.33279073 4.054564 1.9610748
-0.33910921 4.0622716 1.9631562
-0.35934386 4.0563569 1.963939
-0.35576177 4.0584373 1.9771804
-0.36135474 4.0645423 1.9714485
-0.36786938 4.067976 1.9763647
-0.38257 4.0570235 1.9726894
-0.38794169 4.0701575 1.972212
-0.39330429 4.0679283 1.9691303
-0.39470071 4.0526929 1.9759728
-0.38895217 4.0509715 1.9764504
-0.3939445 4.0485835 1.9651308
-0.41685465 4.0516124 1.9683995
-0.41898119 4.0638742 1.9742591
-0.42786551 4.0561934 1.9667423
-0.42248088 4.0476465 1.9631854
-0.43217909 4.0500484 1.9692105
-0.44555181 4.0527258 1.9689124
-0.43940109 4.0556879 1.9669352
-0.45633122 4.0629001 1.9702805
-0.44641793 4.0615063 1.9724704
-0.45602605 4.0607643 1.9728463
-0.45695287 4.0427566 1.9768329
-0.47461015 4.0482655 1.9736708
-0.48640674 4.0505323 1.9634254
-0.48571938 4.0438251 1.9652388
-0.48858786 4.0530601 1.9700671
-0.48543024 4.0545621 1.9781944
-0.50256979 4.0478539 1.9699128
-0.50168556 4.0498533 1.9694802
-0.51745492 4.0474033 1.9682986
-0.51103342 4.0409813 1.967028
-0.52423507 4.0392675 1.9684104
-0.53344905 4.0455313 1.97597
-0.52582401 4.0456314 1.9664727
-0.54844338 4.0520515 1.9709525
-0.54924822 4.0412345 1.9653596
-0.54522371 4.0392056 1.9619687
-0.55307084 4.0456667 1.9725775
-0.56919849 4.0386405 1.9659015
-0.56575763 4.0414724 1.9774991
-0.5634973 4.0363526 1.9634061
-0.5825063 4.0436568 1.9683388
-0.58013177 4.0273709 1.9802823
-0.59019649 4.0443339 1.973081
-0.58975726 4.0242996 1.9730626
-0.60483712 4.0290823 1.9629982
-0.60550874 4.023509 1.9716835
-0.60957003 4.035708 1.9676164
-0.6230213 4.0373974 1.9773177
-0.62314731 4.0281444 1.9706533
-0.63167453 4.0267677 1.979679
-0.63429344 4.0319967 1.9768267
-0.63197839 4.0252137 1.9785144
-0.63771868 4.033978 1.9779989
-0.65065897 4.0287929 1.9782906
-0.6636163 4.0341377 1.9642138
-0.66663682 4.0244203 1.9654213
-0.66097075 4.0162487 1.9796928
-0.67937034 4.0202322 1.9765265
-0.68806732 4.029695 1.9649879
-0.68342739 4.0162344 1.9729611
-0.68976039 4.0257578 1.9670595
-0.69894439 4.0231977 1.975279
-0.7064392 4.0204973 1.9731749
-0.71444821 4.0104556 1.9668057
-0.72216421 4.0130539 1.9667091
-0.72395545 4.0182285 1.9778303
-0.72453773 4.0146637 1.9617232
-0.73084712 4.0182929 1.970551
-0.7403214 4.0188179 1.9698006
-0.74133277 4.0095735 1.9765564
-0.7543695 3.9995861 1.9738101
-0.75330633 4.0060029 1.969486
-0.76402223 4.0105114 1.9634517
-0.75684065 4.0125966 1.9683738
-0.77602679 4.0125504 1.9769002
-0.77530801 3.9962952 1.9716145
-0.78346658 4.0050392 1.9637856
-0.78773063 3.9930534 1.9606155
-0.78316534 3.9971719 1.9790072
-0.79934895 4.005856 1.9691995
-0.80877513 4.0070791 1.9704568
-0.80094606 3.9949391 1.9791913
-0.81743944 3.9976559 1.9735028
-0.81996548 3.9931252 1.9709755
-0.81756788 3.9949782 1.9694855
-0.82664227 3.9831178 1.9728321
-0.84100068 3.9886653 1.966022
-0.84318632 3.9955139 1.9683334
-0.84854048 3.9924912 1.9758782
-0.85550123 3.9788468 1.9732299
-0.85226798 3.9813364 1.9729351
-0.86777568 3.9772139 1.9616386
-0.87454724 3.9821551 1.9742049
-0.86700565 3.9901257 1.9633945
-0.88198954 3.986048 1.9755986
-0.87846166 3.9784479 1.9771117
-0.89158553 3.9820402 1.9653496
-0.89151776 3.9689958 1.9616208
-0.90913683 3.9761448 1.9760619
-0.89920926 3.9818785 1.9780591
-0.91192824 3.9763896 1.9637539
-0.92494029 3.9809351 1.9665421
-0.92924696 3.9642498 1.9754951
-0.92098552 3.960645 1.9736501
-0.94353253 3.9675934 1.9689664
-0.93387371 3.9636052 1.9779296
-0.94269991 3.9720266 1.9717398
-0.94328648 3.966048 1.9737679
-0.96759981 3.9679804 1.9642149
-0.95747018 3.9653687 1.9616736
-0.96534151 3.9555647 1.9749287
-0.96751606 3.9582734 1.9740227
-0.98690051 3.9621985 1.9777324
-0.97733009 3.9599063 1.9791459
-0.98960268 3.9605863 1.9688241
-0.98655701 3.9564426 1.9758384
-0.99454618 3.9489887 1.9726059
-1.0087231 3.9464617 1.9647344
-1.02087 3.9451334 1.9801426
-1.0225679 3.9394448 1.9742941
-1.026805 3.9513929 1.9800042
-1.0377852 3.9466729 1.9697934
-1.0296692 3.9480727 1.9648858
-1.0378414 3.944545 1.9790719
-1.0445983 3.9342456 1.9753312
-1.0416747 3.9324903 1.9688481
-1.0517349 3.9282422 1.9763198
-1.0650254 3.935312 1.9626811
-1.0661854 3.9357274 1.9691381
-1.0719349 3.9399354 1.9713386
-1.083531 3.925395 1.9669267
-1.089415 3.9253612 1.979242
-1.0855074 3.9189279 1.9744118
-1.0865053 3.9298048 1.9675169
-1.0933151 3.9194055 1.9717926
-1.1038634 3.917408 1.9757909
-1.1208925 3.9308269 1.9770267
-1.1104478 3.9164295 1.9668255
-1.1136397 3.9263444 1.9785404
-1.1303722 3.9159799 1.9759721
-1.1249021 3.919487 1.9803795
-1.1438416 3.9225764 1.9662766
-1.1504637 3.9150372 1.967272
-1.1419135 3.9119616 1.9606835
-1.1602561 3.9075356 1.9652421
-1.1543208 3.8980186 1.9693578
-1.164385 3.8969278 1.9684542
-1.1732109 3.9117346 1.9747229
-1.1722357 3.9088001 1.9724836
-1.1795434 3.894582 1.9614645
-1.189417 3.8912802 1.9755453
-1.194881 3.8944829 1.9743155
-1.1944454 3.8965054 1.967154
-1.213012 3.8925176 1.9785322
-1.2181648 3.8956246 1.9671074
-1.2187566 3.8901021 1.9677961
-1.2152302 3.8799484 1.969032
-1.2326052 3.8863993 1.9667203
-1.2237091 3.8792534 1.9631276
-1.2370498 3.8902259 1.9669775
-1.241407 3.8767483 1.9691938
-1.2516812 3.8832283 1.976289
-1.2431828 3.8755624 1.9670904
-1.2618432 3.8747468 1.9755951
-1.2691231 3.8741927 1.9689057
-1.2678252 3.8784585 1.9784001
-1.2658362 3.87166 1.9794546
-1.2826089 3.8728938 1.9686815
-1.2816905 3.8684282 1.9724914
-1.2843624 3.8560243 1.9690105
-1.303182 3.8646629 1.9737961
-1.2997826 3.8684247 1.9668131
-1.3092855 3.86608 1.9739237
-1.3079845 3.8504672 1.9619853
-1.3181762 3.8529646 1.9712671
-1.3150547 3.8621473 1.9665965
-1.3224362 3.8587041 1.9769168
-1.3287606 3.8438709 1.9702678
-1.3458556 3.855336 1.9609575
-1.3391379 3.8495066 1.9610553
-1.3558985 3.8502326 1.971611
-1.3478708 3.8397305 1.9677556
-1.3668234 3.8450954 1.9633898
-1.3586628 3.8371286 1.9652531
-1.3624378 3.8443351 1.9714633
-1.3769284 3.8400249 1.9687132
-1.376087 3.833693 1.9643843
-1.3849225 3.8263936 1.9670942
-1.4004043 3.8273535 1.9631485
-1.4051937 3.8203828 1.9752604
-1.4098824 3.8220007 1.9699929
-1.4040127 3.8169928 1.9761251
-1.4219958 3.8183758 1.9695317
-1.4243418 3.8132608 1.9768883
-1.4248217 3.8097091 1.9733754
-1.4390887 3.8170025 1.9674844
-1.4361029 3.8104703 1.9772004
-1.4374433 3.8204334 1.9615638
-1.4360709 3.8002419 1.9688412
-1.4586414 3.800586 1.9711096
-1.449097 3.8015635 1.9769648
-1.4648175 3.8137302 1.9797885
-1.4744028 3.7932305 1.9659792
-1.4705786 3.7956986 1.9690461
-1.4793949 3.8029978 1.9705601
-1.4917212 3.8013387 1.9613736
-1.4899356 3.7879705 1.9676687
-1.4984311 3.7985647 1.9659476
-1.5025603 3.7958312 1.9660635
-1.4994091 3.7958243 1.9685593
-1.5139866 3.7906559 1.9740759
-1.5227058 3.7750583 1.9738098
-1.5285984 3.7751639 1.9751022
-1.5282973 3.7843795 1.9609278
-1.5249263 3.7700613 1.9761257
-1.5400383 3.7686965 1.9717444
-1.5443339 3.7743943 1.9760826
-1.5423313 3.7768707 1.97311
-1.5420468 3.760489 1.9695063
-1.5616435 3.7725265 1.9680052
-1.5587411 3.7552519 1.9634527
-1.5703191 3.7545199 1.9654272
-1.56216 3.753155 1.9696389
-1.5727057 3.7573471 1.9652053
-1.5774225 3.7501638 1.9686
-1.5869383 3.7531185 1.9727838
-1.6008323 3.7570252 1.9648265
-1.5903851 3.7481787 1.9615141
-1.6029072 3.7448578 1.9639957
-1.59903 3.7471786 1.960698
-1.6166507 3.7376368 1.9623159
-1.6188208 3.7417493 1.9653999
-1.6190132 3.7392497 1.9693239
-1.6349906 3.7314305 1.9796525
-1.6353984 3.7241175 1.9650174
-1.6324084 3.7325082 1.9755641
-1.6452314 3.7322216 1.9722518
-1.6460084 3.7275958 1.9623345
-1.6500946 3.7156584 1.9713452
-1.651696 3.7128053 1.9649329
-1.6565918 3.7175355 1.9712423
-1.6798664 3.7252967 1.9639348
-1.6800537 3.7180634 1.9764057
-1.6763139 3.7200472 1.9633427
-1.682242 3.7068145 1.965259
-1.682802 3.7017601 1.9778658
-1.6928118 3.7090678 1.9724931
-1.7061307 3.7007802 1.9648089
-1.7093637 3.6935847 1.9675087
-1.7035825 3.6899633 1.9696841
-1.7242103 3.6866183 1.9789258
-1.7185253 3.6851673 1.978272
-1.7201444 3.6886945 1.9727352
-1.7292893 3.6811237 1.9715397
-1.7314937 3.6927838 1.9794766
-1.7517785 3.6890397 1.964731
-1.7394531 3.6804378 1.9796723
-1.7524968 3.6836662 1.9687126
-1.7532214 3.6688073 1.9729511
-1.7712427 3.6648717 1.9759692
-7.1376185 2.4840152 1.0730482
-7.1353674 2.4573522 1.0873541
-7.1489582 2.4477842 1.0725384
-7.1493859 2.4470141 1.0767545
-7.1486282 2.4448204 1.0776496
-7.1571856 2.4166563 1.0701154
-7.1574087 2.4259913 1.0731864
-7.1605859 2.397316 1.0840795
-7.1542115 2.4004357 1.0837722
-7.1553235 2.3779085 1.0825281
-7.1634607 2.3739007 1.0805521
-7.1630502 2.3755755 1.0818895
-7.1683197 2.3470771 1.0836405
-7.1683912 2.3415546 1.0746071
-7.1842327 2.3401797 1.0733709
-7.1791649 2.3336229 1.0739663
-7.1816173 2.310205 1.0738969
-7.1809845 2.3069577 1.075157
-7.1894445 2.2934191 1.0695466
-7.1981978 2.2820885 1.0714231
-7.2081814 2.2659268 1.0793107
-7.2001271 2.2734675 1.0788964
-7.210721 2.2590168 1.0800122
-7.0144439 2.1904418 1.135142
-7.0322123 2.1868508 1.1294299
-7.0312033 2.1715641 1.1272029
-7.0295849 2.157047 1.1316042
-7.0280223 2.1463711 1.1228091
-7.0451856 2.130429 1.1305305
-7.047946 2.1289139 1.136981
-7.0488162 2.1205812 1.137334
-7.0417848 2.1034553 1.1352962
-7.0551538 2.0988734 1.1288806
-7.0473938 2.0885868 1.1212842
-7.0539937 2.0835619 1.11992
-7.0662923 2.0625627 1.1330965
-7.0608039 2.0661843 1.1215875
-7.0709004 2.0543575 1.1292385
-7.0697784 2.0483427 1.1307873
-7.0609207 2.0225289 1.120665
-7.0655994 2.0187931 1.1320583
-7.069911 2.0050225 1.1361779
-7.0762463 2.0008032 1.1255723
-7.0889835 1.9872509 1.1345406
-7.0893035 1.9899913 1.1283485
-7.0909739 1.9633123 1.1310257
-7.0994534 1.964987 1.1271971
-7.0994287 1.9594169 1.1214186
-6.9047456 1.8869846 1.1690098
-6.9154224 1.8773168 1.1711677
-6.9162083 1.8657809 1.1794783
-6.9255872 1.8527302 1.1839107
-6.9108329 1.8561265 1.1740202
-6.9266706 1.8495547 1.1804775
-6.9335265 1.825418 1.1795793
-6.9265614 1.8223525 1.18191
-6.9369049 1.8135346 1.1758273
-6.9310641 1.8074554 1.1740898
-6.9309878 1.7917657 1.1806613
-6.9328113 1.7880144 1.187227
-6.9324627 1.7660793 1.1719224
-6.9437904 1.7573535 1.1732363
-6.9506721 1.7459569 1.1876193
-6.9474311 1.7412839 1.1851069
-6.9577188 1.7323027 1.1881379
-6.9488912 1.7328211 1.1777869
-6.9577193 1.7255166 1.1883051
-6.9526167 1.7065604 1.1824347
-6.9492378 1.6901742 1.1705686
-6.9592738 1.694445 1.1846488
-6.9627304 1.6815308 1.1864948
-6.9614782 1.6597422 1.1693196
-6.9588985 1.6535115 1.1704557
-6.9619222 1.6529485 1.17663
-6.9674449 1.6445103 1.1835378
-6.9699225 1.6272986 1.1806821
-6.7939014 1.5801698 1.2297472
-6.796124 1.5642539 1.2200767
-6.784204 1.5540754 1.2237481
-6.8041372 1.5562056 1.2214216
-6.7899766 1.5372105 1.2359154
-6.7939568 1.5217854 1.2183585
-6.7950988 1.5112441 1.2243119
-6.7950916 1.4999698 1.2194465
-6.8088965 1.5054501 1.2358904
-6.8157806 1.490716 1.2248733
-6.8055072 1.4854163 1.2199557
-6.8156595 1.4800696 1.2286155
-6.8154688 1.4688052 1.2365929
-6.8115935 1.4597572 1.2361999
-6.8100314 1.4470056 1.2263139
-6.813962 1.4323967 1.2305081
-6.8154364 1.4187551 1.2336693
-6.8309436 1.4072169 1.2350672
-6.8313036 1.4039567 1.2314595
-6.835206 1.3958821 1.2226347
-6.830112 1.3801374 1.21803
-6.8299227 1.3762838 1.2376013
-6.8410602 1.3746506 1.2354337
-6.8442068 1.3589094 1.2337465
-6.827733 1.3467336 1.2288389
-6.8411317 1.3326172 1.2188563
-6.8503232 1.3190031 1.2247689
-6.83634 1.3118449 1.2286828
-6.8409457 1.3062773 1.2188787
-6.8491454 1.298744 1.2305452
-6.8461571 1.2982279 1.2360145
-6.8477597 1.2798116 1.2271805
-6.6591878 1.2371577 1.2757704
-6.663311 1.2285039 1.2686706
-6.6691089 1.218194 1.2789533
-6.659801 1.2163422 1.2846805
-6.6604629 1.2071427 1.286357
-6.6751995 1.1937566 1.2704414
-6.6660085 1.1775818 1.2785268
-6.6666088 1.1750107 1.2686499
-6.67553 1.1572186 1.2678307
-6.6789684 1.1596006 1.2781712
-6.6712284 1.1417282 1.2704334
-6.6843891 1.1414337 1.2833568
-6.6846366 1.1170301 1.2752875
-6.6745882 1.1236098 1.274686
-6.6787996 1.1111901 1.274207
-6.6813216 1.0856836 1.2696661
-6.6797462 1.0910043 1.2782769
-6.6900721 1.0773481 1.2736456
-6.6902618 1.0763816 1.2805532
-6.691258 1.0535738 1.2791761
-6.7019005 1.040091 1.2692623
-6.7002673 1.035019 1.2683917
-6.685698 1.0312581 1.2724575
-6.6991854 1.0190908 1.2724452
-6.6932607 1.0042444 1.2693573
-6.7078018 1.0083956 1.2701095
-6.706871 0.99562848 1.2855309
-6.6973162 0.97402871 1.2766469
-6.7123795 0.97371942 1.2761488
-6.7005224 0.95388132 1.282198
-6.7100291 0.94485503 1.284121
-6.7094364 0.93890274 1.270331
-6.7097015 0.92894775 1.2821409
-6.7058873 0.92692083 1.2711463
-6.7020726 0.91222054 1.2746701
-6.721333 0.90436786 1.2717117
-6.52772 0.87344486 1.3348591
-6.530745 0.85908473 1.3362732
-6.5226412 0.85101092 1.3267505
-6.5350227 0.8361311 1.3267641
-6.5213428 0.83306819 1.3271277
-6.5257268 0.83190835 1.330917
-6.5238876 0.81178105 1.3341311
-6.5302262 0.81675214 1.3247001
-6.5275469 0.80680919 1.3299524
-6.5413303 0.79886448 1.3367372
-6.5380602 0.7736702 1.327363
-6.5411334 0.76664764 1.3327492
-6.5427799 0.76891291 1.3191838
-6.5339365 0.75996786 1.3198622
-6.5450668 0.74586177 1.3266033
-6.5358205 0.72851771 1.3213115
-6.5427723 0.7341457 1.325021
-6.5464969 0.71455562 1.3228319
-6.5396399 0.69875288 1.3198315
-6.5475178 0.69026124 1.3180197
-6.5485983 0.68612248 1.3201486
-6.7318091 0.699714 1.2748871
-6.7368793 0.69271243 1.2705327
-6.7355022 0.67559838 1.2863727
-6.7334328 0.66838551 1.2772472
-6.7446098 0.67143732 1.2799197
-6.741065 0.64854324 1.277364
-6.7337976 0.64291734 1.284363
-6.7487063 0.62512875 1.2847058
-6.7466021 0.62042964 1.2857046
-6.7462964 0.61560488 1.2717137
-6.9368744 0.61832118 1.2312264
-6.9301949 0.61961347 1.2226626
-6.9478559 0.60322672 1.2264069
-6.9496636 0.58983946 1.2323618
-6.9405832 0.58619261 1.2307934
-6.9488163 0.56699449 1.2357568
-6.9395919 0.55595469 1.2245216
-6.9433551 0.55088407 1.2249266
-6.9467616 0.54878223 1.2300621
-6.9491558 0.52783746 1.2198038
-7.1387725 0.54452288 1.1751491
-7.1461334 0.53412271 1.1709936
-7.1420445 0.52689672 1.1801554
-7.1341972 0.51868474 1.185635
-7.1403813 0.50036132 1.1771741
-7.1481199 0.49459916 1.1792226
-7.1508808 0.47884247 1.1799397
-7.1448631 0.48009029 1.1852959
-7.1384268 0.45868543 1.1782609
-7.3402505 0.46754158 1.1304889
-7.3389249 0.44856808 1.1242747
-7.332736 0.44296673 1.1376442
-7.3506885 0.42217362 1.133772
-7.3394642 0.4299331 1.1316736
-7.3427467 0.41220003 1.1212384
-7.334475 0.407406 1.1350285
-7.344141 0.40051445 1.1230503
-7.3530755 0.38029033 1.1223094
-7.5301838 0.37662214 1.0806499
-7.5407815 0.37540796 1.0754268
-7.5296321 0.35614341 1.0814923
-7.5446825 0.34367788 1.0722195
-7.5463486 0.33385578 1.0724173
-7.5318718 0.33583897 1.0706391
-7.5394793 0.31510705 1.0813934
-7.5375071 0.30319917 1.0776198
-7.7353683 0.30948505 1.0277175
-7.7315645 0.2997691 1.0373629
-7.728487 0.28699908 1.0241249
-7.7375493 0.26413998 1.0202121
-7.7318201 0.25292385 1.0275748
-7.7400098 0.24713664 1.0330127
-7.7374578 0.24014771 1.0391699
-7.9283929 0.23351333 0.98834831
-7.9273982 0.21400794 0.97684151
-7.9356337 0.21689512 0.98397011
-7.9276271 0.19596498 0.98060715
-7.9400034 0.17923938 0.97834307
-7.942719 0.18597746 0.97412419
-7.9386568 0.16402373 0.97786212
-7.9384918 0.14815515 0.98120028
-8.1246977 0.14770177 0.94006395
-8.1317062 0.12659127 0.9322601
-8.1325407 0.12855648 0.92321122
-8.1346779 0.1118193 0.92574561
-8.1283054 0.10713398 0.92225617
-8.1347885 0.090726934 0.92892605
-8.1246185 0.082199983 0.92996013
-8.3304691 0.072569251 0.8793183
-8.3267517 0.065584771 0.8873173
-8.3192806 0.038975034 0.89053851
-8.328455 0.040102776 0.8811329
-8.3292456 0.014405932 0.88197869
-8.3178244 0.008041759 0.87615168
-8.5092115 -0.00055987173 0.83544576
-8.524271 -0.022671096 0.83092111
-8.5228033 -0.031145358 0.84135205
-8.5146494 -0.029345559 0.83461893
-8.525445 -0.039535787 0.82824725
-8.5173616 -0.065934852 0.82652479
-8.7150297 -0.066680729 0.78032225
-8.7156897 -0.094953969 0.77638525
-8.7057381 -0.10399216 0.77838534
-8.7149248 -0.10159916 0.78565502
-8.7099199 -0.11682379 0.77620959
-8.7161016 -0.12713167 0.77655739
-8.9005346 -0.15951125 0.73083115
-8.9007702 -0.16056502 0.72831309
-8.9077215 -0.17248745 0.72750896
-8.9010267 -0.19641624 0.73220986
-8.8960381 -0.20435235 0.72994477
-8.9077291 -0.21307458 0.73158067
-9.0970497 -0.23711045 0.68684852
-9.0906363 -0.24564071 0.68618739
-9.0969353 -0.24934381 0.68247527
-9.0926619 -0.25942159 0.68062866
-9.0880232 -0.2803987 0.68207473
-9.2932577 -0.30831832 0.62540632
-9.2873144 -0.31723562 0.63876253
-9.2821569 -0.31972602 0.64063263
-9.2922812 -0.3375119 0.62700886
-9.2846518 -0.34729177 0.63710469
-9.2753687 -0.37300256 0.64072806
-9.4749022 -0.38074052 0.57902855
-9.4814606 -0.40731356 0.57584089
-9.4717121 -0.40999308 0.57528585
-9.4837923 -0.4284313 0.58646351
-9.6679668 -0.44802785 0.53940099
-9.6657152 -0.45321602 0.5259043
-9.6700878 -0.47370717 0.54289567
-9.6725721 -0.48480034 0.535079
-9.6686611 -0.50876063 0.53045952
-9.8481264 -0.53448051 0.48360163
-9.8504438 -0.53640127 0.47958183
-9.8649368 -0.54544234 0.48223424
-9.8625994 -0.56531584 0.47545159
-9.8607969 -0.57786828 0.48347431
-10.04121 -0.6135326 0.44481665
-10.045733 -0.6159851 0.44398701
-10.043734 -0.64347851 0.43617743
-10.044723 -0.65414274 0.43078494
0.22285058 4.0828724 1.993687
0.23404332 4.0784659 1.9944381
0.21770884 4.0847111 2.0078402
0.22465415 4.0810089 2.0012712
0.20326144 4.0808063 2.0025985
0.2053795 4.077548 1.9927528
0.19339511 4.0735145 1.9904469
0.19060676 4.0831561 1.9946539
0.18153314 4.0922747 1.9947504
0.18890958 4.0929594 2.0075228
0.18274724 4.0739737 1.9996516
0.16056474 4.091856 2.0070677
0.15913296 4.0790806 2.0004313
0.1511029 4.078927 2.0098021
0.15650363 4.0830579 1.9986883
0.14323138 4.0749846 2.0040419
0.14011313 4.0806046 2.0050952
0.13468876 4.0891147 1.9955318
0.13347118 4.0942302 1.9948363
0.13234976 4.0924006 1.9945835
0.12400052 4.0900884 1.9951098
0.10777983 4.0912728 1.993292
0.098975219 4.0767059 1.99848
0.10353398 4.0797887 2.0033035
0.097463362 4.0939531 1.9920553
0.080278747 4.0805264 1.9925387
0.088447496 4.0896621 1.9984552
0.077669501 4.0790548 1.9927027
0.077327907 4.0929117 1.9918944
0.076290816 4.0913286 2.0090933
0.055000711 4.0870786 2.0038247
0.054236848 4.0922904 1.9995935
0.051655099 4.0943799 2.0006559
0.05426117 4.0867105 2.0046699
0.041690785 4.0786538 2.0027249
0.037872061 4.0790949 2.0072374
0.034536675 4.0933886 2.000778
0.017117793 4.0825872 2.003612
0.013946473 4.0771275 2.000211
0.0099667441 4.0963144 1.9951435
0.003186017 4.079895 2.0057502
-0.0088633606 4.0883951 2.0015008
-0.00514394 4.079998 1.9992809
-0.020362142 4.0798903 2.0093398
-0.011566252 4.0928965 1.991298
-0.02471531 4.0877676 1.9936615
-0.033351842 4.0849881 1.9902903
-0.028447581 4.0904732 1.9960974
-0.040709343 4.0784717 1.996433
-0.056371976 4.0881743 1.9959513
-0.057101976 4.0767803 1.9990536
-0.067225091 4.079021 1.9906681
-0.061597537 4.0906653 1.9939046
-0.078189738 4.0927758 1.9970611
-0.084722772 4.089366 1.9932593
-0.08929754 4.0784912 2.0043724
-0.091508627 4.0846639 1.9927568
-0.097090773 4.0814247 2.006686
-0.096865468 4.0916071 2.0086808
-0.096304417 4.0918112 2.0004535
-0.11622494 4.0769682 2.0009153
-0.11304283 4.0776858 2.0037091
-0.11824604 4.0897145 1.9982464
-0.12021247 4.0908341 1.9950012
-0.1390221 4.0911036 2.008461
-0.1416333 4.0924811 1.9911691
-0.15313122 4.0773301 2.0001805
-0.15624431 4.0822797 2.0060916
-0.14542785 4.0931368 2.002332
-0.15261634 4.0902367 1.9989311
-0.16803189 4.0730982 2.00085
-0.16298521 4.0848236 2.0036571
-0.17514431 4.0770268 1.9986713
-0.1927657 4.0729446 1.9949914
-0.19363202 4.0757341 1.9917755
-0.20103805 4.0815926 2.0101395
-0.20573565 4.0816336 1.9935627
-0.20142138 4.0842419 2.0021536
-0.21119568 4.0833459 2.0018277
-0.22472905 4.0809407 1.9988363
-0.22166301 4.088799 1.9989482
-0.23667762 4.0873828 1.9910355
-0.22888459 4.0794859 1.9955839
-0.24607688 4.0796456 1.9963163
-0.24694856 4.0846162 2.0001118
-0.25103572 4.0878582 2.0100477
-0.25675848 4.0720797 2.0003145
-0.25905743 4.0862913 1.9934865
-0.27276486 4.076405 2.0060685
-0.26679757 4.078661 1.9965587
-0.28382128 4.0696578 1.9952288
-0.28073245 4.0713148 1.992812
-0.28555587 4.0664387 2.0028355
-0.30583018 4.0700445 1.993364
-0.30537152 4.0784516 2.0092165
-0.30111673 4.0684443 2.008672
-0.30692542 4.0783863 1.9927179
-0.32246685 4.071701 1.9913526
-0.32483542 4.0769796 2.0004859
-0.33462152 4.0738964 1.9922676
-0.33391669 4.0794592 1.995447
-0.33454108 4.0737805 2.0006921
-0.3575815 4.0689473 2.0014777
-0.35059765 4.0695081 2.0062938
-0.35308465 4.0761952 1.9999492
-0.35971853 4.072804 2.0040376
-0.36689606 4.0692711 1.9985167
-0.37002701 4.0758624 2.0067666
-0.37452251 4.0657506 2.0007594
-0.38988405 4.071517 1.9921408
-0.39346302 4.0636525 2.0095651
-0.3938618 4.0608263 2.0017984
-0.40901476 4.0606227 2.0096943
-0.40338108 4.0730648 1.9986546
-0.41293073 4.0686808 1.9948138
-0.42882407 4.063324 2.0081017
-0.42062804 4.0564489 1.9983838
-0.43795225 4.0721016 1.9957927
-0.44702554 4.0689173 2.003633
-0.44210517 4.0560288 1.9977912
-0.44580254 4.0652184 2.0046437
-0.4520748 4.0596647 2.0092375
-0.46611282 4.0646133 1.9942024
-0.47225401 4.0608501 1.9921923
-0.46943393 4.0531902 2.0063891
-0.47045371 4.0552902 1.9958273
-0.47818476 4.0512376 1.9989971
-0.49563262 4.055512 1.9984343
-0.49567056 4.0563631 1.9953096
-0.50786722 4.0477839 1.9999268
-0.50590473 4.0611558 1.9943714
-0.51708871 4.0539026 2.0039086
-0.523678 4.0582581 1.9990484
-0.52530128 4.0421176 1.9910866
-0.52893364 4.0544424 1.9961349
-0.53836811 4.0513911 2.0039606
-0.53836328 4.0462513 2.0084195
-0.55518764 4.0493059 1.9978461
-0.55257374 4.0379629 2.0088251
-0.55308342 4.0400634 1.9919341
-0.56897485 4.0497656 2.0091317
-0.5704205 4.0539212 1.9998013
-0.58232778 4.0371246 1.9955591
-0.57909423 4.0443406 1.9959174
-0.58382136 4.0335588 2.0093491
-0.5834989 4.0389767 2.0004857
-0.59534955 4.0500317 2.007247
-0.60274017 4.0498943 1.9978349
-0.60070306 4.0380011 1.9978602
-0.60768563 4.0312281 2.0007739
-0.61155808 4.0341916 1.9941854
-0.61823165 4.0413365 1.9925563
-0.63423437 4.0422006 1.9949423
-0.63447803 4.0319233 2.0053637
-0.6343621 4.0425425 2.0058305
-0.64081335 4.0391068 1.9925505
-0.65612668 4.0294423 1.9911686
-0.66467738 4.0380068 1.9905001
-0.66263884 4.0342283 1.9987972
-0.66057378 4.0290847 2.0011876
-0.67559361 4.0256853 2.0074162
-0.67720062 4.0212278 2.0016723
-0.68043536 4.0263824 1.9976825
-0.7012828 4.0169058 2.0043132
-0.69170755 4.0331569 2.0024691
-0.70166391 4.0285673 1.998103
-0.70489895 4.0142736 2.0049937
-0.70951456 4.0170374 2.0013785
-0.71479726 4.0274458 1.9949219
-0.73178142 4.0255246 2.0042667
-0.72637373 4.0141878 1.9911652
-0.73473603 4.0268469 1.9945672
-0.74884087 4.021872 2.0040917
-0.746934 4.0216498 2.0051165
-0.7583949 4.0166016 2.0033762
-0.75169843 4.007194 1.9980388
-0.7693665 4.0201468 1.9994074
-0.78014249 4.0140791 2.0045471
-0.77453196 4.0083213 2.001111
-0.77537656 4.0111709 1.9967774
-0.78687483 4.0050187 2.0021379
-0.79147303 4.0160923 2.0011961
-0.79266775 3.9986489 1.9963267
-0.80433619 4.008698 1.9922894
-0.81497854 4.0128703 2.0042663
-0.80735928 4.0093217 2.0079057
-0.82507598 3.9936867 2.0055764
-0.82142246 3.9928555 1.9982649
-0.83262748 4.0032129 2.0062892
-0.84726697 3.9983027 1.9982648
-0.84623843 3.9874694 2.005197
-0.83984774 3.9976115 2.0043204
-0.85439712 3.9921312 2.0071247
-0.85381436 4.0005527 2.0011106
-0.8572672 3.983901 2.0004091
-0.86874145 4.0004358 1.9973077
-0.87657458 3.9848197 1.9997269
-0.88673526 3.978421 2.0024788
-0.8842057 3.9863801 1.9967597
-0.89364994 3.9852605 2.0073094
-0.89111692 3.9907284 2.008213
-0.90164989 3.9881449 2.0004535
-0.91305786 3.9765677 2.0084162
-0.92165971 3.9711275 2.0060108
-0.91627389 3.987787 2.0081718
-0.93158764 3.978523 2.0080934
-0.93000102 3.966975 1.9936324
-0.9459933 3.9708135 1.9940144
-0.93923187 3.9827273 2.0036047
-0.95818776 3.9707408 1.9933319
-0.94659197 3.9668295 2.0097921
-0.95409071 3.9779255 2.004941
-0.969347 3.9631522 2.0097928
-0.97663879 3.9653137 1.9904923
-0.96633404 3.958396 2.0091469
-0.97386646 3.9616978 1.9998411
-0.98147529 3.9721174 2.0002983
-0.98354316 3.9520743 2.0059128
-1.005227 3.9643204 2.0047679
-0.9973188 3.9631364 1.9929706
-0.99968117 3.9590721 1.9986041
-1.0055815 3.9530313 1.9966832
-1.016331 3.9572542 2.0013466
-1.0222265 3.9597037 2.0095365
-1.0274205 3.9579742 1.9921817
-1.0339577 3.954227 1.9995092
-1.049799 3.9483831 1.9986448
-1.045181 3.9459822 1.9991333
-1.0549464 3.9474061 1.9932717
-1.0658547 3.9422448 2.0076375
-1.0685581 3.9402258 1.9993581
-1.0656259 3.9378092 2.0064645
-1.0846125 3.9301441 1.9992285
-1.0789336 3.9420819 1.9958842
-1.0850626 3.9343226 1.9922602
-1.0885444 3.9255204 2.0063465
-1.1046965 3.9263699 1.9960544
-1.1017108 3.9373279 2.0048344
-1.0982344 3.9240091 1.9965186
-1.1206174 3.9252684 2.00453
-1.1286325 3.9293087 1.9920183
-1.1249249 3.9217634 1.9985937
-1.1341084 3.9207118 1.9990151
-1.1305258 3.9308171 1.9928932
-1.1502855 3.9202693 2.0005386
-1.1536666 3.9117136 2.0009162
-1.1429594 3.9124775 2.0036852
-1.1625419 3.9216964 1.9989618
-1.1533421 3.9198594 2.0024767
-1.1724559 3.9211044 2.0088158
-1.183556 3.9197972 2.0007675
-1.1871655 3.9076586 2.0067542
-1.1841972 3.9117949 1.993277
-1.1808053 3.9049702 1.9915004
-1.2035328 3.9038401 2.0007789
-1.1986126 3.9047806 2.0031126
-1.2133124 3.9018781 2.0078282
-1.2052407 3.9048405 2.0033889
-1.2218902 3.9024477 1.9987458
-1.2150224 3.8863838 1.9969889
-1.2218133 3.8846605 1.9955736
-1.2366499 3.8847661 2.0036759
-1.2454975 3.8932755 1.9975785
-1.2478198 3.8906107 2.0063279
-1.2519163 3.8906496 1.9956262
-1.2467316 3.8810375 2.0075517
-1.2592111 3.8821523 1.9982691
-1.2669723 3.8767629 1.9936507
-1.2791704 3.8801458 2.0083489
-1.2760091 3.8758159 2.0087004
-1.2746021 3.8701122 2.009053
-1.2946079 3.8749866 1.9912434
-1.2865088 3.8764255 2.0036831
-1.3045046 3.8809519 1.9952053
-1.2937485 3.8667891 2.0085213
-1.3136915 3.8632157 1.9939876
-1.3217064 3.8725653 2.0023386
-1.3190014 3.8595538 2.0070779
-1.3209122 3.8597414 1.9969852
-1.3281224 3.8684855 2.0043552
-1.3349783 3.8640289 2.0078218
-1.3414789 3.8649564 1.9979702
-1.3457866 3.8593705 1.9913729
-1.3576517 3.8611736 1.9911249
-1.3579922 3.8591151 1.9985442
-1.365014 3.8424935 2.0042279
-1.3665668 3.8432341 2.0011067
-1.3797657 3.8520544 2.0068269
-1.3882228 3.8443358 1.9945949
-1.3867699 3.8347766 1.992975
-1.3979443 3.8437283 2.0087738
-1.3856494 3.8315434 2.0073833
-1.4032032 3.8404126 2.0022972
-1.4073516 3.8427756 2.000912
-1.4117454 3.8301544 1.9993738
-1.408717 3.835865 2.0031269
-1.4200021 3.8253736 2.0095408
-1.4344056 3.8270316 2.0067027
-1.4230862 3.8255782 1.9980814
-1.4439958 3.8309205 2.0018437
-1.4465227 3.8104286 1.996508
-1.4532478 3.807569 2.0009451
-1.4613607 3.8124902 1.9962165
-1.4545569 3.8185949 1.9958235
-1.4691353 3.8056352 2.0047894
-1.4652491 3.8010302 2.0014534
-1.4776069 3.8104639 2.0096211
-1.4835479 3.8108151 2.0014493
-1.492324 3.8078036 1.9938338
-1.4897184 3.8091977 1.993578
-1.5033478 3.7933774 1.9948548
-1.5023098 3.7961416 1.9953042
-1.4968319 3.7960997 2.0027144
-1.5160797 3.7881656 1.9982765
-1.5157174 3.7909539 2.002933
-1.5263863 3.782927 2.0050466
-1.5203881 3.7878373 1.9986631
-1.5262192 3.7920992 1.9947071
-1.5402193 3.7728744 2.0098238
-1.5418317 3.7815418 2.008426
-1.543697 3.7818637 1.9933066
-1.5442824 3.7685044 2.0030577
-1.5644153 3.7659006 1.9948803
-1.557135 3.7693241 2.0008898
-1.5742894 3.7583818 1.9918162
-1.5667843 3.7620394 1.9968511
-1.5771624 3.7569613 2.0089395
-1.5939211 3.7713149 2.0074401
-1.5946326 3.7569284 2.0088737
-1.6002243 3.7661865 2.0011399
-1.6072108 3.7588332 1.9959004
-1.6093134 3.7561452 1.9994813
-1.6016618 3.7585726 2.0026457
-1.6221844 3.7535248 1.9914281
-1.6166943 3.7365642 1.9914699
-1.6202748 3.7523477 1.9973786
-1.6388171 3.7429883 2.0004253
-1.6452678 3.7421029 2.0000496
-1.6332147 3.7457354 2.0075185
-1.6397249 3.7290025 2.006484
-1.6539655 3.7305062 2.0003417
-1.6534423 3.7351272 1.9937648
-1.6693349 3.7326167 1.9918752
-1.6620599 3.7347972 2.0072055
-1.6659993 3.7276783 2.0078502
-1.6698935 3.7221863 2.0065603
-1.6878759 3.7233562 1.9982008
-1.682808 3.7232764 1.9912525
-1.6981126 3.7204473 1.9902408
-1.7059449 3.7163026 1.9948072
-1.7148086 3.7031088 2.003196
-1.7098111 3.715626 1.9985313
-1.7113873 3.6974356 1.9936893
-1.7148497 3.6917017 1.993368
-1.7229785 3.7072067 2.0082753
-1.7304591 3.7039926 2.0000455
-1.7392261 3.6879675 1.9953476
-1.7363492 3.682179 1.992939
-1.7404172 3.6862509 2.0100777
-1.7454937 3.6876526 2.0054555
-1.7660002 3.6853487 2.0100303
-1.7581146 3.6731977 2.0095205
-7.1449904 2.4950845 1.1261128
-7.1517329 2.4813654 1.1437498
-7.14779 2.4643586 1.1304803
-7.1459694 2.4642236 1.1353542
-7.1624107 2.4431612 1.1388215
-7.168961 2.4352643 1.1360956
-7.1631894 2.4334598 1.1294219
-7.1581502 2.4170165 1.142207
-7.1715646 2.414793 1.136498
-7.1754222 2.392323 1.1253889
-7.1719584 2.3906195 1.1399541
-7.1737857 2.3856256 1.13079
-7.1779618 2.3680127 1.1346139
-7.195394 2.3556437 1.1283026
-7.1879382 2.3502436 1.1309335
-7.1970005 2.3416891 1.1356765
-7.1887751 2.322288 1.1286287
-7.2072091 2.3112946 1.1351565
-7.2128439 2.310241 1.1294842
-7.204174 2.3086698 1.1313698
-7.2065992 2.2938883 1.1415848
-7.2144446 2.280592 1.136843
-7.2114406 2.266417 1.1445302
-7.0392323 2.2004132 1.1779816
-7.0386066 2.1830757 1.1879972
-7.0353365 2.1799316 1.1795143
-7.0473099 2.1682551 1.1816905
-7.0463171 2.1613729 1.1829379
-7.0587826 2.1520698 1.173201
-7.0569072 2.1346369 1.1919665
-7.0531321 2.137965 1.1860292
-7.0591278 2.1166191 1.1768779
-7.0698524 2.1214356 1.1836387
-7.0728755 2.0962381 1.1921685
-7.0705199 2.0947156 1.1731976
-7.078135 2.0794988 1.1809238
-7.0742192 2.0753307 1.1868193
-7.0681133 2.0551636 1.1756821
-7.0807462 2.0455256 1.1850958
-7.0831022 2.0407438 1.1869345
-7.086679 2.0427043 1.1819634
-7.0961795 2.0216217 1.1855131
-7.0948172 2.0127547 1.1837498
-7.0866799 2.0037901 1.1866635
-7.0899997 2.0000932 1.1779333
-7.0922761 1.9916792 1.183869
-7.1068125 1.9700655 1.1755233
-7.0954394 1.957428 1.1769015
-6.9279237 1.9038374 1.2266228
-6.9181752 1.9021723 1.2333747
-6.9265742 1.8797599 1.2319897
-6.9199314 1.8706627 1.2394291
-6.9297247 1.8657295 1.2279121
-6.941268 1.851721 1.237345
-6.9298844 1.8371674 1.2329992
-6.927217 1.8430974 1.2301618
-6.938601 1.8172375 1.2356367
-6.9383168 1.8254831 1.2384043
-6.9366407 1.796697 1.2286921
-6.9533162 1.800293 1.2269907
-6.9432268 1.7781097 1.2325566
-6.9545083 1.7851762 1.2387087
-6.9583368 1.7650422 1.2296146
-6.9536691 1.7559443 1.2362028
-6.9595547 1.7407962 1.2379314
-6.9697728 1.7308679 1.2352879
-6.9628143 1.7320948 1.236486
-6.9703674 1.7161316 1.2356344
-6.9751396 1.7043562 1.2357053
-6.9696102 1.6984035 1.229084
-6.9657688 1.6850253 1.2299948
-6.9763474 1.6828369 1.2276911
-6.9807606 1.6792775 1.2349756
-6.9742541 1.6628301 1.2228879
-6.9811459 1.6429276 1.2253814
-6.7972336 1.5911415 1.2757655
-6.8049517 1.593064 1.269026
-6.7914586 1.5698233 1.2760625
-6.7988033 1.564187 1.2810663
-6.8060641 1.5664431 1.2698631
-6.799933 1.5548899 1.2750312
-6.8128777 1.5350935 1.2877632
-6.8081131 1.5332061 1.2866915
-6.8160505 1.5201335 1.2789315
-6.816062 1.5024639 1.2810311
-6.8135672 1.5019261 1.2851928
-6.8287611 1.4958764 1.2807815
-6.8306818 1.485513 1.2826371
-6.825552 1.4699843 1.2883673
-6.8354053 1.4693612 1.2858671
-6.8364487 1.4570224 1.2813305
-6.8323102 1.4538789 1.2865171
-6.8354268 1.4376267 1.2793392
-6.8396015 1.4155506 1.2886143
-6.8315229 1.4155627 1.2697486
-6.8413315 1.4001566 1.2798765
-6.8469648 1.3916299 1.2734891
-6.8369966 1.3832432 1.2862759
-6.8451591 1.382033 1.273074
-6.847578 1.3730029 1.2887921
-6.8524837 1.3649499 1.2817174
-6.8419127 1.3430423 1.2810479
-6.8461418 1.3400117 1.2736777
-6.8575354 1.3347868 1.2737857
-6.8596401 1.3196074 1.283463
-6.8605976 1.3165733 1.2872939
-6.8514137 1.3098459 1.2721606
-6.6777616 1.2594198 1.3262925
-6.6621022 1.2386059 1.3206955
-6.6796317 1.2372735 1.335639
-6.6814294 1.2329223 1.3321028
-6.6702895 1.2210158 1.3362346
-6.6798058 1.2067409 1.3269144
-6.6766791 1.2029192 1.3219503
-6.6734314 1.1988263 1.3313905
-6.6804934 1.1755962 1.3273827
-6.6837115 1.1633569 1.3262364
-6.6820498 1.1557211 1.3198495
-6.6943297 1.1454754 1.3219759
-6.6921935 1.1394181 1.3320997
-6.6951013 1.1332674 1.3272043
-6.7015319 1.1199486 1.3197368
-6.7038174 1.1187922 1.3273312
-6.6954103 1.102428 1.3204432
-6.6919541 1.0909638 1.3188035
-6.6990442 1.0940773 1.3232775
-6.7101297 1.0755991 1.3248582
-6.7023482 1.0603962 1.3281513
-6.7009406 1.0545137 1.3305492
-6.6973929 1.0523547 1.3362428
-6.7037091 1.0488627 1.3251406
-6.7149072 1.0405015 1.3300767
-6.7135596 1.0314029 1.3232156
-6.7046046 1.0122468 1.3293519
-6.7025251 0.99806905 1.3333877
-6.7220716 0.99830991 1.3299028
-6.7171311 0.98896152 1.3173074
-6.7105966 0.96887767 1.318879
-6.7207561 0.97167146 1.3239402
-6.7085047 0.95946938 1.3362163
-6.7105465 0.94239527 1.3343766
-6.7236772 0.93555367 1.3335537
-6.7318587 0.93147713 1.3330122
-6.7268882 0.91776013 1.3226968
-6.7157683 0.90751451 1.3275875
-6.7205997 0.89910066 1.3221051
-6.7289028 0.89699268 1.3366621
-6.7297878 0.88277119 1.3205249
-6.7290888 0.87972939 1.3365732
-6.7233148 0.87026519 1.329813
-6.7252517 0.86007214 1.3353739
-6.7290154 0.8380481 1.3234904
-6.7335887 0.8291291 1.3369293
-6.7386904 0.82645422 1.326052
-6.7340941 0.81615973 1.3343315
-6.7445941 0.80228138 1.3236016
-6.7405634 0.80133426 1.3201696
-6.7419624 0.78072309 1.331924
-6.7394857 0.78201938 1.3300458
-6.7409472 0.77028435 1.3281146
-6.749156 0.75779414 1.3254032
-6.7517905 0.74270904 1.3300822
-6.7462955 0.74420619 1.3352581
-6.7473488 0.72174424 1.3271769
-6.7392654 0.72500765 1.3182204
-6.7428899 0.71888733 1.3248062
-6.7572312 0.69790071 1.3198674
-6.7549911 0.69660485 1.3237413
-6.7609835 0.67886263 1.3183368
-6.7488408 0.68072242 1.3306242
-6.758616 0.65542388 1.3198498
-6.7510896 0.64852798 1.3234203
-6.7588711 0.64815122 1.317919
-6.7614632 0.62773257 1.3193885
-6.7521238 0.63639468 1.3335556
-6.7517271 0.62241715 1.3310378
-6.7647319 0.61506999 1.3169701
-6.9560666 0.60772359 1.2829583
-6.9501333 0.59825772 1.2887304
-6.9495907 0.6018666 1.2858031
-6.9567471 0.57661903 1.2870194
-6.9546642 0.57980359 1.2707832
-6.948997 0.57609928 1.283615
-6.9488182 0.55068207 1.2854739
-6.9671559 0.55547071 1.2854421
-6.951313 0.54150867 1.2808812
-6.957974 0.53538191 1.2784226
-7.1523099 0.52625191 1.2331795
-7.1589565 0.52952158 1.236279
-7.1598167 0.51415706 1.2327104
-7.1635909 0.49244595 1.2336184
-7.1661344 0.49361378 1.2274362
-7.1649003 0.48123091 1.2272761
-7.1508203 0.46979621 1.2314264
-7.1548672 0.46077916 1.2300937
-7.1589322 0.44834682 1.2245287
-7.3613262 0.46164766 1.174481
-7.3523989 0.44301099 1.1790211
-7.3606133 0.4384484 1.176834
-7.3457146 0.41373199 1.1892862
-7.3543696 0.40593445 1.1900324
-7.3621025 0.39627209 1.1819522
-7.3560033 0.38850883 1.1914961
-7.3500495 0.37547633 1.179613
-7.5538316 0.38853472 1.1406349
-7.5450449 0.36837941 1.1273208
-7.5618081 0.36022121 1.1256515
-7.5605178 0.34160152 1.1356274
-7.5546727 0.33536384 1.1313233
-7.5510001 0.32460767 1.1325865
-7.5548601 0.32576436 1.1363363
-7.5579596 0.29974198 1.1407089
-7.7431188 0.30769309 1.0795175
-7.7447352 0.29451743 1.0836668
-7.7582192 0.27197072 1.0816607
-7.7425799 0.27872044 1.0900581
-7.7602396 0.26920155 1.0808568
-7.7595534 0.24145295 1.0835959
-7.7488761 0.24001479 1.0906581
-7.7424874 0.22269993 1.0775255
-7.9488854 0.22712806 1.0480251
-7.9374604 0.20343956 1.0311517
-7.941648 0.20899267 1.0454578
-7.9389243 0.19333126 1.037423
-7.9520364 0.18457225 1.0376767
-7.9471388 0.17182419 1.0355159
-7.9538283 0.16177286 1.0346724
-8.1438093 0.15601952 0.98883045
-8.1369343 0.13772817 0.98047417
-8.1429815 0.12613629 0.98564065
-8.1421452 0.122507 0.98090595
-8.1427059 0.11059017 0.98359221
-8.1401253 0.094758414 0.98294139
-8.1432228 0.081906922 0.99773937
-8.3284664 0.077558219 0.94680232
-8.3393145 0.05668873 0.94231462
-8.3323078 0.049340162 0.93888682
-8.3461275 0.026311172 0.93754667
