# .PCD v0.7 - Point Cloud Data file format
VERSION 0.7
FIELDS x y z
SIZE 4 4 4
TYPE F F F
COUNT 1 1 1
WIDTH 1510
HEIGHT 1
VIEWPOINT 0 0 0 1 0 0 0
POINTS 1510
DATA ascii
7.2089791 -3.1944988 0.11472732
7.2131796 -3.1780593 0.11702384
7.2282095 -3.1656694 0.1157651
7.2369308 -3.1644015 0.11191737
7.2289829 -3.1385999 0.11142114
7.2435403 -3.1403704 0.11344633
7.2437744 -3.1361091 0.11147914
7.2546005 -3.1177924 0.11403237
7.2424402 -3.1075821 0.10890725
7.263783 -3.0946844 0.1056915
7.254334 -3.08161 0.10896491
7.2729406 -3.0687869 0.11861354
7.2738304 -3.0653715 0.11058136
7.273447 -3.0576589 0.11374056
7.2692018 -3.0423033 0.11261833
7.2844458 -3.0367858 0.1196366
7.2817011 -3.0354159 0.10082089
7.2969751 -3.0075874 0.11022063
7.2947884 -2.9962721 0.11972332
7.3074617 -2.9879537 0.11201016
7.2112522 -3.6814208 0.10982876
7.2248425 -3.6414599 0.10381841
7.2369404 -3.6160119 0.11032833
7.257688 -3.5898938 0.10772271
7.2636156 -3.5764153 0.10007557
7.267982 -3.5741668 0.11000493
7.2747269 -3.5571263 0.10208257
7.2785687 -3.5367336 0.10160841
7.2968683 -3.5235097 0.10427506
7.2903347 -3.5122743 0.10539979
7.3023205 -3.5076389 0.10524417
7.3044672 -3.4819694 0.10953523
7.3099566 -3.4814444 0.10261765
7.3244276 -3.4615512 0.10781798
7.3252635 -3.4495726 0.11023723
7.3325505 -3.4340014 0.10243671
7.3396201 -3.3998287 0.10294634
7.3593159 -3.4001861 0.10356544
7.3626437 -3.3657572 0.10610282
7.3595138 -3.358618 0.10223123
7.3615704 -3.3519347 0.10980753
7.2053027 -3.2433848 0.16993921
7.2170773 -3.2378833 0.16413529
7.2279196 -3.2246292 0.160647
7.2249107 -3.2164361 0.16655476
7.222507 -3.2134595 0.15911415
7.2361913 -3.1914089 0.15893772
7.2362967 -3.1772013 0.17563388
7.2525163 -3.1856368 0.16874038
7.2562981 -3.1646121 0.16987266
7.2477536 -3.163811 0.16149759
7.2522335 -3.1510341 0.17475644
7.2684412 -3.1310167 0.1634571
7.2588305 -3.1246767 0.17534593
7.2657175 -3.1058514 0.16535558
7.2784982 -3.1139219 0.16826306
7.2838244 -3.0927851 0.16313647
7.2889595 -3.0760069 0.16212627
7.2907767 -3.0674584 0.16258332
7.2856865 -3.0595634 0.17396158
7.3017144 -3.0446346 0.17603113
7.3093529 -3.049633 0.16076154
7.3102355 -3.0428171 0.17538738
7.2998052 -3.0299907 0.166225
7.3212495 -3.0146418 0.16575357
7.3126888 -3.0108631 0.16707139
7.3270216 -2.9860952 0.15937938
7.498673 -3.0484452 0.10797339
7.5073819 -3.0344963 0.10302742
7.5074549 -3.0287998 0.10283963
7.5095825 -3.0197303 0.10747685
7.5164261 -2.994029 0.10874759
7.2136936 -4.1158843 0.10260491
7.2714849 -4.0312614 0.10082018
7.2779713 -3.9843674 0.10015003
7.311111 -3.9496839 0.10115118
7.3445692 -3.8603308 0.10306618
7.211597 -3.7208061 0.16908029
7.2224717 -3.7299361 0.1604455
7.2303357 -3.7061307 0.16876242
7.2201238 -3.7015514 0.16009289
7.2265873 -3.6802185 0.16669942
7.2461009 -3.6865332 0.16498031
7.2509084 -3.6644969 0.15135063
7.2412558 -3.6607456 0.15650204
7.2609968 -3.642632 0.15005235
7.2612128 -3.6467636 0.16613583
7.2668781 -3.6254609 0.1656158
7.2713428 -3.6184916 0.1659088
7.2671585 -3.6088526 0.15994278
7.2712774 -3.5946054 0.16848451
7.2867122 -3.5790608 0.16828041
7.2887392 -3.5691545 0.1516757
7.2890329 -3.5595787 0.16701397
7.2956834 -3.5647795 0.15600319
7.3074703 -3.5553486 0.15299864
7.3127937 -3.5307977 0.15574788
7.3141866 -3.5256631 0.1696779
7.3150449 -3.521131 0.16044831
7.3161817 -3.5058367 0.15072195
7.3313384 -3.4914629 0.16509968
7.3350229 -3.4866793 0.16487205
7.3384886 -3.4848793 0.16439366
7.3453355 -3.467782 0.16332713
7.3475065 -3.4490175 0.16688873
7.3586521 -3.4434338 0.14970307
7.3467793 -3.4374809 0.16688351
7.3576412 -3.4350755 0.1590068
7.3624187 -3.4167376 0.16546334
7.3779521 -3.402174 0.15700871
7.3837452 -3.3973508 0.15271543
7.3839016 -3.3937263 0.1629865
7.2123151 -3.292805 0.23111773
7.211627 -3.2888305 0.21982694
7.2298579 -3.2675257 0.21706115
7.231637 -3.259901 0.22963253
7.2362161 -3.2489612 0.21790351
7.2379613 -3.2519572 0.21832006
7.2318158 -3.2349586 0.22680806
7.2521129 -3.2271955 0.2195864
7.2439413 -3.218394 0.22690801
7.2514625 -3.2141764 0.22756748
7.2492399 -3.1947703 0.2201553
7.2688489 -3.1806543 0.2266573
7.2771525 -3.1728947 0.22439754
7.2626762 -3.1679301 0.21968931
7.2807574 -3.1629462 0.23584138
7.2870951 -3.1407626 0.21891171
7.2938356 -3.1292558 0.22888833
7.2890496 -3.1219695 0.21652965
7.2970276 -3.1073582 0.22286771
7.2923131 -3.1097155 0.22331232
7.3082442 -3.0987699 0.23304561
7.3167486 -3.0926766 0.22677137
7.3117409 -3.0627267 0.2181268
7.3244591 -3.0716858 0.22431076
7.3124552 -3.0469825 0.2253364
7.3165884 -3.0403459 0.21839735
7.3237782 -3.0313597 0.23281051
7.3409305 -3.0315354 0.22434935
7.3457093 -3.008095 0.22033267
7.336812 -2.993717 0.22378601
7.3483453 -2.9877417 0.22800599
7.524343 -3.0487869 0.16184786
7.5194058 -3.0476959 0.16173492
7.5258093 -3.0381773 0.1624659
7.5383821 -3.0249398 0.15769714
7.5319662 -3.011831 0.16935594
7.5385962 -2.9957809 0.15978622
7.2090707 -4.155571 0.15309472
7.2176828 -4.1435404 0.16099194
7.2147465 -4.134068 0.1565744
7.2226281 -4.1297584 0.15034097
7.2312264 -4.1150002 0.16131689
7.2466998 -4.1203389 0.14593196
7.2467752 -4.1025195 0.15194272
7.2518759 -4.0899134 0.15051275
7.2496085 -4.0909886 0.15206589
7.2729058 -4.0708146 0.15825312
7.2759242 -4.0536308 0.15582189
7.2705383 -4.0536466 0.15536186
7.273035 -4.0423965 0.15430623
7.2911005 -4.029048 0.14748423
7.282918 -4.0128713 0.14533649
7.3056974 -4.0069766 0.14775793
7.3130774 -4.0067477 0.15789904
7.3064542 -3.9871454 0.15053815
7.318387 -3.9755237 0.15198566
7.3118582 -3.9663038 0.16348308
7.3315029 -3.9597504 0.16203231
7.3287015 -3.9442539 0.15042582
7.3454266 -3.9319174 0.15992175
7.3410811 -3.9271581 0.15261023
7.3498993 -3.9162095 0.15131202
7.3565559 -3.9080958 0.14573707
7.3656197 -3.8982019 0.15021148
7.3648095 -3.8805172 0.164101
7.3766246 -3.8764715 0.1594173
7.369873 -3.8645117 0.15375079
7.2070942 -3.7705438 0.20933256
7.2102375 -3.7530468 0.22528699
7.2217607 -3.7443397 0.22335206
7.2227654 -3.7454786 0.21594279
7.236445 -3.7232854 0.2092407
7.2488122 -3.7199078 0.22040328
7.23559 -3.7129245 0.2112031
7.2468281 -3.6921942 0.20942342
7.2519422 -3.6850779 0.22141762
7.252358 -3.6701283 0.21509217
7.2670932 -3.6758478 0.22454078
7.2724905 -3.6636872 0.22142595
7.273828 -3.6452529 0.2169501
7.2732167 -3.6310494 0.22126009
7.285182 -3.6283877 0.21768071
7.2904305 -3.6185665 0.22738905
7.286828 -3.6071603 0.21398364
7.2940106 -3.5896952 0.2112041
7.2993999 -3.5922813 0.22542915
7.3167686 -3.5796027 0.22448505
7.3077979 -3.5773256 0.22769547
7.3282619 -3.5547738 0.21293332
7.3255963 -3.5559931 0.226465
7.3384409 -3.5429182 0.22405286
7.3355808 -3.5229585 0.21414772
7.3491273 -3.5228159 0.22390221
7.3523679 -3.5113282 0.21489398
7.3421888 -3.4976954 0.2131751
7.3492155 -3.4836974 0.21868716
7.3504534 -3.4773395 0.22668807
7.3707328 -3.4649477 0.22676919
7.374208 -3.4570732 0.21919823
7.3829069 -3.436831 0.22019728
7.3851233 -3.4286966 0.2240535
7.2134199 -3.3485017 0.28255031
7.2231789 -3.3397825 0.28605258
7.2226782 -3.3327324 0.29080418
7.2331548 -3.3207574 0.27894333
7.221899 -3.3066363 0.29082859
7.2361412 -3.2961447 0.27881268
7.2383699 -3.2902267 0.28892294
7.2406659 -3.2656715 0.2766352
7.2553768 -3.2572412 0.27431056
7.2510724 -3.2514048 0.28983426
7.2506104 -3.2505739 0.27540153
7.2637253 -3.2246537 0.27962816
7.2603283 -3.2238901 0.28083834
7.2816691 -3.2172909 0.28395084
7.2711349 -3.2065752 0.29110485
7.2724714 -3.1862311 0.27866468
7.2817779 -3.1882575 0.28205046
7.2811809 -3.1725731 0.2798928
7.2882814 -3.1667495 0.27606016
7.2930436 -3.1497872 0.28795263
7.3133149 -3.13783 0.29055819
7.2991395 -3.1372869 0.28895971
7.3091764 -3.1246552 0.27799448
7.3204093 -3.1151838 0.28349167
7.3147402 -3.1007333 0.28956142
7.3162112 -3.0894184 0.28582606
7.3252277 -3.0732551 0.28990877
7.3376155 -3.0621331 0.2795139
7.3478312 -3.0683405 0.28477478
7.3342004 -3.0542016 0.27682379
7.352448 -3.0441928 0.29064956
7.3532863 -3.0327468 0.2748321
7.3525119 -3.0156372 0.28145358
7.3607583 -3.0116537 0.28734785
7.3544869 -2.9976835 0.2774879
7.5494609 -3.0579596 0.2238265
7.5455952 -3.0419044 0.22101691
7.5457973 -3.0377631 0.21910626
7.5555902 -3.0276935 0.22075939
7.5506287 -3.015528 0.22631653
7.5577021 -3.0093744 0.21164159
7.5785861 -2.9866271 0.21816577
7.7395167 -3.0585551 0.1466414
7.7512727 -3.0365369 0.15374742
7.7489076 -3.0249915 0.14455885
7.7566676 -3.017849 0.1562102
7.7756562 -3.0188448 0.15339582
7.7718205 -3.0038965 0.14419582
7.7660589 -2.9833987 0.15453269
7.208672 -4.5689945 0.15295903
7.2305083 -4.5558329 0.14272204
7.233882 -4.5398812 0.15052606
7.2311387 -4.5363202 0.15073292
7.2318926 -4.5318847 0.14918962
7.2425694 -4.5107903 0.15764691
7.2574778 -4.5084591 0.14319494
7.250526 -4.4842596 0.14329985
7.2578111 -4.4924564 0.14408192
7.2754507 -4.4746995 0.16108027
7.2857442 -4.4606123 0.14604919
7.2833943 -4.4510589 0.15411605
7.2907939 -4.4444885 0.14806186
7.3059831 -4.4270039 0.15548706
7.3013654 -4.4150934 0.1572572
7.3151894 -4.4188204 0.15002219
7.3174572 -4.3939395 0.1550103
7.3252583 -4.3822966 0.15408112
7.3331499 -4.3896408 0.15482926
7.3418097 -4.365603 0.14320005
7.3474536 -4.3575153 0.155515
7.3380518 -4.358007 0.14723136
7.3567028 -4.3373146 0.15535736
7.3492856 -4.3276339 0.15079878
7.3692789 -4.3287587 0.14797261
7.3710279 -4.3022318 0.15123282
7.221839 -4.2038307 0.21269973
7.221179 -4.1997666 0.21208467
7.2195759 -4.1739416 0.21391314
7.2387066 -4.1655726 0.20955837
7.2261944 -4.1576619 0.22306152
7.2459826 -4.1452408 0.2058351
7.2374735 -4.1402416 0.21905461
7.2570758 -4.1287193 0.21169953
7.2521057 -4.1232481 0.21295625
7.2642951 -4.1220584 0.21046785
7.2797308 -4.1123853 0.22033465
7.273098 -4.0892401 0.22420508
7.2858362 -4.0735521 0.22383243
7.2803884 -4.0645738 0.22175208
7.2905717 -4.0539341 0.21749772
7.2942438 -4.0493178 0.215572
7.3006754 -4.0390086 0.2085444
7.3003125 -4.0348811 0.22293024
7.3125801 -4.0214934 0.21267003
7.3260903 -4.0016718 0.21347439
7.3370976 -3.9921558 0.21381898
7.3379574 -3.9950001 0.20716755
7.3426738 -3.9708197 0.20605467
7.347003 -3.9777861 0.22376303
7.3492374 -3.9602542 0.22194616
7.3472033 -3.9447207 0.21457249
7.3632293 -3.9484122 0.20732683
7.3722129 -3.9381089 0.21401998
7.3755684 -3.9211664 0.22390419
7.3686495 -3.9163277 0.22340551
7.2149649 -3.8172536 0.28573143
7.2290421 -3.7919667 0.27147153
7.216454 -3.7875347 0.27116397
7.2227387 -3.7843308 0.27365416
7.2267179 -3.7644353 0.28343266
7.2488656 -3.7521024 0.27849334
7.2436261 -3.7492578 0.27960348
7.2511268 -3.7429292 0.28075004
7.2653065 -3.7387309 0.28856474
7.2693558 -3.7269228 0.27093613
7.272893 -3.706701 0.27326432
7.2752204 -3.6977205 0.27081621
7.2832737 -3.6866331 0.28272915
7.2910051 -3.6745517 0.28776783
7.2812128 -3.6637676 0.28261659
7.3011851 -3.6560979 0.27970541
7.2962036 -3.6389165 0.26953855
7.3123178 -3.6394687 0.27559265
7.3095646 -3.6310616 0.27573025
7.3146119 -3.623811 0.27755359
7.3220162 -3.5982153 0.26946938
7.3317347 -3.5954704 0.28022882
7.3189902 -3.5898356 0.27193174
7.3381448 -3.581619 0.28556508
7.3423238 -3.56833 0.27982411
7.3413377 -3.5601902 0.27158728
7.3574257 -3.5421393 0.27035937
7.3633323 -3.5330667 0.27839938
7.355279 -3.531826 0.28465962
7.3673487 -3.5106027 0.28797653
7.361228 -3.5070255 0.28668785
7.3670082 -3.4987659 0.27793616
7.3835335 -3.4882722 0.28460398
7.2202787 -3.4026155 0.33278763
7.2219987 -3.3790286 0.34050995
7.2179637 -3.3814075 0.34613585
7.225678 -3.352663 0.33956975
7.2321501 -3.3429625 0.35182619
7.2266483 -3.3462517 0.33506632
7.2473922 -3.3223932 0.34926593
7.2514396 -3.3295634 0.33677223
7.2541838 -3.3158467 0.34226063
7.2481623 -3.3104835 0.34795836
7.2487941 -3.3017709 0.34800568
7.2540746 -3.2760761 0.34158149
7.2670631 -3.2791395 0.34271345
7.2656636 -3.259198 0.34251806
7.2776837 -3.2574799 0.34194493
7.2819462 -3.245945 0.34799778
7.2894349 -3.238333 0.34781793
7.2911086 -3.2113268 0.35037008
7.3002744 -3.2062159 0.33653465
7.2949147 -3.191751 0.33795151
7.295238 -3.1812651 0.33796352
7.3155947 -3.1700954 0.33354682
7.3095131 -3.1705196 0.33593658
7.3245492 -3.1569118 0.34813115
7.3193755 -3.1558383 0.35190102
7.3336148 -3.1350424 0.33705661
7.3338923 -3.1312842 0.3396686
7.3339758 -3.1103642 0.33912462
7.336597 -3.1047759 0.33352357
7.3453689 -3.089031 0.33221269
7.3555431 -3.0974317 0.35120708
7.345715 -3.0699308 0.35118419
7.3514557 -3.0729527 0.34054396
7.3595719 -3.0653651 0.33331203
7.3598685 -3.0473635 0.33694807
7.3639207 -3.0395215 0.35116816
7.3731141 -3.0357854 0.33892852
7.3849049 -3.016336 0.337385
7.3761377 -2.9986205 0.35119966
7.3817549 -2.9964745 0.35052305
7.5617704 -3.0597994 0.28768224
7.5651417 -3.0457017 0.28561512
7.5684757 -3.0301614 0.27027193
7.5811543 -3.0307884 0.27225599
7.5865865 -3.0153887 0.28197524
7.5956397 -3.0001919 0.26926449
7.5988984 -3.0000432 0.27001143
7.766315 -3.0619271 0.21640268
7.7758579 -3.046947 0.21374059
7.7792001 -3.0305476 0.22292846
7.7818508 -3.0140398 0.20980774
7.7851667 -3.0184288 0.22023182
7.7864003 -3.0037382 0.21563739
7.969265 -3.0487247 0.15632971
7.9772038 -3.0441391 0.1453722
7.9748468 -3.0347099 0.15903459
7.9797635 -3.0262167 0.14226338
7.9854112 -3.0108991 0.14261703
8.0009556 -2.9903007 0.14711007
7.2101202 -4.9514647 0.14953858
7.2228246 -4.9412279 0.16097561
7.2298813 -4.9332714 0.14763722
7.2252674 -4.916378 0.16039982
7.2437773 -4.905251 0.15845065
7.2489061 -4.9043946 0.14738747
7.2455244 -4.8927488 0.15625985
7.2551942 -4.8806028 0.15320213
7.2658305 -4.8772473 0.14380255
7.2664523 -4.8514977 0.14959364
7.2830219 -4.8520055 0.15997238
7.2774816 -4.8467207 0.15052937
7.2833648 -4.8212767 0.15897448
7.2958946 -4.8273292 0.15423511
7.3011732 -4.8017411 0.15053491
7.3044887 -4.7978797 0.15759379
7.3167262 -4.7842407 0.14619187
7.3178225 -4.7877593 0.1568196
7.3358464 -4.7674541 0.16067715
7.3444562 -4.7533259 0.16014893
7.3388433 -4.749413 0.14896768
7.3435946 -4.7378101 0.15291694
7.3588886 -4.7270808 0.15214676
7.3626132 -4.7105637 0.15515052
7.2215199 -4.6129346 0.21569307
7.2166333 -4.6014886 0.20777158
7.218792 -4.5845041 0.22328745
7.2295341 -4.5731096 0.20507409
7.2308898 -4.5703626 0.2169458
7.2360892 -4.5456619 0.21271627
7.2607465 -4.5532169 0.22216113
7.2542081 -4.5426493 0.21296062
7.271605 -4.5234017 0.20423202
7.2682176 -4.5070291 0.22175425
7.2678199 -4.498271 0.20406881
7.2858167 -4.5008273 0.20776802
7.2958784 -4.4876399 0.21838103
7.3014412 -4.4701095 0.21030937
7.3087769 -4.4576092 0.21489684
7.3079696 -4.4462819 0.21408769
7.3229189 -4.4366546 0.21561722
7.3272986 -4.4399095 0.21759953
7.322464 -4.4320974 0.20870562
7.328886 -4.4139881 0.20605169
7.3328161 -4.4025779 0.22201452
7.3390465 -4.3994575 0.20527068
7.3489618 -4.3725491 0.21155566
7.3494759 -4.3663363 0.20520298
7.3619041 -4.3590331 0.22117393
7.3789053 -4.3587675 0.21828733
7.2114015 -4.2530842 0.27696732
7.2089596 -4.2261367 0.28005624
7.2284861 -4.2302117 0.28074619
7.2391043 -4.2140379 0.26932564
7.2270546 -4.2000942 0.2790868
7.2509537 -4.1860647 0.28173089
7.2380948 -4.188251 0.28103763
7.2515068 -4.1760402 0.27630267
7.2585521 -4.1575036 0.26860824
7.2615538 -4.1480536 0.2709083
7.2616553 -4.1485 0.2719273
7.2782888 -4.1373124 0.26983452
7.277997 -4.1325092 0.2735987
7.2783813 -4.1029844 0.28346008
7.2873306 -4.1113915 0.27718106
7.3060269 -4.101768 0.2748386
7.3073535 -4.0908575 0.28020889
7.307972 -4.0723758 0.26768115
7.3238416 -4.0526743 0.28357288
7.3320026 -4.0557828 0.27878913
7.3224492 -4.0445881 0.28342572
7.3339005 -4.0225439 0.26910809
7.343245 -4.0265603 0.2694439
7.336339 -4.0159483 0.26914692
7.3592806 -4.0021281 0.27027705
7.3559284 -3.9953387 0.27085695
7.3702197 -3.9729359 0.27216545
7.3698668 -3.9756129 0.28176641
7.3769722 -3.9681051 0.28087094
7.2124934 -3.8681271 0.32879469
7.2105522 -3.8535719 0.3355661
7.2132339 -3.8332071 0.33416069
7.2215834 -3.8291256 0.33850929
7.2302551 -3.8175633 0.34323281
7.2386155 -3.8086588 0.33153152
7.2480917 -3.788691 0.33636689
7.2581344 -3.7800026 0.33334443
7.2494707 -3.7772233 0.33737645
7.2503943 -3.772881 0.33864024
7.2704082 -3.7510836 0.33961871
7.2761984 -3.7566149 0.34509483
7.2687454 -3.7448387 0.3408705
7.2798729 -3.7300725 0.33065492
7.2753353 -3.7119806 0.34192145
7.2955065 -3.7108595 0.33200482
7.3039627 -3.7055798 0.33196071
7.2972398 -3.6955612 0.33050239
7.3074803 -3.6794951 0.34171343
7.3017383 -3.6677809 0.34714961
7.3172464 -3.661314 0.34425843
7.3137183 -3.654304 0.34570372
7.3356524 -3.6399796 0.32878581
7.3333473 -3.6197464 0.33648747
7.3408132 -3.6092558 0.33212721
7.3395305 -3.6037838 0.33872661
7.3483176 -3.5950325 0.34043738
7.3570457 -3.5781658 0.34199107
7.3643017 -3.5762067 0.32942784
7.3627539 -3.5651231 0.33838868
7.3666282 -3.5636511 0.3436192
7.3675971 -3.5508122 0.34565526
7.369997 -3.5411305 0.33180407
7.3754644 -3.5188303 0.34796745
7.2170768 -3.4321959 0.40652934
7.2257428 -3.4140627 0.3981967
7.220994 -3.4121771 0.40837568
7.2379417 -3.4065828 0.40517434
7.2364292 -3.3987384 0.39367819
7.2423396 -3.3774328 0.40300485
7.2371964 -3.3772299 0.40353569
7.2572699 -3.3610208 0.40663052
7.2593656 -3.3473604 0.4091253
7.2475953 -3.3331664 0.40363169
7.2719746 -3.3307371 0.39254576
7.272768 -3.3244331 0.40953007
7.2652149 -3.3076549 0.3983306
7.2678266 -3.2986917 0.40264913
7.2872224 -3.2959898 0.40472931
7.2951083 -3.2721124 0.3980256
7.2923064 -3.2780991 0.40142879
7.2900214 -3.2687187 0.39093843
7.2908168 -3.2419357 0.40399939
7.2940931 -3.2316012 0.4011386
7.311861 -3.2215517 0.39058465
7.3185291 -3.215359 0.39620587
7.3221674 -3.2013555 0.40847006
7.3145919 -3.1893625 0.39955571
7.3313208 -3.1825814 0.40319502
7.3301153 -3.1725082 0.40055698
7.3421917 -3.1698165 0.40177137
7.3376575 -3.153975 0.40219852
7.3426185 -3.1418893 0.39923483
7.3406258 -3.1310644 0.39642555
7.3557582 -3.1269944 0.39347917
7.3603225 -3.1207645 0.4065327
7.3704939 -3.115391 0.40339047
7.3729148 -3.1020732 0.40203577
7.3664069 -3.0764925 0.39725056
7.3835244 -3.0765691 0.39232063
7.3779893 -3.0690062 0.39985853
7.3736539 -3.050401 0.39300749
7.3897314 -3.0512438 0.40800568
7.3828311 -3.0384736 0.40358603
7.3931069 -3.0149512 0.39298785
7.4004221 -3.0112307 0.39836451
7.4007764 -3.0016909 0.39885372
7.417974 -2.9940672 0.40239367
7.5900512 -3.0485194 0.33910763
7.6011796 -3.038672 0.34759957
7.5873628 -3.0386543 0.33336914
7.6010695 -3.0272515 0.34745276
7.6079102 -3.0040367 0.3303965
7.6097341 -2.9919734 0.33580735
7.7839632 -3.063637 0.27229807
7.7908373 -3.0421953 0.28432786
7.8030725 -3.0446072 0.27557683
7.7957816 -3.0340152 0.28412256
7.812016 -3.0117736 0.27912846
7.8070822 -3.0026681 0.27339715
7.8106256 -2.9916286 0.27709323
7.9974356 -3.0591512 0.21946214
8.0008965 -3.0357707 0.21657708
8.0072851 -3.034771 0.21514699
8.0190697 -3.0205717 0.22120501
8.0094624 -3.0037711 0.21783793
8.0118694 -2.9989924 0.22118607
8.2035856 -3.0522914 0.14211398
8.2058487 -3.0467896 0.15653208
8.2031021 -3.0304332 0.14916502
8.2146072 -3.0147302 0.14194107
8.2097931 -3.013911 0.14432637
8.2294655 -2.9938922 0.15893604
7.2121725 -4.9816113 0.20604824
7.2174206 -4.979413 0.21246356
7.2294307 -4.958765 0.21197285
7.2437005 -4.9621549 0.2192128
7.2383142 -4.9407229 0.21029468
7.2578368 -4.9336772 0.21922366
7.2543783 -4.9146175 0.22160691
7.2617521 -4.918262 0.21777767
7.2621603 -4.9043365 0.21095574
7.284843 -4.8833251 0.20745353
7.2803464 -4.8848667 0.21954143
7.287375 -4.8681169 0.2237644
7.3008046 -4.8662982 0.21856275
7.2937288 -4.8571372 0.21988834
7.3138795 -4.8402762 0.21255389
7.3250976 -4.8307924 0.22216335
7.3252301 -4.8116527 0.22072113
7.3277321 -4.8120098 0.22551316
7.3463902 -4.7988162 0.21410027
7.338212 -4.789783 0.21355872
7.3465176 -4.7720752 0.22132537
7.3668966 -4.7741542 0.21568269
7.3714843 -4.7696037 0.22168982
7.2108455 -4.6554408 0.26742199
7.2113843 -4.631598 0.27908483
7.2245746 -4.6232953 0.27003419
7.2273602 -4.6216035 0.26991695
7.2286892 -4.6041403 0.27922624
7.2347965 -4.5947337 0.27150369
7.2494769 -4.5802069 0.28257939
7.2636013 -4.5840611 0.28111845
7.2654786 -4.5742092 0.26732513
7.2616987 -4.5464277 0.26781905
7.2839122 -4.5459185 0.26872912
7.291101 -4.5313559 0.2834242
7.2899384 -4.5300746 0.27635506
7.2997108 -4.5124655 0.28090137
7.3093519 -4.49997 0.27282614
7.3082881 -4.4877963 0.2840631
7.3194876 -4.4873576 0.279724
7.3217487 -4.4791956 0.2814185
7.3225346 -4.455543 0.28284404
7.3295126 -4.4620433 0.28192112
7.3369703 -4.4526887 0.27136853
7.345324 -4.4424901 0.28523067
7.3483582 -4.4197845 0.27021751
7.3643093 -4.4136224 0.28264844
7.3647919 -4.4041214 0.27740073
7.3771853 -4.4019718 0.27414352
7.2171407 -4.2772975 0.3418757
7.2162671 -4.2744493 0.346827
7.2170739 -4.2570605 0.34522134
7.2192922 -4.258925 0.34689751
7.2405734 -4.2395487 0.32770136
7.2312884 -4.2380209 0.32846844
7.2558508 -4.2196474 0.34169713
7.2453861 -4.2114973 0.3308351
7.2673388 -4.209024 0.33921292
7.264029 -4.2003026 0.33947039
7.2774482 -4.1740961 0.33652467
7.2778425 -4.1747441 0.34636873
7.283174 -4.160552 0.34353459
7.2868862 -4.1500945 0.32876086
7.2922602 -4.1442938 0.3432802
7.2984233 -4.1337032 0.32923523
7.3053398 -4.1244602 0.34346369
7.3054705 -4.111578 0.33573419
7.3147254 -4.1026258 0.3403616
7.3323431 -4.0828514 0.34358567
7.3302045 -4.0755119 0.34288299
7.3251061 -4.0736175 0.3313911
7.3298373 -4.0522175 0.34394208
7.3517199 -4.052917 0.33679348
7.3588147 -4.03404 0.34527996
7.3604145 -4.0347829 0.33418363
7.3679547 -4.0143781 0.34214863
7.369709 -4.0195975 0.33280602
7.3637199 -4.0013032 0.3422178
7.2148666 -3.9002228 0.40194076
7.2165732 -3.8981211 0.39804694
7.2175632 -3.8868163 0.40582556
7.2270474 -3.8764641 0.40477464
7.2290683 -3.8498988 0.39278653
7.2439265 -3.8418941 0.38942984
7.2472572 -3.8379307 0.3950769
7.2394772 -3.8320534 0.39086714
7.2596483 -3.810034 0.39116877
7.250463 -3.7996018 0.39948782
7.2706747 -3.7961297 0.40770832
7.2698531 -3.7963934 0.40797165
7.2851233 -3.7810957 0.38947347
7.2881584 -3.7617288 0.39125356
7.2901278 -3.7657411 0.38951752
7.3000956 -3.7402816 0.40569717
7.3066921 -3.7368639 0.39574382
7.2989211 -3.7265842 0.40156364
7.3069267 -3.7214777 0.39929137
7.3152194 -3.7108867 0.39733219
7.3118172 -3.7053998 0.38871875
7.3166208 -3.6860363 0.38970771
7.3216739 -3.6766901 0.3958531
7.3282146 -3.6695828 0.39121696
7.3365207 -3.6457653 0.39241245
7.3430767 -3.6372256 0.38890404
7.345798 -3.6273203 0.39864269
7.358552 -3.6304026 0.38848305
7.357111 -3.610682 0.3932448
7.3733835 -3.6078572 0.39840493
7.3676825 -3.5936091 0.39885229
7.373354 -3.5797172 0.38845614
7.3799996 -3.565918 0.39719188
7.2212906 -3.4876263 0.46355614
7.2093015 -3.4694686 0.46276692
7.2184935 -3.4498582 0.46028179
7.2241631 -3.4526153 0.45745912
7.2395573 -3.4476936 0.46130428
7.2447777 -3.4292727 0.45461288
7.2347455 -3.4196255 0.46048221
7.2498598 -3.4007108 0.45032859
7.2454071 -3.4011421 0.46378884
7.2505441 -3.3799307 0.4607631
7.2644029 -3.3709311 0.46265337
7.2638693 -3.3587794 0.4526417
7.2625322 -3.3622801 0.45217407
7.2786956 -3.3449416 0.45887619
7.2720227 -3.3370256 0.46042031
7.2891803 -3.3286915 0.45029858
7.2796326 -3.3151774 0.45973083
7.2959399 -3.3113236 0.45797783
7.3020797 -3.2966824 0.46568677
7.3016648 -3.2816503 0.46449387
7.2982106 -3.2774913 0.46218073
7.3166323 -3.2585838 0.46189281
7.3250284 -3.265717 0.46797109
7.312942 -3.2413762 0.46124804
7.3275437 -3.2283838 0.45229492
7.3236756 -3.2228947 0.46152323
7.3296714 -3.2116008 0.45410627
7.3450847 -3.2086322 0.46037745
7.3387313 -3.2041428 0.45111758
7.3400722 -3.1846724 0.46671125
7.3602057 -3.1732466 0.45627883
7.3580122 -3.1679754 0.45456246
7.3555164 -3.1588702 0.45551497
7.3590841 -3.146399 0.45060417
7.3759151 -3.1238592 0.46847516
7.3837781 -3.1297071 0.46161816
7.3808551 -3.1140645 0.45583197
7.390501 -3.1074989 0.46278483
7.210753 -3.0178907 0.52473378
7.217278 -3.0055218 0.51516861
7.2193832 -2.997467 0.5267809
7.4070005 -3.0691762 0.45266744
7.3970304 -3.0544186 0.45814103
7.4079986 -3.0404978 0.46581915
7.4140415 -3.0341372 0.46576396
7.4179411 -3.0242898 0.44958171
7.414969 -3.0017273 0.45875701
7.4261961 -2.9938667 0.46420661
7.601027 -3.0658498 0.39435184
7.6204844 -3.0438638 0.40755042
7.6103616 -3.0439744 0.3987397
7.6118364 -3.0366144 0.40128636
7.6199255 -3.0235002 0.38826922
7.6334729 -3.003679 0.39884526
7.6346841 -3.0020616 0.40544856
7.8131795 -3.0504606 0.33081743
7.8182206 -3.0361185 0.32914615
7.8124218 -3.0347528 0.34498447
7.832057 -3.0194104 0.32989576
7.8225651 -3.0088847 0.34618363
7.8262563 -2.9927411 0.33174527
7.8411217 -2.9993672 0.3340455
8.0165453 -3.0500805 0.27809018
8.0210047 -3.0432661 0.27206531
8.0360241 -3.0194407 0.27701855
8.037631 -3.0186591 0.27261102
8.0453339 -2.9971042 0.27164683
8.0513496 -2.9856005 0.28114387
8.2317781 -3.0451508 0.21433049
8.2386045 -3.0317128 0.20786892
8.241703 -3.0187902 0.20662868
8.2303476 -3.0151935 0.20783411
8.2412758 -2.9983759 0.21533862
8.4160252 -3.0465589 0.15772671
8.4257746 -3.0385082 0.1534885
8.4404612 -3.0330744 0.15883142
8.4307232 -3.0241461 0.15452315
8.4400053 -3.0133948 0.15050666
8.4387674 -3.0049822 0.16217454
7.2454643 -4.9855304 0.28468904
7.2469358 -4.9684567 0.28922534
7.2568245 -4.9730773 0.27025717
7.2524695 -4.9533706 0.28089467
7.2622452 -4.9358106 0.28638002
7.2738614 -4.9400501 0.28604808
7.2825389 -4.9237828 0.27308652
7.2890954 -4.918561 0.28603339
7.2861581 -4.9081135 0.288636
7.2957711 -4.9004688 0.28240174
7.304266 -4.8922577 0.27198428
7.3058019 -4.8695326 0.28854436
7.3118596 -4.8638625 0.27037826
7.3189354 -4.8494768 0.28180373
7.3366342 -4.852231 0.28066409
7.3398037 -4.8302703 0.28515029
7.3426275 -4.8265195 0.27575907
7.3524752 -4.8030849 0.28143606
7.3552551 -4.8094463 0.28739676
7.3606238 -4.7930398 0.27082908
7.219655 -4.6708083 0.3316381
7.2281981 -4.6582413 0.34563169
7.2332869 -4.6664186 0.33509335
7.2401953 -4.6543083 0.34872934
7.2385154 -4.6312733 0.32939047
7.255682 -4.6318274 0.341782
7.2573204 -4.6163039 0.34768507
7.2495532 -4.5976634 0.34677342
7.2674494 -4.6029592 0.34924176
7.2712917 -4.5895886 0.33784902
7.2785525 -4.5837865 0.33425015
7.2872601 -4.5759697 0.33315545
7.2899466 -4.5495787 0.33381146
7.3020806 -4.542779 0.33649653
7.3078365 -4.5441456 0.33212656
7.3142395 -4.5348182 0.33710277
7.3130193 -4.5103106 0.34749445
7.3176885 -4.5000134 0.34640935
7.3214316 -4.4982505 0.32990202
7.3276286 -4.4790606 0.33662969
7.3424187 -4.479012 0.33901531
7.3535957 -4.4566436 0.33906433
7.3636637 -4.4579616 0.33534238
7.354373 -4.4335046 0.34824887
7.3677535 -4.429637 0.32960874
7.3767495 -4.4256973 0.3301073
7.2069435 -4.3110123 0.40426436
7.2311416 -4.2964711 0.39916357
7.2342405 -4.2844748 0.4056105
7.2408185 -4.2925558 0.40102312
7.2341094 -4.2721066 0.40625167
7.2497721 -4.2667255 0.40360725
7.2454696 -4.2575083 0.38939443
7.2574315 -4.2437978 0.3893795
7.2622852 -4.2429099 0.40296471
7.2684851 -4.219214 0.39021349
7.2751689 -4.2077346 0.40358073
7.2766476 -4.1980791 0.40142441
7.2930112 -4.1913333 0.40119088
7.2958078 -4.1840043 0.40279481
7.2940025 -4.1693645 0.39475814
7.2974119 -4.1650286 0.40200394
7.3181624 -4.1509471 0.4083606
7.3246856 -4.1508422 0.39831251
7.3311801 -4.1318073 0.39902914
7.3312454 -4.1124825 0.39330998
7.3385453 -4.11237 0.38893068
7.3391981 -4.0966601 0.40405869
7.3376799 -4.0904541 0.39577624
7.3559146 -4.0873051 0.40465829
7.3557382 -4.0717998 0.39800745
7.3675113 -4.0587106 0.40551195
7.3665156 -4.0506816 0.396909
7.3718624 -4.0419259 0.39821389
7.219667 -3.9406521 0.46769676
7.2155256 -3.9371209 0.46694264
7.2256508 -3.9120438 0.45608005
7.2313828 -3.9120538 0.45069799
7.2322288 -3.899307 0.46128467
7.2447782 -3.8940372 0.46477523
7.2461953 -3.8746405 0.45351741
7.2409477 -3.869153 0.4650875
7.2631907 -3.8503299 0.45441741
7.2568164 -3.8518136 0.46222618
7.2717328 -3.843653 0.44921795
7.2767696 -3.8251307 0.44968203
7.2810383 -3.8219666 0.46515658
7.2744303 -3.7985396 0.45054695
7.2824259 -3.799722 0.45860219
7.3009939 -3.7937961 0.46183774
7.3030381 -3.7718797 0.45437309
7.2938108 -3.7606239 0.46229097
7.3161392 -3.7525241 0.45891997
7.3077831 -3.7361836 0.4639453
7.3272219 -3.7302971 0.46700409
7.3336377 -3.72473 0.45845017
7.3205037 -3.720237 0.46291813
7.3428297 -3.70768 0.46066326
7.3305321 -3.6924417 0.46706888
7.3462753 -3.6839349 0.44923592
7.3452396 -3.6786695 0.46314725
7.3567252 -3.6679032 0.45813498
7.3561144 -3.6600657 0.45103568
7.372118 -3.6458275 0.45008299
7.3731327 -3.6373794 0.46481541
7.377192 -3.6277301 0.45490608
7.3726826 -3.6164153 0.45927393
7.2210965 -3.5239663 0.52532369
7.2186546 -3.5132205 0.5170331
7.2226043 -3.4918897 0.52701145
7.2287073 -3.4967377 0.51201034
7.2287068 -3.4752297 0.51752353
7.2436805 -3.4594474 0.52061486
7.2515407 -3.4527621 0.50767815
7.2384343 -3.4501483 0.51291591
7.260046 -3.4285474 0.51752239
7.2517343 -3.4365132 0.52315599
7.267776 -3.4095778 0.52694964
7.2705054 -3.4099963 0.51142663
7.2649298 -3.3913627 0.52716547
7.2693186 -3.3915102 0.50798035
7.2786922 -3.3765275 0.52022064
7.2935643 -3.3714271 0.51815367
7.2915144 -3.363308 0.5126757
7.2965131 -3.3531227 0.51970845
7.306735 -3.3261395 0.51823235
7.3015499 -3.332267 0.5186739
7.3019838 -3.307138 0.51592755
7.3061972 -3.3040507 0.5226329
7.3148732 -3.2912958 0.51783526
7.3192739 -3.2788949 0.5227468
7.3244753 -3.2818491 0.51249117
7.3419027 -3.2546456 0.51717967
7.3372488 -3.2541926 0.51982433
7.3471026 -3.253427 0.52248454
7.3439746 -3.2271111 0.52195197
7.3593569 -3.2306385 0.52510905
7.355166 -3.2183754 0.52320617
7.3682141 -3.2065284 0.51419491
7.3679538 -3.1906207 0.5077365
7.3628812 -3.1749129 0.5234704
7.3827057 -3.1785905 0.52603501
7.3722606 -3.1694133 0.52558196
7.3864894 -3.1494482 0.5153541
7.2077098 -3.0691483 0.57500601
7.2071099 -3.0517757 0.57138503
7.2259636 -3.0435369 0.57398999
7.2279606 -3.0439901 0.57860494
7.2280402 -3.0158818 0.5848074
7.2390947 -3.0125067 0.57665223
7.2436771 -2.9986622 0.57393283
7.243979 -2.9894371 0.57725775
7.4232974 -3.0681453 0.5201273
7.4257841 -3.043735 0.51201987
7.4380288 -3.0468664 0.51889086
7.430563 -3.0348794 0.5130769
7.4394612 -3.0083063 0.52543831
7.4509501 -3.0039902 0.52727705
7.4470396 -3.003834 0.52714878
7.6264882 -3.0481791 0.46096614
7.6406956 -3.0405762 0.45788902
7.6321683 -3.036869 0.453944
7.6469512 -3.0344927 0.45425031
7.6439371 -3.0139003 0.44861567
7.6528006 -3.0053201 0.44949248
7.64852 -2.9884481 0.45199329
7.8362713 -3.0565009 0.39134988
7.8386054 -3.0474341 0.40399593
7.8427629 -3.0264769 0.4064174
7.846777 -3.0274265 0.4054372
7.8439417 -2.9984384 0.40141997
7.8580136 -3.0022316 0.39046416
8.0465631 -3.0635843 0.33188459
8.0370607 -3.0438237 0.3425878
8.0419083 -3.0394094 0.33120766
8.047616 -3.0234699 0.34602991
8.05581 -3.0018198 0.3317194
8.0626926 -3.0020976 0.3355459
8.2412081 -3.0490699 0.27004579
8.2432194 -3.0494039 0.27200285
8.244235 -3.0367894 0.27200079
8.2612171 -3.0143037 0.27725217
8.2672281 -3.0058916 0.27829456
8.2739906 -2.9912472 0.28788331
8.4509935 -3.0411084 0.21131806
8.4571381 -3.0441406 0.2188143
8.4580889 -3.0231972 0.21672867
8.4647121 -3.0195735 0.22312754
8.4751453 -3.000623 0.217916
8.4794111 -2.9839249 0.22087091
8.645709 -3.0340562 0.16558646
8.6519842 -3.0275884 0.16062458
8.6634951 -3.019326 0.15255734
8.6760302 -3.0084999 0.16761142
8.6781387 -2.9844074 0.16637881
8.8635435 -3.0407667 0.11098006
8.8559837 -3.037827 0.10408136
8.8663206 -3.0124891 0.10900896
8.86304 -3.0009263 0.10108342
7.270144 -4.9803863 0.35156536
7.2650785 -4.976335 0.34152693
7.2676978 -4.9632316 0.3525258
7.2849092 -4.9560814 0.33957553
7.2964149 -4.9436135 0.34088197
7.2962842 -4.9338918 0.34890321
7.3087711 -4.9176784 0.34064022
7.3034978 -4.9122338 0.34507576
7.3068624 -4.9075966 0.35308504
7.3304524 -4.8870568 0.3524237
7.329535 -4.8773365 0.34824213
7.3336673 -4.8796415 0.33798352
7.3477473 -4.866272 0.35068995
7.3528113 -4.8626218 0.34039882
7.3649116 -4.834383 0.35241824
7.3583035 -4.8331771 0.34399247
7.2196927 -4.7213078 0.39955416
7.2126679 -4.7068748 0.39242309
7.2300644 -4.6959372 0.39973301
7.235456 -4.6882553 0.39737716
7.2401724 -4.6683235 0.39452651
7.2406926 -4.6710763 0.39914647
7.2509408 -4.6665525 0.40690178
7.253881 -4.6437531 0.40806332
7.2665157 -4.6356287 0.40721065
7.2711563 -4.620873 0.39730108
7.2673564 -4.611464 0.40392378
7.2811532 -4.6156659 0.39492145
7.2878051 -4.5890422 0.40678936
7.3017526 -4.5835838 0.39626265
7.2933297 -4.5799522 0.39558253
7.3020425 -4.5623293 0.40205497
7.3153605 -4.5609732 0.40294737
7.3164201 -4.5431776 0.3965261
7.3186269 -4.5392337 0.40810722
7.3399663 -4.5171223 0.40431324
7.3313823 -4.5052691 0.3997879
7.3494067 -4.5060635 0.40091196
7.3584142 -4.4866362 0.39850169
7.3592753 -4.4796772 0.41138265
7.3695955 -4.4675426 0.39771909
7.3792214 -4.4730835 0.41149366
7.2115879 -4.3524909 0.45438129
7.2284112 -4.3366151 0.46691075
7.2187996 -4.3248782 0.45317224
7.2407551 -4.3181324 0.45132452
7.2389021 -4.3062873 0.45110062
7.2525101 -4.3027205 0.45984438
7.2472277 -4.2964339 0.45776847
7.259521 -4.2755604 0.45239565
7.2646813 -4.2706256 0.46889266
7.2761636 -4.2623105 0.46957573
7.2814064 -4.2441425 0.46138096
7.2715721 -4.2352295 0.45899978
7.2942529 -4.241992 0.45828518
7.2831807 -4.2128496 0.45423746
7.290247 -4.2115955 0.45194733
7.2970753 -4.2027564 0.46312824
7.3126326 -4.1852069 0.45049128
7.3060999 -4.1813583 0.4686155
7.3141804 -4.178329 0.46155316
7.3187437 -4.1697826 0.4526765
7.3239756 -4.1419449 0.45183012
7.3409986 -4.149879 0.46975106
7.3356261 -4.1210556 0.45075503
7.3495245 -4.1292133 0.45073897
7.3593612 -4.1161995 0.46180576
7.3668933 -4.1022382 0.45153293
7.365592 -4.0985856 0.46862218
7.3716393 -4.0873179 0.45936477
7.2083273 -3.9810939 0.52088398
7.2252789 -3.9690785 0.52278668
7.2133393 -3.9576406 0.52230704
7.2205396 -3.9549756 0.52366525
7.2256465 -3.943464 0.52361077
7.2317433 -3.923821 0.52515453
7.2378097 -3.920094 0.50945991
7.2549291 -3.9145732 0.51746631
7.2617617 -3.8960776 0.51885682
7.2656693 -3.8772447 0.52123868
7.2603054 -3.8799498 0.52684635
7.2784953 -3.8712554 0.51441127
7.278574 -3.860038 0.52334785
7.2781591 -3.8471444 0.52487588
7.279088 -3.8346534 0.52783388
7.2999482 -3.8215611 0.52034575
7.3023381 -3.8078835 0.52648783
7.3090191 -3.8025539 0.52804607
7.3036923 -3.7958453 0.51798761
7.3197417 -3.7906682 0.51664245
7.3181591 -3.7762802 0.52246481
7.3221698 -3.7691128 0.52684671
7.3337307 -3.7472639 0.51230335
7.3342142 -3.7512124 0.52050364
7.3362117 -3.7396004 0.51103747
7.3411527 -3.7324827 0.52449858
7.3585911 -3.7083151 0.52146471
7.3621573 -3.7027926 0.51358038
7.3672676 -3.6879086 0.52221739
7.3623052 -3.6822727 0.52583659
7.3759828 -3.6635029 0.5136416
7.3754687 -3.6659918 0.51840419
7.2078795 -3.5570326 0.57274985
7.2170568 -3.5582118 0.57497174
7.2144198 -3.5426202 0.57857394
7.2223029 -3.5272999 0.57905501
7.2236333 -3.5197392 0.57345742
7.2419152 -3.5137956 0.58312893
7.2322989 -3.5079112 0.57742381
7.2513056 -3.4921446 0.56708676
7.2539172 -3.4878407 0.5852443
7.2643199 -3.4691775 0.57063067
7.2594709 -3.4717727 0.56954515
7.2710028 -3.45017 0.57722336
7.2647424 -3.4361689 0.57042915
7.2820697 -3.4392359 0.56888425
7.2798643 -3.4259095 0.58482224
7.292047 -3.419224 0.57661897
7.2938871 -3.4070635 0.58420831
7.2900076 -3.4007909 0.57746577
7.2957773 -3.3767874 0.58492172
7.2996898 -3.3672478 0.58092886
7.3089747 -3.3674095 0.58422178
7.3171601 -3.3608778 0.57899165
7.3130093 -3.3454309 0.5776301
7.3220501 -3.3374662 0.58306235
7.3295317 -3.3165033 0.571675
7.3329368 -3.3081393 0.57682049
7.3281245 -3.3027031 0.58396721
7.3308873 -3.2858994 0.56722039
7.3468933 -3.2880657 0.58430457
7.3503413 -3.2710443 0.58074909
7.3497815 -3.2694485 0.56684613
7.3525009 -3.2443645 0.56928247
7.3699756 -3.2481136 0.57696688
7.3660741 -3.2274902 0.58241028
7.3675909 -3.2240393 0.5786047
7.3777056 -3.2018228 0.57294446
7.372952 -3.209044 0.58249563
7.2197199 -3.1219385 0.6365698
7.2052307 -3.0998445 0.64028901
7.2278118 -3.0988855 0.63078547
7.2268238 -3.0830545 0.63262677
7.2319183 -3.0690589 0.62929523
7.2394352 -3.0621285 0.63195115
7.2346225 -3.0436251 0.62496066
7.235239 -3.0481164 0.63114506
7.2520356 -3.0269897 0.62926358
7.2431583 -3.0150995 0.6298722
7.2438178 -3.0052993 0.63111627
7.2605867 -2.9943357 0.62439847
7.2610602 -2.9851246 0.62857765
7.4489808 -3.0541968 0.58056879
7.4418659 -3.0492578 0.57443243
7.4514046 -3.0410931 0.58514637
7.4635849 -3.0220189 0.58427769
7.4687605 -3.0065911 0.56882578
7.4601059 -2.998616 0.58440262
7.4695549 -2.9837534 0.58176571
7.6572671 -3.0436945 0.52086848
7.6486392 -3.0395837 0.51876998
7.6532788 -3.0391917 0.51576102
7.6620827 -3.012022 0.52652764
7.6608133 -3.0162337 0.51185304
7.6733928 -2.9951582 0.51495665
7.8549309 -3.0558908 0.46879148
7.8574228 -3.0456705 0.46560666
7.8644481 -3.0283129 0.45999297
7.8670344 -3.0256999 0.45883191
7.8669686 -3.0172224 0.45855606
7.8839412 -3.0016367 0.4517214
7.8787999 -2.9856608 0.45460302
8.0695667 -3.0531209 0.3960216
8.0722475 -3.0378134 0.40049189
8.0802374 -3.0341308 0.39534432
8.0713158 -3.0113587 0.40851614
8.0741644 -3.0103662 0.40095416
8.0738115 -2.9866052 0.39978957
8.2673254 -3.051003 0.35232115
8.2802591 -3.032937 0.34030899
8.2729015 -3.022109 0.35290465
8.2786932 -3.020617 0.35049272
8.2873497 -3.0114701 0.33763701
8.2953596 -2.983902 0.34884328
8.4678707 -3.0375855 0.29453012
8.4752617 -3.0391686 0.2896826
8.4758081 -3.0221157 0.29456452
8.4887762 -3.0096114 0.29193866
8.4805632 -3.0072694 0.28014463
8.6833115 -3.0399909 0.2369343
8.673625 -3.0403197 0.23096578
8.6765165 -3.0190823 0.23494607
8.6769791 -3.0133972 0.23652408
8.6845694 -3.003895 0.23411533
8.8842859 -3.048584 0.17350988
8.8867731 -3.0474017 0.17745402
8.8843956 -3.0299079 0.16662714
8.8868828 -3.0236642 0.17647465
8.8867264 -3.0098357 0.17682829
9.076128 -3.0591531 0.11840786
9.078969 -3.0409482 0.10550995
9.0958242 -3.0240922 0.12174384
9.0966415 -3.0109971 0.11155131
9.0990191 -2.9945183 0.11874364
7.293364 -4.994782 0.40782928
7.296196 -4.9832697 0.41867048
7.2983618 -4.9633064 0.40544915
7.3135362 -4.9564662 0.39975807
7.3153629 -4.941864 0.4126702
7.3111506 -4.9436865 0.40743932
7.3186927 -4.9168191 0.41200188
7.32617 -4.9141474 0.40679508
7.333395 -4.9047041 0.41514051
7.3468885 -4.8984084 0.41637915
7.3618665 -4.8882689 0.41857207
7.3578405 -4.8822575 0.40211713
7.3646417 -4.8610268 0.41545525
7.2181425 -4.745811 0.46200472
7.2258544 -4.741652 0.45641655
7.2264647 -4.7286091 0.45880696
7.2418303 -4.7149134 0.45785582
7.2417445 -4.7006159 0.46935812
7.2364373 -4.7059546 0.46007574
7.2594619 -4.6846457 0.46685177
7.2637105 -4.6751914 0.4735204
7.2701383 -4.6765814 0.45594361
7.2800965 -4.6579742 0.46933171
7.2833791 -4.6525917 0.46191779
7.2766466 -4.6461239 0.4686015
7.2843118 -4.6256595 0.45825732
7.294353 -4.6164298 0.47152871
7.3034291 -4.6138711 0.46900833
7.3039932 -4.6031909 0.47105116
7.3152604 -4.5960441 0.46429494
7.3332896 -4.5711913 0.45687619
7.3379736 -4.5664406 0.45794162
7.3450661 -4.5582457 0.46747923
7.3455324 -4.5532694 0.47225565
7.3585706 -4.5415125 0.47334641
7.3582778 -4.528563 0.4647392
7.3676271 -4.5120306 0.47519085
7.3702331 -4.5128665 0.45802066
7.2066474 -4.399477 0.51789165
7.2086077 -4.3815556 0.51816094
7.2237973 -4.3720074 0.51307565
7.2315545 -4.3641624 0.52252519
7.2403631 -4.3555989 0.5299443
7.2386951 -4.3529277 0.51210564
7.2417893 -4.3235631 0.5157811
7.2459607 -4.3208213 0.52215427
7.2615104 -4.3150468 0.51479918
7.2674975 -4.3129683 0.51633883
7.2763004 -4.2971053 0.52089834
7.2684097 -4.2854161 0.51332068
7.2807741 -4.2646565 0.52522457
7.2880392 -4.2622457 0.51489764
7.3047395 -4.2571173 0.52305055
7.3088446 -4.2397342 0.52378213
7.3150973 -4.2253203 0.52377731
7.3050108 -4.2127848 0.51640463
7.3212833 -4.2107344 0.52468854
7.3301864 -4.2087178 0.52492487
7.3406148 -4.1839056 0.53088897
7.3355889 -4.1729765 0.51839912
7.3429708 -4.1756616 0.5165174
7.3422422 -4.1570463 0.526887
7.3511724 -4.1476812 0.51221669
7.3682413 -4.1401467 0.5247528
7.3660274 -4.1322818 0.52151805
7.3637943 -4.1204109 0.52062595
7.2067299 -4.0245419 0.58813322
7.2252488 -3.9995022 0.57089698
7.22399 -3.9898989 0.58825541
7.2286811 -3.9911726 0.58631682
7.2408686 -3.9709013 0.57145894
7.2311602 -3.9571807 0.58497405
7.2518072 -3.9603381 0.57760412
7.2577696 -3.9522207 0.58751017
7.2562542 -3.9320965 0.57501459
7.2514901 -3.9199705 0.58411527
7.2658195 -3.9232156 0.58518308
7.2710915 -3.9135478 0.58123398
7.2791133 -3.8907306 0.57682347
7.2844796 -3.8888001 0.58106667
7.2878928 -3.8802464 0.57550097
7.2964344 -3.866951 0.57356769
7.2984762 -3.8585441 0.57838118
7.3131342 -3.8496964 0.58120871
7.3176842 -3.8278718 0.57404917
7.3097243 -3.8163047 0.56889665
7.3108506 -3.8158875 0.57037252
7.3330307 -3.7956634 0.57138193
7.3312478 -3.7928684 0.58506656
7.3450394 -3.7901444 0.57053208
7.3430605 -3.7694297 0.57439435
7.3555012 -3.7655823 0.58138734
7.3459945 -3.7450874 0.58661491
7.3612871 -3.7353144 0.57051045
7.3593926 -3.7263577 0.58604342
7.3703246 -3.7307129 0.58294868
7.3760896 -3.7192791 0.5700689
7.3833156 -3.6909885 0.58720356
7.2200789 -3.603744 0.63346648
7.2218504 -3.5942883 0.63567859
7.229074 -3.5920928 0.62837344
7.2201452 -3.5827229 0.63467634
7.2381954 -3.5681119 0.63122761
7.2414594 -3.5634465 0.62729776
7.2486048 -3.5458992 0.64206332
7.2512689 -3.5426292 0.64220518
7.2508245 -3.5187895 0.64350498
7.2574859 -3.5129039 0.64281213
7.2612677 -3.5039632 0.63302696
7.2747483 -3.4982827 0.64263922
7.2704268 -3.490397 0.644382
7.2787857 -3.4764438 0.62542266
7.2734332 -3.4694302 0.63099515
7.2846184 -3.4441285 0.63114697
7.2918591 -3.4366431 0.63875324
7.2938514 -3.4314413 0.63952941
7.2959714 -3.431618 0.63403857
7.2993765 -3.4100525 0.64431947
7.3020749 -3.4096105 0.63342047
7.3149738 -3.4005795 0.63807452
7.317471 -3.3807471 0.64047998
7.3216968 -3.3774188 0.62669754
7.3269486 -3.3642914 0.62978089
7.3377585 -3.3448141 0.62801135
7.3287063 -3.3429165 0.64356571
7.3472462 -3.323833 0.63415366
7.3465476 -3.3274219 0.63439029
7.3603439 -3.3123834 0.62601084
7.3644071 -3.2994103 0.62788516
7.3575568 -3.2982881 0.62859583
7.3753462 -3.2794042 0.63893729
7.3755269 -3.2610157 0.64239901
7.3819108 -3.2620823 0.62877327
7.3713632 -3.2570314 0.64440364
7.3790321 -3.2457113 0.63170391
7.2065678 -3.1434374 0.68440366
7.220243 -3.1438353 0.68672323
7.2141404 -3.1350727 0.69383395
7.2196445 -3.1268685 0.6836639
7.2270088 -3.1101217 0.68435597
7.2350698 -3.1001782 0.69366539
7.233458 -3.0946329 0.69109005
7.2352939 -3.0872681 0.69716865
7.2434897 -3.0750003 0.69801229
7.2473021 -3.0595994 0.69988388
7.2584004 -3.0455105 0.69665259
7.2656341 -3.0421464 0.68296385
7.2551732 -3.0292699 0.68797207
7.2718091 -3.0152607 0.69111282
7.2782607 -3.0182443 0.70092249
7.2853899 -2.9975104 0.69059157
7.4591656 -3.0558522 0.63916558
7.4531026 -3.0432906 0.64155883
7.473104 -3.046834 0.62611765
7.4739342 -3.0308518 0.63596952
7.4766216 -3.0280437 0.62979597
7.4760628 -3.0022604 0.63686669
7.481801 -2.9911826 0.62668794
7.6705899 -3.0590975 0.58383614
7.6645474 -3.0531301 0.58441317
7.6682997 -3.0442355 0.57558048
7.6817064 -3.0231037 0.57139122
7.680222 -3.0123103 0.56936049
7.6811161 -3.0057769 0.57337737
7.686554 -3.0026596 0.5829615
7.8805757 -3.0507414 0.52838242
7.8697591 -3.0536954 0.52571005
7.8859978 -3.0351138 0.52368277
7.8920422 -3.0299888 0.51470017
7.8917704 -3.0151792 0.52099174
7.8920598 -3.0008757 0.52547902
8.0828247 -3.0655639 0.46384266
8.0901566 -3.0475595 0.45883903
8.0954418 -3.0328746 0.469652
8.0847292 -3.0169499 0.47285947
8.1035833 -3.0099339 0.4669109
8.104394 -2.9980001 0.46702445
8.2824049 -3.0607278 0.41817912
8.2985773 -3.0347445 0.40001336
8.2857504 -3.0332527 0.40565521
8.2991991 -3.0156758 0.41459271
8.2971191 -3.0108459 0.41598308
8.3099365 -3.0029526 0.40410784
8.4981747 -3.0591671 0.35909137
8.4968605 -3.0449398 0.35526809
8.4987373 -3.0360782 0.34717306
8.494648 -3.010612 0.35971826
8.5106564 -3.0112128 0.34488633
8.5143538 -2.9999084 0.34448114
8.7008476 -3.0493078 0.29745477
8.6920757 -3.0256135 0.2929875
8.712225 -3.0282176 0.30177569
8.713748 -3.0022061 0.28687698
8.7233772 -2.9925826 0.28931814
8.9059448 -3.0508957 0.23759258
8.9033384 -3.0289612 0.23942885
8.9126196 -3.015343 0.23487577
8.9144287 -3.0099273 0.23786007
8.9213886 -3.0050089 0.24028125
9.1097765 -3.0398479 0.18850587
9.1059055 -3.0263605 0.18484312
9.1175499 -3.0169568 0.18643838
9.1179647 -3.010247 0.18190141
9.1234627 -2.9981058 0.17483832
9.3136568 -3.0488222 0.12311784
9.306469 -3.0263197 0.11746731
9.3210993 -3.0187702 0.13301438
9.3111582 -2.9936287 0.12155057
7.3040233 -4.9891601 0.47446871
7.3121881 -4.9740019 0.47653517
7.3142219 -4.9621668 0.47503343
7.3357978 -4.9494715 0.46495751
7.3415089 -4.9561801 0.47474515
7.3450284 -4.9346166 0.48201558
7.3405657 -4.9255195 0.46395308
7.3580546 -4.9140453 0.47511345
7.3685389 -4.9035106 0.47168106
7.3769135 -4.9025745 0.47225469
7.2104774 -4.7777896 0.53566641
7.2283802 -4.7784395 0.528898
7.2283359 -4.7640018 0.5237633
7.2267756 -4.754921 0.52111244
7.2351255 -4.7470474 0.52153242
7.2532487 -4.7225585 0.53328568
7.2586284 -4.7094226 0.52389616
7.2659316 -4.7056727 0.5357309
7.2643809 -4.6982999 0.52784115
7.2793837 -4.6893997 0.53061861
7.2749457 -4.6736598 0.52148783
7.2787585 -4.6666865 0.52164322
7.2957888 -4.6664138 0.52616245
7.3076701 -4.6543427 0.52967972
7.3168864 -4.6405497 0.53097832
7.3065085 -4.6352472 0.52666438
7.3278694 -4.6111641 0.52537596
7.3198271 -4.6063638 0.53771734
7.3236046 -4.5896854 0.5273025
7.3394785 -4.5845618 0.5356496
7.3381152 -4.5704188 0.52958906
7.3476071 -4.5589914 0.52034515
7.3572402 -4.5570493 0.52120852
7.3713779 -4.549726 0.52396804
7.369019 -4.5396724 0.53033674
7.2042193 -4.4257073 0.5869621
7.2186751 -4.4178295 0.58232152
7.2318292 -4.4044385 0.59227031
7.2373099 -4.3936992 0.58867753
7.2323623 -4.3735018 0.5799796
7.2357473 -4.3810687 0.57518679
7.253058 -4.36553 0.59157413
7.2611103 -4.3467317 0.5796482
7.2700119 -4.3401532 0.58478093
7.2616591 -4.342278 0.58969343
7.2796607 -4.3318076 0.57752663
7.2791266 -4.3130555 0.58317494
7.2939377 -4.3073106 0.59214306
7.2986836 -4.2822309 0.58177054
7.2998223 -4.2882318 0.58150721
7.3122492 -4.2769666 0.58358032
7.319869 -4.2544951 0.59108627
7.3238616 -4.2500615 0.58727694
7.3159142 -4.2428021 0.57992345
7.3330855 -4.2299581 0.58031404
7.3351545 -4.2251606 0.58103573
7.3450427 -4.2069306 0.5903616
7.3405652 -4.1999092 0.57527614
7.3450413 -4.1941476 0.57510537
7.3591304 -4.1732388 0.5787605
7.372942 -4.1658802 0.58349967
7.3688121 -4.1568646 0.58052057
7.3721743 -4.1498051 0.59177697
7.2041745 -4.0423417 0.63523281
7.2162137 -4.038147 0.64617103
7.2286291 -4.0177898 0.63168401
7.2217522 -4.0134363 0.64519542
7.2441869 -3.999438 0.63548875
7.2515221 -3.9868271 0.64129597
7.2386727 -3.9859762 0.63775635
7.249464 -3.9771485 0.63131136
7.2649808 -3.9582708 0.64360952
7.257504 -3.9618375 0.63268679
7.2612696 -3.9516578 0.64465314
7.2733297 -3.9350851 0.63075125
7.2763143 -3.9317288 0.64713639
7.2847977 -3.9208674 0.63779688
7.286778 -3.8931749 0.63236952
7.2990375 -3.8837371 0.62945902
7.2970901 -3.8727243 0.63729775
7.3115888 -3.8764818 0.64385468
7.3196282 -3.87027 0.63917184
7.319952 -3.8570685 0.64079744
7.3293386 -3.8456209 0.64247
7.330677 -3.8276179 0.63057488
7.3380995 -3.8121216 0.63188785
7.3418927 -3.8136189 0.63390636
7.3363323 -3.7985983 0.63345385
7.3453302 -3.7967665 0.63226813
7.3514032 -3.7823167 0.63191646
7.3653007 -3.7787881 0.6376211
7.3657403 -3.7526259 0.6393435
7.3814831 -3.7515318 0.64406592
7.3788371 -3.746429 0.63002717
7.206389 -3.6384017 0.69892174
7.2133703 -3.6354895 0.6979419
7.2216511 -3.6141188 0.68523347
7.231936 -3.6036291 0.69730669
7.2217541 -3.609448 0.70096534
7.2303729 -3.594486 0.68882018
7.2386255 -3.5909042 0.68994254
7.2525692 -3.5721457 0.68695867
7.2482204 -3.5628936 0.69479299
7.2485805 -3.5415223 0.69744724
7.2548876 -3.5463591 0.69088936
7.2749281 -3.5292993 0.69718564
7.2739749 -3.5290296 0.69478732
7.2802992 -3.5035319 0.69280618
7.2786822 -3.4932585 0.69492668
7.2807097 -3.4993954 0.70192277
7.2905779 -3.4822938 0.70240706
7.3015542 -3.4762495 0.69154918
7.3095326 -3.4595401 0.69983584
7.3053312 -3.447443 0.69937938
7.3037696 -3.4339972 0.68396473
7.3156357 -3.4254546 0.69548172
7.3137841 -3.4227955 0.697133
