# .PCD v0.7 - Point Cloud Data file format
VERSION 0.7
FIELDS x y z
SIZE 4 4 4
TYPE F F F
COUNT 1 1 1
WIDTH 1529
HEIGHT 1
VIEWPOINT 0 0 0 1 0 0 0
POINTS 1529
DATA ascii
-5.6761656 4.9355774 1.9418846
-5.6876936 4.9223061 1.9507757
-5.6942973 4.9173779 1.9405283
-5.7049437 4.9056602 1.9376938
-5.7044668 4.8954482 1.9459273
-5.7114429 4.8864779 1.9500962
-5.7341027 4.8765917 1.9423254
-5.7335749 4.8727832 1.9526618
-5.7318106 4.8692532 1.9415829
-5.7455564 4.853199 1.952431
-5.7491302 4.8451133 1.9505342
-5.7697425 4.8323503 1.9433242
-5.7614522 4.8398232 1.9391538
-5.7833982 4.8234787 1.9512423
-5.7881675 4.8144283 1.9411055
-5.7846923 4.8052082 1.9499941
-5.7970362 4.8001242 1.9370021
-5.7971401 4.7823515 1.9482164
-5.6537938 4.6475172 1.9719321
-5.6544423 4.6515117 1.9796208
-5.6642313 4.6386833 1.9672674
-5.6759062 4.6319818 1.9702036
-5.6747804 4.6202993 1.9686753
-5.6778135 4.6133876 1.978874
-5.6887469 4.6084123 1.9681035
-5.709806 4.5936069 1.9762034
-5.7019658 4.5931406 1.9673189
-5.7071061 4.5792422 1.9687711
-5.7210207 4.5822487 1.9691066
-5.7192159 4.5710807 1.9813505
-5.7297106 4.5565863 1.968689
-5.7325473 4.556869 1.977258
-5.7524371 4.5447187 1.9820851
-5.7538438 4.5359654 1.9679505
-5.7650404 4.522697 1.9767992
-5.7669964 4.5147772 1.9788108
-5.7608414 4.5210943 1.9683328
-5.7835593 4.5086565 1.9719423
-5.7848144 4.488678 1.9665527
-5.7857218 4.4968677 1.9779989
-5.7943745 4.4809151 1.9829631
-5.7956777 4.4684658 1.9762313
-5.8084002 4.4624567 1.9653798
-5.6588917 4.3411789 2.0018203
-5.6607313 4.3354115 2.005034
-5.6737108 4.3139844 2.0083842
-5.6646681 4.3049974 2.0061173
-5.6860924 4.2995663 1.9994866
-5.6838961 4.2991424 2.0009604
-5.687078 4.2840619 1.9987159
-5.6988029 4.2865686 2.0086191
-5.7055521 4.2740011 1.9941821
-5.7190223 4.2749281 2.0018539
-5.7233324 4.2541771 1.9965546
-5.7191978 4.2576137 1.9934036
-5.7318382 4.234086 1.9967492
-5.7411175 4.225606 1.9990399
-5.7326522 4.2216954 2.0038397
-5.7508063 4.2259641 1.996165
-5.7474756 4.2130222 2.0013671
-5.7663779 4.1943159 1.9970415
-5.7553663 4.1948099 2.0081222
-5.7787805 4.1877718 2.0081127
-5.7745109 4.1823506 1.9953427
-5.7755299 4.1669803 1.9940078
-5.7796884 4.1648741 1.9971524
-5.8004899 4.1593828 1.9998323
-5.7989898 4.1482391 2.0066254
-5.8126779 4.1448126 2.0057187
-5.8140297 4.1305766 1.9999105
-5.8101683 4.1232867 2.0034442
-5.8306212 4.1128464 1.9955283
-5.8199816 4.1048188 2.0086391
-5.8293405 4.0868754 2.0044012
-5.8314576 4.0937171 1.9928739
-5.8348985 4.0821929 2.0073295
-5.8551831 4.0756483 2.0043907
-5.8527765 4.0563745 1.9984131
-5.8635654 4.0491705 1.9971219
-5.8752499 4.0463624 2.009716
-5.8727307 4.0331516 2.0031497
-5.8866668 4.0252132 1.9942805
-5.8885069 4.0136275 2.0055287
-5.8972249 4.0183854 2.0069866
-5.8901691 4.0067163 2.0034478
-5.894629 3.9972856 1.9965537
-5.9046221 3.993238 2.011292
-5.9175425 3.9772534 1.9949412
-5.9164286 3.976125 1.9995797
-5.9165945 3.968946 2.0096107
-5.9241548 3.949908 1.9946396
-5.9382696 3.9425452 1.9999465
-5.9412427 3.9389412 2.0018919
-5.9529552 3.9322073 1.9968271
-5.9431987 3.9181054 2.0083332
-5.9569693 3.9051082 1.9986565
-5.9576221 3.9076715 1.9931878
-5.9635253 3.9028561 1.9999976
-5.9657674 3.8846846 1.99395
-5.9833593 3.871866 2.009002
-5.9909091 3.8769944 1.9933027
-5.9934177 3.8735032 1.9985344
-5.9906077 3.8525236 2.0084643
-6.0058408 3.8453035 1.9999695
-6.0061269 3.8333013 2.0056899
-6.0148954 3.8329775 2.0067379
-6.0133286 3.8174386 1.9986814
-6.0172191 3.8214226 1.9941493
-6.0342875 3.8085787 1.9997935
-6.0373921 3.8035457 2.0009739
-6.045433 3.7963543 1.9956455
-6.049161 3.7720335 1.9951962
-6.047646 3.7758904 2.0021448
-6.0561891 3.7698703 2.0102587
-6.053215 3.7489085 1.9947627
-6.0645089 3.7445111 2.0073431
-6.0747428 3.7470014 1.992792
-6.0730214 3.7309105 2.0106399
-6.0758204 3.7230487 2.0040665
-6.0729632 3.7173679 2.0008895
-6.0889134 3.7089205 1.9989587
-6.0901809 3.7020071 2.0011516
-6.0918851 3.6818593 1.995653
-6.1066289 3.678407 1.9925936
-6.1132474 3.6631556 1.997039
-6.1153493 3.6618254 2.0055606
-6.1248593 3.6554644 2.005054
-6.1289082 3.6360161 1.9969448
-6.1350975 3.6389487 2.0094693
-6.1278481 3.6299062 2.0048161
-6.1437635 3.6100688 2.0002253
-6.1415982 3.6141086 1.9972384
-6.157228 3.6015761 2.0026281
-6.1583438 3.5994198 1.9930973
-6.1625075 3.5757537 1.9968538
-6.1622138 3.5750818 2.0078261
-6.1733861 3.5699844 2.0009904
-6.1650534 3.5659106 2.0032666
-6.1848173 3.5407083 1.9970427
-6.1920452 3.5478039 2.0103502
-6.1839142 3.5240207 1.9924021
-6.2003613 3.5274279 2.007082
-6.1997838 3.5202179 1.9978247
-6.1938043 3.4968927 1.9950136
-6.2173433 3.4943926 1.9971458
-6.217114 3.4971631 2.0072224
-6.2258997 3.4737258 2.0008249
-6.2215095 3.4635744 1.9989837
-6.2348309 3.4585993 2.0005774
-6.234364 3.4513252 1.9979109
-6.2405772 3.4370987 2.0001121
-6.2447267 3.4313295 1.994378
-6.2541838 3.4310303 2.0100987
-6.2528863 3.421591 2.0111654
-6.2543874 3.4134808 1.9984105
-6.2537441 3.4104562 1.9971111
-6.2630119 3.3834896 2.0010664
-6.2786651 3.3857453 2.0035689
-6.2761474 3.3794994 2.0098016
-6.2720237 3.3585281 1.9974722
-6.290554 3.3561389 1.9996352
-6.286871 3.3543837 2.0047545
-6.2889099 3.3479424 1.9983068
-6.2952161 3.3275578 2.0111585
-6.3004427 3.3304188 2.0046458
-6.2984123 3.3186576 2.0038605
-6.3176684 3.3023508 2.0048673
-6.3129573 3.2951009 1.9968953
-6.3257318 3.2950668 2.0114491
-6.3322606 3.2838423 1.9938102
-6.3311067 3.2787607 2.0025671
-6.3277774 3.2620232 1.9983602
-6.3393164 3.2478957 1.9965101
-6.3372908 3.252099 2.0030801
-6.342401 3.2356999 2.0013218
-6.3540115 3.2259436 1.9966201
-6.366395 3.2215304 2.0044353
-6.3577595 3.2064159 1.9938309
-6.3570833 3.2031024 1.9920292
-6.3618407 3.1978228 2.0078459
-6.3842249 3.1782475 2.0074308
-6.3778396 3.1665397 1.9991338
-6.375649 3.1678188 2.0055718
-6.3952956 3.1556368 2.0050814
-6.38836 3.1428459 1.9970669
-6.4031701 3.1429329 2.0081768
-6.4026694 3.1351128 2.0037611
-6.414341 3.1203926 1.9931245
-6.4166045 3.1107998 2.0080743
-6.4206572 3.1008887 2.0066502
-6.4288807 3.0930204 1.9945633
-6.4175067 3.0759513 1.999687
-6.4344172 3.065475 1.9950142
-6.4248776 3.0597413 2.0070903
-6.4358153 3.04532 1.9953123
-6.4347548 3.0404534 1.9925642
-6.4425721 3.0404391 2.0109451
-6.4547925 3.0330927 2.003561
-6.4576368 3.0278099 1.9955454
-6.6451631 3.0861177 1.9785794
-6.6345725 3.0769243 1.9707247
-6.6360559 3.0833941 1.9747804
-6.6524029 3.05723 1.977345
-6.65341 3.0648704 1.9831671
-6.6623273 3.0458245 1.9835652
-6.6630101 3.0320783 1.9680996
-6.6664276 3.0347412 1.9816289
-6.6714516 3.0093977 1.9768268
-6.8645234 3.0864768 1.9477559
-6.8650336 3.0785451 1.9506973
-6.8544903 3.065496 1.9537286
-6.871788 3.0552428 1.9525189
-6.8650165 3.0529091 1.9544408
-6.8756671 3.0338221 1.9533044
-6.8804822 3.0300579 1.9424295
-6.8848858 3.0298386 1.9471214
-6.8847418 3.010416 1.9437953
-7.0727358 3.0889597 1.9164444
-7.0839472 3.0802548 1.9224447
-7.0762091 3.0553279 1.9101022
-7.085516 3.0452194 1.9143059
-7.0917773 3.0420747 1.9178574
-7.0992351 3.0299497 1.9086821
-7.1047564 3.0314088 1.9100326
-7.1114006 3.012274 1.9172378
-7.2914557 3.0896981 1.8858417
-7.3043618 3.0744517 1.8926603
-7.30058 3.0570734 1.8888706
-7.2961287 3.0527608 1.886272
-7.3056622 3.0404499 1.8886484
-7.3075242 3.0230823 1.8908242
-7.3251681 3.0236888 1.8797693
-7.5025377 3.0760267 1.8585025
-7.5058813 3.0718288 1.8566271
-7.5078597 3.0651813 1.8655486
-7.5226188 3.0452087 1.8650771
-7.520752 3.0366035 1.8595575
-7.5320525 3.0360394 1.8668637
-7.5271277 3.0241721 1.8600674
-7.5247869 3.0070019 1.8711764
-10.430738 1.0861371 1.51906
-10.421152 1.0738459 1.5338576
-10.4226 1.0716684 1.5162603
-10.437288 1.0504292 1.5249606
-10.433831 1.031479 1.5175148
-10.441432 1.0220227 1.520604
-10.429483 0.99867111 1.5256013
-10.443035 0.98824275 1.5205538
-10.44926 0.96694803 1.5341641
-10.442261 0.95218825 1.5211353
-10.444132 0.94633996 1.5238279
-10.442019 0.93157899 1.5288062
-10.445089 0.91685051 1.5261861
-10.445736 0.90889424 1.5169077
-10.457663 0.88583493 1.5232621
-10.457014 0.87659401 1.5347455
-10.453256 0.86070019 1.517464
-10.44448 0.85263377 1.5243434
-10.460732 0.839701 1.5245188
-10.463352 0.81510556 1.5245273
-10.458981 0.80995655 1.533282
-10.451897 0.78821701 1.5218724
-10.459814 0.76468462 1.5303323
-10.450332 0.76176208 1.5254362
-10.450107 0.74814975 1.5320823
-10.463507 0.73640186 1.5240911
-10.465403 0.7096076 1.5348113
-10.464561 0.69276434 1.5320718
-10.456818 0.68082458 1.531008
-10.46888 0.66739863 1.5199587
-10.460913 0.6594578 1.5183722
-10.46417 0.63969457 1.5296592
-10.458817 0.6330874 1.5320286
-10.464984 0.61701614 1.5260915
-10.476027 0.60220248 1.5211596
-10.460402 0.57500088 1.519099
-10.472749 0.56689459 1.5248647
-10.474355 0.56060237 1.5284088
-10.47868 0.54300356 1.5346363
-10.464048 0.51427358 1.5220624
-10.480445 0.51442093 1.5161734
-10.478409 0.49220037 1.5251482
-10.465064 0.47620231 1.5221441
-10.469331 0.47488669 1.5176982
-10.479513 0.44335741 1.5330693
-10.474607 0.42826065 1.5158705
-10.471742 0.42160529 1.5251983
-10.483089 0.41411144 1.5228679
-10.470874 0.38303959 1.5175737
-10.472409 0.36732602 1.5181856
-10.486498 0.35592157 1.533582
-10.486456 0.34723958 1.5213957
-10.477418 0.33256721 1.5278504
-10.471364 0.31427374 1.5276294
-10.489736 0.30642214 1.5305198
-10.472715 0.28408068 1.5329553
-10.472874 0.26518878 1.5233778
-10.483684 0.255512 1.5209496
-10.476804 0.23859453 1.5220938
-10.475198 0.24066393 1.5221691
-10.492959 0.20914632 1.5254855
-10.475304 0.19815272 1.5347661
-10.489814 0.196658 1.5240211
-10.477849 0.18165809 1.5296303
-10.486085 0.14870712 1.5220358
-10.491409 0.13317618 1.5267487
-10.494279 0.13786651 1.5272187
-10.486705 0.112106 1.5326618
-10.481538 0.093564279 1.5158376
-10.495207 0.076947182 1.5157334
-10.488781 0.062866621 1.5187627
-10.479017 0.046718925 1.5254499
-10.479953 0.036317911 1.5252943
-10.491612 0.018118313 1.5247909
-10.477642 0.011899145 1.5259892
-10.491247 0.00055091473 1.5263093
-10.480118 -0.013490979 1.5259728
-10.488498 -0.039804026 1.5345291
-10.491415 -0.040816303 1.5191972
-10.491136 -0.055383664 1.521902
-10.49094 -0.083430737 1.52518
-10.289675 -0.079724051 1.5549707
-10.279725 -0.098540634 1.561008
-10.28991 -0.1089848 1.5634998
-10.280579 -0.12544742 1.5544264
-10.29003 -0.15552288 1.5486591
-10.27914 -0.15449835 1.5635039
-10.288566 -0.18190373 1.5466896
-10.289416 -0.19229597 1.5635171
-10.285578 -0.20249924 1.560431
-10.279016 -0.21261773 1.5439516
-10.289154 -0.23962206 1.5439154
-10.27749 -0.256825 1.5594394
-10.279767 -0.26438218 1.5588959
-10.279532 -0.28279683 1.5562662
-10.288352 -0.29087076 1.557937
-10.282918 -0.30828381 1.5550083
-10.282619 -0.31537238 1.5590496
-10.279115 -0.34358016 1.5470738
-10.278763 -0.34823897 1.5592694
-10.281477 -0.36664408 1.5557209
-10.280651 -0.37551752 1.5595418
-10.27984 -0.39307502 1.5605333
-10.283486 -0.41327927 1.5483403
-10.287655 -0.41363856 1.5521051
-10.274434 -0.44322616 1.5621678
-10.279521 -0.44780943 1.5491885
-10.267518 -0.47254354 1.5634913
-10.271453 -0.47424269 1.5439563
-10.267344 -0.49607942 1.5541317
-10.271019 -0.50113964 1.5602707
-10.278222 -0.52590287 1.5519038
-10.281585 -0.53040522 1.5603468
-10.263936 -0.55912268 1.5629517
-10.278461 -0.57259876 1.5595628
-10.269199 -0.5734632 1.560951
-10.269856 -0.60004497 1.5521197
-10.263472 -0.61527288 1.5529172
-10.262765 -0.61510557 1.5463775
-10.261573 -0.63151884 1.5523622
-10.270185 -0.65231699 1.5476466
-10.272638 -0.66104859 1.5525268
-10.263438 -0.67389256 1.5472628
-10.265776 -0.6898576 1.5476382
-10.265489 -0.70113647 1.5488932
-10.268569 -0.72396439 1.5636387
-10.270243 -0.72827882 1.5461559
-10.260727 -0.74705875 1.5477977
-10.250393 -0.76600146 1.5439579
-10.26658 -0.78464192 1.5580549
-10.256762 -0.79280472 1.5457025
-10.251638 -0.80435091 1.5589658
-10.261616 -0.82764715 1.5537313
-10.256837 -0.83425063 1.5468765
-10.251662 -0.84155631 1.5630864
-10.245213 -0.87295306 1.5508102
-10.243998 -0.88705266 1.5485601
-11.226573 -0.97957796 1.4218363
19.170218 -4.9815311 0.2058605
19.181963 -4.9397764 0.20390862
19.192661 -4.9161224 0.20040038
19.195684 -4.8972111 0.210646
19.021336 -4.8099031 0.23272786
19.01927 -4.7798381 0.23385368
19.027452 -4.7588601 0.24146086
19.040951 -4.7448974 0.24270396
19.034817 -4.715652 0.24248761
19.046606 -4.6801372 0.23902562
19.058012 -4.649416 0.23923591
19.051031 -4.6338768 0.23443618
19.062063 -4.5945301 0.24651577
19.069548 -4.5790138 0.23072235
19.067242 -4.5527258 0.24669726
19.078974 -4.515213 0.24620175
19.091795 -4.4961925 0.24013947
19.092184 -4.4703102 0.24148627
19.093781 -4.4371605 0.24551535
19.115124 -4.4187846 0.23848662
19.112968 -4.3955283 0.2355978
19.110985 -4.3657408 0.24165739
19.124165 -4.3313737 0.24046434
19.129387 -4.3159356 0.22817872
19.138777 -4.2891808 0.23556371
19.144106 -4.2570338 0.23383473
19.148903 -4.238369 0.24449116
19.147598 -4.2055798 0.23438582
19.167604 -4.177422 0.23077737
19.171602 -4.1541133 0.23888341
19.168535 -4.1191154 0.24357541
19.182541 -4.092217 0.23137623
19.182568 -4.0782194 0.24685681
19.201365 -4.045042 0.23107986
19.18784 -4.0084786 0.23535374
19.201662 -3.9925547 0.24506202
19.019794 -3.9176404 0.27472073
19.022413 -3.8903189 0.26243314
19.034889 -3.8688478 0.27156565
19.02372 -3.8491981 0.25726148
19.040621 -3.8183985 0.27120203
19.042175 -3.7993379 0.26527888
19.051493 -3.7659569 0.26658398
19.056255 -3.7394485 0.27428877
19.065203 -3.7120981 0.27177131
19.058388 -3.6765213 0.25838464
19.061243 -3.6544468 0.2729862
19.065714 -3.6352184 0.26837113
19.077858 -3.6089411 0.25868148
19.0791 -3.5792239 0.26208827
19.086 -3.5579603 0.26973388
19.086803 -3.5204589 0.26987177
19.101646 -3.4989185 0.25681511
19.097755 -3.4778588 0.26368389
19.101534 -3.4530568 0.27131259
19.102758 -3.4202387 0.26792064
19.110558 -3.3896961 0.25999844
19.112921 -3.359777 0.26469293
19.130632 -3.3427691 0.26904559
19.138618 -3.3095398 0.25648952
19.129972 -3.2743938 0.25856385
19.148935 -3.2633901 0.27149969
19.147999 -3.2224519 0.25932902
19.153967 -3.2102745 0.26156431
19.146769 -3.179153 0.26194116
19.16716 -3.1516047 0.26846904
19.164124 -3.1210165 0.25886562
19.173126 -3.092787 0.27250081
19.166786 -3.0715313 0.25645676
19.184761 -3.0469389 0.26694825
19.170145 -3.0156033 0.26588586
19.373213 -3.020483 0.24111404
19.393574 -2.9999585 0.23857403
19.577461 -2.9880219 0.21348567
19.783628 -3.0071998 0.17279342
19.990217 -3.0098636 0.1529177
20.183378 -2.9994047 0.11689225
20.386978 -3.0037456 0.10235234
-5.6594701 4.9673862 2.0073819
-5.6620865 4.9591918 2.0079064
-5.672946 4.950747 2.006058
-5.6714587 4.939539 2.0104578
-5.6923876 4.946126 1.9978185
-5.7002258 4.924026 1.9990159
-5.6927195 4.9288955 1.9908226
-5.6959791 4.9150095 1.9995903
-5.7190237 4.9177351 2.0089335
-5.7178597 4.8991251 2.0061071
-5.7222438 4.8990064 1.9913832
-5.7324457 4.8831849 1.9963826
-5.7421117 4.8834062 2.0008643
-5.7536154 4.872005 2.002075
-5.7607079 4.8665557 1.9978197
-5.7604284 4.8601365 1.9994208
-5.7589402 4.8480816 1.993857
-5.7656341 4.8396139 2.0023825
-5.7835493 4.8349371 2.0016186
-5.7921095 4.8182483 2.0102391
-5.8034854 4.8039894 2.0067453
-5.8095737 4.8063302 1.9954439
-5.8106508 4.7857962 1.9923863
-5.8072352 4.7805381 2.0059605
-5.8225975 4.7749562 2.0021274
-5.8222036 4.7764111 1.9999266
-5.8401976 4.7660999 1.993732
-5.8437438 4.7558303 2.0071397
-5.8387527 4.7543683 2.0039506
-5.8545146 4.7310591 1.9921619
-5.8616447 4.7230744 1.9942127
-5.8722568 4.715692 2.0067124
-5.8741589 4.7139101 2.0067954
-5.879107 4.7022114 2.0097468
-5.8904696 4.7018061 1.9952524
-5.885654 4.6884384 2.0103579
-5.9030271 4.6837106 2.0033069
-5.9065838 4.6820579 1.9941497
-5.9167213 4.6720061 1.9917039
-5.9100361 4.6527915 1.9941306
-5.9351282 4.6530347 1.9967645
-5.938158 4.6492414 2.0002165
-5.9286761 4.6301112 2.0100968
-5.9390998 4.6325855 1.996497
-5.9465604 4.610239 2.01072
-5.948504 4.5992384 1.9998128
-5.9553304 4.597383 1.9924241
-5.9691963 4.5984778 1.9916382
-5.9722075 4.5759315 2.0090652
-5.977653 4.5665541 1.9955515
-5.98066 4.5585575 2.0105634
-6.0010214 4.5539918 2.0100741
-5.9979191 4.5453577 1.9987553
-6.0049248 4.5327377 1.9982206
-6.0055189 4.539083 2.0036581
-6.011878 4.5299001 2.006423
-6.0291324 4.5202932 1.995669
-6.0337634 4.5032125 1.994356
-6.0391693 4.4895 1.9988512
-6.0471358 4.4967103 2.0023324
-6.0486045 4.4872704 2.0061893
-6.0550494 4.4638133 1.9938623
-6.0619717 4.4697919 2.001291
-6.0802011 4.4550862 2.004499
-6.0789533 4.4460964 2.0024602
-6.0922561 4.4370451 1.9996548
-6.0827823 4.437026 1.9956684
-6.1040502 4.4186502 2.0030353
-6.1066194 4.4211311 2.0051329
-6.1046815 4.4018965 2.0028927
-6.1192508 4.3874321 1.9996725
-6.1299505 4.3927503 2.0014648
-6.132966 4.3773618 1.9977134
-6.1285405 4.3699474 2.0077431
-6.1408954 4.3699727 1.997278
-6.1352768 4.3428755 2.0062659
-6.1524515 4.3514199 2.003747
-6.1536007 4.3448529 1.9913734
-6.1673708 4.3218608 2.0100105
-6.1790314 4.3269391 1.9979513
-6.1729202 4.3035693 1.9999747
-6.1900172 4.2956076 1.9958718
-6.1853099 4.2907276 2.0049443
-6.1843414 4.2763577 1.9951748
-6.1933317 4.2757063 1.9940118
-6.2127748 4.2667341 1.9943409
-6.203218 4.2666359 1.9918125
-6.2161674 4.2514253 1.9913235
-6.2214789 4.2484694 1.9964572
-6.2281408 4.2398658 1.9952925
-6.22685 4.2233744 1.9993894
-6.2435231 4.2157745 2.0041649
-6.2442875 4.1988592 1.9927087
-6.2559671 4.1888762 1.9955394
-6.2574039 4.1958561 2.0063837
-6.2599916 4.1693335 1.9969289
-6.262238 4.1782961 1.9960577
-6.2670002 4.1602249 2.008666
-6.2722397 4.1427469 2.0070167
-6.2923326 4.1444988 2.0054703
-6.2935781 4.1334214 1.9961469
-6.2907147 4.1315389 2.0079467
-6.3030634 4.114747 1.9915622
-6.3068562 4.1121192 1.9939343
-6.3078055 4.0938859 1.9920336
-6.3178988 4.0988841 1.9923657
-6.3174338 4.0874424 2.0104239
-6.3378282 4.077033 1.9991831
-6.3456016 4.0671668 1.9992441
-6.335012 4.0629773 2.009845
-6.3459563 4.0433002 1.9981648
-6.3462119 4.0322318 1.9934057
-6.3546553 4.0345483 2.0006671
-6.3594704 4.0187931 1.9941211
-6.3819013 4.0077968 1.9981697
-6.3862205 3.9924042 1.9960524
-6.3901949 4.00316 1.9913375
-6.3960986 3.9791939 2.0050654
-6.3932309 3.9731133 1.9977869
-6.3902893 3.9632692 1.9951867
-6.3967347 3.9481153 2.0017848
-6.4148479 3.9583282 2.0061984
-6.4177074 3.9457076 2.0018198
-6.4132929 3.9338694 2.0105853
-6.4354119 3.9251852 1.9972618
-6.4334702 3.9177547 1.9974604
-6.4336329 3.9119098 1.9973376
-6.4384975 3.8857088 2.0021789
-6.4496222 3.8879108 2.0098777
-6.4480128 3.878577 1.9966786
-6.4689908 3.8683083 1.997279
-6.4633584 3.8654242 1.9970536
-6.473299 3.845166 1.9931766
-6.4676061 3.834795 2.006438
-6.473135 3.8277652 1.9999995
-6.4919748 3.8281252 1.9951223
-6.4906034 3.8137577 1.9933999
-6.4893417 3.799948 1.9944834
-6.5032268 3.8004236 2.0067837
-6.5093999 3.7879064 1.9987725
-6.5087595 3.7797961 2.0095222
-6.5275059 3.7626908 2.0064251
-6.5264649 3.7610042 1.9921148
-6.5292883 3.7503579 1.9964858
-6.5388374 3.7395172 2.0028868
-6.5348125 3.7351587 1.9987148
-6.5356517 3.7174809 2.0092502
-6.5582008 3.7063608 1.9950576
-6.5596538 3.70664 2.0104303
-6.5687933 3.6860175 2.0023825
-6.5659313 3.6912937 1.9953285
-6.5723066 3.6830695 2.0002809
-6.5817666 3.6611192 1.9926655
-6.5855236 3.661566 2.00353
-6.584897 3.6576715 1.9926872
-6.5978565 3.6429965 2.0066266
-6.5949755 3.6326647 1.9920361
-6.6015458 3.624953 1.9954807
-6.6022959 3.6209452 2.0083671
-6.6076603 3.592942 2.0098004
-6.6210599 3.5929315 2.0056868
-6.6215 3.5916638 2.0025332
-6.6169753 3.5660422 2.0066202
-6.6400528 3.5617559 2.0003524
-6.6322532 3.5631759 1.9993951
-6.635283 3.5567033 1.9929756
-6.6443605 3.5381665 2.0054436
-6.648016 3.5381002 1.9994266
-6.6482134 3.5223122 1.9986355
-6.6555119 3.5061753 1.9990817
-6.6613636 3.5016415 2.0087652
-6.6713161 3.4816573 2.0064356
-6.6844091 3.4911747 2.007746
-6.6734023 3.4625783 1.9940386
-6.6886501 3.4667327 1.9910266
-6.6848421 3.4527953 1.9908247
-6.6874404 3.4347055 2.001375
-6.6975579 3.4378724 2.0011554
-6.7136793 3.425741 1.9944507
-6.7105784 3.4111974 2.0009189
-6.7070184 3.4156752 1.9921702
-6.7137618 3.3950608 1.9927607
-6.7228217 3.3862007 1.9921987
-6.7305584 3.3731816 1.9923774
-6.7319889 3.3697357 2.0060546
-6.7364182 3.3549063 1.9951447
-6.7410364 3.3422735 1.9955022
-6.7550912 3.3443053 2.0083907
-6.7493525 3.3349848 1.9985183
-6.7503057 3.3135209 2.0034797
-6.7647767 3.3203602 2.0023029
-6.7679834 3.3051856 2.009902
-6.770587 3.2856677 1.9980382
-6.7737389 3.2831171 2.0025589
-6.7766991 3.2838261 1.9930443
-6.7859683 3.2647831 1.998117
-6.7861347 3.2657859 1.9999802
-6.7859302 3.2373853 1.9933051
-6.7928238 3.239361 2.0067461
-6.8095765 3.2250087 2.0081658
-6.8013549 3.2207966 2.0058742
-6.8142967 3.2179761 1.9978635
-6.8196259 3.1971374 1.9997972
-6.8168058 3.1977189 2.0086489
-6.8294516 3.1798992 2.0076847
-6.8315988 3.1773553 1.9971588
-6.82866 3.1591775 1.9971235
-6.8438444 3.1457236 1.9981812
-6.8456907 3.1498818 2.010715
-6.8540826 3.1417799 1.9984032
-6.8410416 3.126379 1.9913921
-6.8502789 3.1225023 1.9910797
-6.8675132 3.0977495 1.999454
-6.8628001 3.100256 1.9979413
-6.8692222 3.074543 2.0081465
-6.8765955 3.0710959 2.0053518
-6.8744807 3.0549874 1.9939297
-6.8723884 3.0480804 1.9986098
-6.8892245 3.0437005 1.9970105
-6.8935132 3.0352879 1.9968776
-6.8901005 3.0242629 1.9909184
-6.8936853 3.0083337 2.0106633
-7.0794334 3.0783575 1.9686831
-7.0950394 3.0782785 1.965361
-7.0921445 3.0560701 1.9659246
-7.0990305 3.0507681 1.9726459
-7.1086974 3.0518465 1.9728692
-7.1097722 3.0392699 1.9758022
-7.106153 3.0340962 1.9839778
-7.1041198 3.0088594 1.9733694
-7.3049388 3.088079 1.9548117
-7.3090763 3.0708256 1.9565238
-7.3134551 3.0538735 1.9390379
-7.313241 3.0455971 1.9513791
-7.3163352 3.0444837 1.9514238
-7.318851 3.0407381 1.9560844
-7.3346314 3.0315661 1.9517472
-7.3301744 3.0055456 1.9447632
-7.52635 3.0821424 1.9159827
-7.5308599 3.0699294 1.9184654
-7.5259633 3.0638154 1.9132836
-7.5330515 3.0378416 1.9210569
-7.5384126 3.0317526 1.9220926
-7.541245 3.030127 1.9250722
-7.5517211 3.0096428 1.9171646
-10.435733 1.102895 1.5970404
-10.438807 1.0885037 1.5966858
-10.446199 1.0627657 1.6005547
-10.440555 1.048614 1.5964844
-10.437111 1.0342244 1.610713
-10.451165 1.0289881 1.6093458
-10.45038 1.0009063 1.5925286
-10.441802 0.99169123 1.6001524
-10.452168 0.98385692 1.5966864
-10.459533 0.96974468 1.6032777
-10.454785 0.94939917 1.6016374
-10.451438 0.927481 1.6001973
-10.448425 0.91965306 1.607613
-10.461523 0.89893144 1.5954726
-10.458671 0.88309413 1.6035403
-10.46157 0.87462395 1.6009715
-10.465815 0.86833906 1.6049225
-10.466857 0.85201275 1.5942622
-10.460256 0.82668078 1.6103731
-10.457099 0.81532282 1.6069793
-10.467331 0.81003135 1.5978492
-10.459183 0.78938556 1.6014122
-10.472454 0.77303088 1.6117601
-10.47829 0.76483631 1.5960011
-10.476245 0.74073154 1.5990213
-10.466112 0.73494518 1.6081895
-10.478528 0.70611012 1.6056926
-10.466971 0.69740915 1.601491
-10.466056 0.67646611 1.6065805
-10.469008 0.67981493 1.5949368
-10.475334 0.65404701 1.5926281
-10.47077 0.63752216 1.6043013
-10.482622 0.62880033 1.5942495
-10.484106 0.61529708 1.6106337
-10.481329 0.60487217 1.5975456
-10.475511 0.58559328 1.593305
-10.480504 0.57489151 1.5948644
-10.487973 0.55671811 1.6023594
-10.479624 0.54041266 1.6035492
-10.486165 0.52208626 1.6027271
-10.484328 0.51834494 1.6107775
-10.48478 0.50005871 1.5969449
-10.493539 0.47079057 1.6090333
-10.49233 0.46088845 1.6022629
-10.494715 0.45459342 1.5997127
-10.490168 0.43492565 1.5925303
-10.489841 0.43105343 1.6092936
-10.487933 0.40047985 1.6025321
-10.498511 0.39900342 1.5941151
-10.487879 0.37171364 1.6020225
-10.498048 0.3669669 1.6008404
-10.500146 0.34245443 1.5960248
-10.496057 0.3298496 1.5965948
-10.499858 0.31910044 1.6019173
-10.490409 0.3065913 1.5956002
-10.48349 0.29923409 1.6042719
-10.483733 0.27278817 1.6037285
-10.487193 0.26881295 1.6072695
-10.497393 0.25480351 1.6039929
-10.49599 0.2319497 1.6080861
-10.486658 0.21942942 1.6020929
-10.498489 0.20529315 1.606248
-10.495115 0.19570827 1.5924599
-10.49115 0.16276331 1.602585
-10.501842 0.15968771 1.5948637
-10.498831 0.1439314 1.5944486
-10.487127 0.12831192 1.6022514
-10.495947 0.10959265 1.6007437
-10.501205 0.10101224 1.5998913
-10.489719 0.094153732 1.6108507
-10.49412 0.076924495 1.6039555
-10.504494 0.048142407 1.5975904
-10.490691 0.042991918 1.596307
-10.292428 0.021747885 1.6233042
-10.302247 0.010599892 1.6353346
-10.299768 0.0026590447 1.6262761
-10.297684 -0.013403002 1.6362661
-10.307776 -0.03812962 1.6222048
-10.299357 -0.047979712 1.6342313
-10.29177 -0.06622985 1.6340679
-10.293203 -0.068786845 1.6313437
-10.301512 -0.081643991 1.6345061
-10.296165 -0.10064609 1.6271869
-10.292082 -0.11958117 1.6335876
-10.287539 -0.12832421 1.6232325
-10.290947 -0.15459645 1.6193285
-10.303392 -0.15881298 1.6337546
-10.305829 -0.17317083 1.6378462
-10.302306 -0.1991778 1.6264796
-10.286736 -0.19768615 1.6312547
-10.29131 -0.21773656 1.6278645
-10.298588 -0.22622409 1.6260086
-10.302683 -0.24951388 1.619542
-10.294078 -0.26888925 1.6285315
-10.299051 -0.28391159 1.6231687
-10.29436 -0.28255057 1.6259243
-10.293552 -0.31386456 1.6388538
-10.298299 -0.32786363 1.6318152
-10.298934 -0.33860904 1.6331593
-10.290915 -0.35407418 1.6303841
-10.298101 -0.35442254 1.6219474
-10.288657 -0.38237822 1.6194115
-10.281049 -0.39477873 1.6279736
-10.279887 -0.39894331 1.6315477
-10.289717 -0.42847118 1.6344862
-10.284888 -0.43371752 1.633172
-10.297284 -0.45858619 1.6349295
-10.296731 -0.46865106 1.637073
-10.283195 -0.47982052 1.6228555
-10.288297 -0.4834612 1.6275567
-10.276153 -0.51479793 1.6262925
-10.292425 -0.51722097 1.6314548
-10.291213 -0.5325861 1.6385983
-10.28142 -0.54735982 1.635958
-10.288032 -0.57255268 1.6381696
-10.271686 -0.57352746 1.6295141
-10.276632 -0.58752841 1.6303682
-10.279802 -0.60162622 1.6355348
-10.280809 -0.62285942 1.6239084
-10.276013 -0.62988389 1.6230167
-10.286496 -0.64547467 1.6251628
-10.278223 -0.65806854 1.6192594
-10.284767 -0.67020136 1.6323633
-10.264148 -0.69331104 1.6250648
-10.26615 -0.70382345 1.6269439
-10.265919 -0.71880001 1.6222173
-10.274323 -0.73955488 1.6378578
-10.261855 -0.74433047 1.6337674
-10.264199 -0.77098328 1.6228094
-10.258149 -0.77373075 1.6191914
-10.272972 -0.78787184 1.6343458
-10.265628 -0.81467068 1.6312681
-10.264168 -0.82896483 1.6304182
-10.269583 -0.84361082 1.6208178
-10.262277 -0.86124903 1.6350629
-10.253072 -0.85966766 1.6286879
-10.268573 -0.88752216 1.6359129
-11.235734 -0.99093759 1.499923
19.194256 -4.9863734 0.35382709
19.019962 -4.8959618 0.38815781
19.021347 -4.8830919 0.38595441
19.026608 -4.8387461 0.38718703
19.035444 -4.8125248 0.37796888
19.044559 -4.7901831 0.3862921
19.049877 -4.7580957 0.37542227
19.05788 -4.7490377 0.38426554
19.066471 -4.7062063 0.3876375
19.070133 -4.6850991 0.38939583
19.068308 -4.6696105 0.38978013
19.084501 -4.6434274 0.38418439
19.088428 -4.6026883 0.38492495
19.090115 -4.5834785 0.38346824
19.092999 -4.5621872 0.38168034
19.106625 -4.5184975 0.3756724
19.108538 -4.4961705 0.37518045
19.119543 -4.4724841 0.37716573
19.119356 -4.4468126 0.37539256
19.122503 -4.4240484 0.38812751
19.127371 -4.3896418 0.38974264
19.132586 -4.3655372 0.37092343
19.152166 -4.3439631 0.38621724
19.152452 -4.3071227 0.37408513
19.151243 -4.2937832 0.37660018
19.168209 -4.2531633 0.37615174
19.179129 -4.2369394 0.37136778
19.169519 -4.2159815 0.38359961
19.181858 -4.1814466 0.37482294
19.192387 -4.1499624 0.38212216
19.195614 -4.119771 0.37713113
19.200417 -4.090488 0.38953897
19.012476 -4.0264602 0.40336555
19.01362 -4.009716 0.40075138
19.022598 -3.9801919 0.40474558
19.034054 -3.9596765 0.40262043
19.025023 -3.9341776 0.40997142
19.031172 -3.9041872 0.41152424
19.049515 -3.8677199 0.40084785
19.059044 -3.846549 0.41488314
19.055836 -3.82794 0.41232938
19.067598 -3.7902772 0.41227004
19.071733 -3.7723801 0.40819296
19.063097 -3.7389553 0.41432652
19.071812 -3.7221344 0.40344232
19.084482 -3.6794026 0.40652415
19.09499 -3.6512086 0.40854779
19.092812 -3.6423361 0.41399708
19.09215 -3.6005538 0.40934122
19.100775 -3.5746377 0.39927614
19.103395 -3.5572891 0.40123272
19.103428 -3.5334992 0.41425705
19.123362 -3.49086 0.39857596
19.119183 -3.4821036 0.40971011
19.121099 -3.4498441 0.411048
19.132093 -3.4300876 0.40849328
19.126133 -3.3849592 0.40750104
19.142159 -3.3671079 0.40874255
19.143597 -3.334981 0.40512082
19.140343 -3.3192549 0.40076217
19.146984 -3.2858944 0.40709218
19.155546 -3.2574532 0.41054544
19.157095 -3.2339909 0.40996426
19.162926 -3.1995847 0.411459
19.179852 -3.1881008 0.39852583
19.17808 -3.1504235 0.39865515
19.173716 -3.123471 0.41721216
19.188322 -3.1052201 0.40691307
19.184132 -3.0702212 0.40202692
19.196281 -3.0431302 0.40614638
19.204037 -3.0140123 0.41689932
19.198084 -3.000911 0.40935996
19.411438 -3.0011637 0.37198448
19.604256 -2.9995427 0.36226928
19.798616 -3.0049138 0.33728564
20.000088 -2.995939 0.30322066
20.201731 -2.995173 0.26934329
20.401974 -3.0036077 0.2469461
20.611959 -3.0000017 0.21277094
20.797098 -3.0079763 0.19890384
21.006395 -3.0118904 0.16736571
21.206484 -3.0054138 0.14213406
21.399069 -3.0050929 0.12021071
-6.1544847 5.0134096 1.9959143
-6.1556039 5.0051689 2.0053883
-6.176652 4.9933648 1.9993864
-6.1697836 4.9752531 2.0016251
-6.1728024 4.9791069 2.0010028
-6.1956563 4.964571 1.997377
-6.2010617 4.9630375 2.0021503
-6.2037549 4.9416618 2.0140617
-6.2077465 4.9373479 2.0002606
-6.2132063 4.9315648 2.0127404
-6.2291684 4.9325066 2.0066693
-6.2357397 4.9192939 2.0009689
-6.2328248 4.9119859 2.0120852
-6.2358994 4.8984876 2.013721
-6.2567234 4.8888988 2.0078511
-6.2581573 4.8833728 1.9960951
-6.2632051 4.8793464 2.0114655
-6.2634668 4.859519 2.0141299
-6.2718053 4.8625803 2.0011594
-6.2939324 4.8470502 2.0110943
-6.2835679 4.8424144 2.0106695
-6.2992616 4.8180513 2.0057399
-6.3006434 4.8234348 2.0022199
-6.3108969 4.8125639 2.0139284
-6.3195024 4.8076763 2.0047846
-6.3339653 4.7881498 1.9988612
-6.3401718 4.790359 1.9976665
-6.3309956 4.7790775 2.0054097
-6.3391423 4.7662163 2.0049887
-6.3602476 4.7579741 1.9978215
-6.3514051 4.7468309 2.0148115
-6.3629756 4.746716 1.9962415
-6.3794627 4.7319288 2.011867
-6.379458 4.7135859 2.0054429
-6.387732 4.7133226 2.0029619
-6.3851371 4.7052693 2.0097947
-6.3884535 4.69767 2.0076866
-6.4129519 4.685895 2.0031555
-6.4096947 4.6726084 2.014631
-6.426846 4.6648407 2.006742
-6.4311519 4.6525259 1.9965966
-6.4384551 4.6552396 2.0152321
-6.4443159 4.6480517 2.0079854
-6.4345388 4.6274433 2.0113101
-6.4511733 4.6251216 2.0032949
-6.4502759 4.6119437 1.996159
-6.462533 4.6019859 2.0103655
-6.4768858 4.5940537 2.0017478
-6.4757571 4.5758901 2.0088038
-6.48314 4.5670743 1.997061
-6.4783993 4.5604391 2.0019815
-6.5037918 4.5529742 1.9986031
-6.5105357 4.5461102 1.9970332
-6.5045137 4.5354719 2.00386
-6.5151544 4.5346355 1.9973795
-6.5137973 4.5211205 2.0067444
-6.5195637 4.521759 2.0151839
-6.5311103 4.4944439 2.0047324
-6.5312624 4.4946427 2.0051675
-6.5443454 4.4938326 2.0058458
-6.5491586 4.4841232 2.0089567
-6.5490384 4.4753699 2.0136797
-6.5722837 4.466208 2.0006242
-6.5770864 4.4493904 2.0060253
-6.5750494 4.4482427 1.9996935
-6.5794802 4.4347486 2.0089588
-6.594533 4.421773 2.0079839
-6.6011333 4.4035225 2.0088232
-6.5981722 4.4113793 1.9990003
-6.6147633 4.3923993 1.9975144
-6.6106634 4.3748398 2.0154753
-6.6234398 4.3836212 2.0138474
-6.6314797 4.3753653 2.0122311
-6.6325626 4.3485017 2.0029793
-6.6282315 4.3498583 2.0017705
-6.650219 4.3329535 1.9962671
-6.6429286 4.3271527 2.0069962
-6.6565995 4.3208952 2.0086915
-6.6694188 4.30373 2.0074685
-6.6720476 4.2960916 1.9964994
-6.6761494 4.2986588 1.9972129
-6.6822772 4.2745423 1.9959588
-6.6900196 4.268465 1.995708
-6.6993656 4.2673712 1.9978616
-6.6979504 4.2566628 2.010648
-6.6977305 4.2500072 1.9958142
-6.7030015 4.2366705 2.0044727
-6.7175298 4.2356768 1.9961759
-6.73035 4.2078662 2.0000236
-6.72438 4.2034159 2.0055513
-6.7293658 4.2008395 2.0029731
-6.7336249 4.1780987 2.0056133
-6.7391253 4.1735644 2.0115194
-6.744863 4.1656213 2.0056839
-6.7484341 4.1650176 1.9984999
-6.7592058 4.1505437 2.0140285
-6.7647982 4.1366968 2.0055969
-6.7817183 4.1342063 2.0055566
-6.7869225 4.1247673 2.0070987
-6.7882652 4.1071563 2.0135918
-6.7840672 4.110405 2.006918
-6.8024344 4.0952263 2.0069203
-6.7981482 4.0803666 2.0118144
-6.8079419 4.0655746 1.9981992
-6.8035583 4.0730047 2.013422
-6.8263454 4.0554423 2.0036211
-6.8335905 4.0380545 2.0094314
-6.8292537 4.0294995 2.0022173
-6.8449445 4.0214806 2.0150383
-6.8390794 4.0178452 1.9997307
-6.8467078 4.0041208 1.9971617
-6.8609967 3.9977303 2.0089126
-6.8552699 3.981313 2.0153098
-6.8646359 3.9807756 1.9964292
-6.8676033 3.9702823 2.0145006
-6.8753347 3.9626491 2.0045395
-6.8728538 3.9534047 2.0067284
-6.8845487 3.9341176 2.009908
-6.8834443 3.9247475 2.014622
-6.8895059 3.9268363 2.0052617
-6.9108615 3.9068773 2.0117466
-6.914772 3.8981962 2.0014179
-6.906919 3.9007962 2.0042565
-6.9126549 3.8795707 1.9961503
-6.9172578 3.8809049 2.0071507
-6.9237761 3.8600216 2.0001261
-6.9402413 3.8471196 2.0134726
-6.9345045 3.8480096 1.9971554
-6.9455748 3.8354776 2.0010989
-6.9519172 3.8223443 1.99677
-6.9476066 3.8133023 2.0021281
-6.9567976 3.8057823 2.0084593
-6.9563031 3.7915359 2.0070517
-6.9729571 3.7769594 2.0140877
-6.9777036 3.7831731 2.0121346
-6.9914355 3.7682476 1.998982
-6.9921789 3.7622225 2.002619
-6.9995618 3.7472866 1.9968455
-7.0032487 3.7266195 2.0082462
-7.0029778 3.7249348 1.9962277
-7.0070229 3.7128725 2.0048885
-7.0056953 3.7169175 1.9957585
-7.0180235 3.7067413 2.0021181
-7.0317454 3.6851823 2.0036449
-7.0184174 3.6841342 2.0011365
-7.027029 3.6745977 2.0134609
-7.0287795 3.6495483 2.009526
-7.0468793 3.6423321 2.000428
-7.0507388 3.6366322 2.000443
-7.0631838 3.6363924 2.0085609
-7.0676336 3.6172833 2.0144112
-7.0634084 3.6046634 2.0141089
-7.0682998 3.6048636 2.0134392
-7.0668178 3.5964768 2.0010269
-7.0837951 3.5865386 1.9973903
-7.0832672 3.573096 2.0140479
-7.0904007 3.5629964 2.0154936
-7.1014557 3.5398769 1.9995682
-7.1015949 3.5379639 2.0077951
-7.1017051 3.5286582 2.0056412
-7.1136832 3.5199411 2.0142443
-7.1197972 3.500474 2.0001006
-7.1261997 3.5011265 1.9960376
-7.1132584 3.4882584 2.0134749
-7.1327152 3.4833963 2.0108683
-7.1357946 3.4640319 2.0047202
-7.1422024 3.4624896 1.9983804
-7.147151 3.4548345 1.9988362
-7.1480103 3.4319685 2.0073009
-7.1606293 3.4339068 1.9963886
-7.1553884 3.4287672 2.006695
-7.16153 3.4024003 2.0074768
-7.1618013 3.3945034 1.9988606
-7.166122 3.384407 2.0073321
-7.1729908 3.379699 2.0009046
-7.1824527 3.3767426 2.0050824
-7.1780486 3.3521953 1.9976943
-7.1799703 3.3475032 2.012634
-7.2014222 3.3467407 2.0146976
-7.1943951 3.3381348 2.0086961
-7.1982665 3.3195314 2.0075581
-7.2118173 3.2995341 2.0100629
-7.2045722 3.3039987 2.0146875
-7.2259293 3.2888625 1.9992388
-7.218801 3.2715628 2.0091119
-7.2180858 3.2694929 2.0060644
-7.2331786 3.2565048 2.0085127
-7.2356458 3.2462587 1.9963182
-7.2431588 3.2392106 2.013417
-7.2485943 3.2238247 2.0119722
-7.2400174 3.2091892 2.0019929
-7.252564 3.2056103 2.0020914
-7.2625914 3.1938701 1.9967363
-7.2679806 3.1853521 2.0063331
-7.2688036 3.1685281 2.0087245
-7.2797399 3.1769705 1.9991471
-7.2737093 3.1548572 2.0066886
-7.2852163 3.1547997 2.0140977
-7.2889032 3.1317382 2.0045784
-7.2954774 3.1277359 2.0097992
-7.2834821 3.1167915 2.0105171
-7.3014517 3.0977671 1.9977947
-7.2993088 3.0931675 2.0034771
-7.3025069 3.0876174 2.0107925
-7.3160934 3.0856681 2.0114412
-7.3072748 3.0571923 2.0106959
-7.3280191 3.0591433 1.9980068
-7.3212075 3.0539691 2.0154362
-7.326973 3.0294752 1.9999858
-7.3222432 3.0227602 2.0107212
-7.3322783 3.0123796 2.0007064
-7.5253363 3.0832112 1.976758
-7.5274515 3.0653827 1.9835255
-7.5238695 3.0486524 1.974955
-7.5329576 3.0426173 1.9746532
-7.5413823 3.0296688 1.9761001
-7.5505371 3.0202293 1.989728
-7.5523667 3.0218406 1.9884177
-10.453103 1.0921257 1.671545
-10.450254 1.0770948 1.6795157
-10.456651 1.0762291 1.6873596
-10.453041 1.0502464 1.6814375
-10.44825 1.0464242 1.6882091
-10.456671 1.030445 1.6887785
-10.453643 1.0096241 1.6738467
-10.450895 0.98461068 1.6765063
-10.466681 0.97465914 1.6802722
-10.468818 0.96708059 1.676201
-10.472245 0.95930421 1.6827583
-10.471213 0.93587983 1.6888902
-10.462192 0.92754275 1.6887641
-10.465305 0.90427822 1.6772647
-10.47432 0.8872472 1.6765548
-10.476543 0.88321704 1.6744792
-10.478176 0.8636173 1.6861987
-10.474721 0.84814632 1.6875221
-10.468586 0.83825105 1.6735135
-10.478664 0.82755929 1.6865478
-10.472793 0.79476082 1.6864288
-10.480344 0.78429335 1.6775106
-10.481743 0.76412755 1.6748822
-10.483248 0.76210731 1.6836178
-10.476232 0.75231069 1.6699528
-10.489904 0.72150928 1.6868898
-10.485633 0.71027249 1.6788608
-10.48962 0.70366859 1.6699963
-10.492265 0.68435711 1.6858735
-10.488897 0.67610413 1.6856978
-10.492476 0.65483832 1.6873639
-10.496151 0.64711714 1.6732042
-10.488726 0.61907244 1.673522
-10.483908 0.61057818 1.6864644
-10.490334 0.59013492 1.6842566
-10.490404 0.5770328 1.685895
-10.493517 0.5691964 1.6709458
-10.484638 0.55834508 1.684043
-10.484604 0.54580235 1.6724807
-10.488671 0.51755965 1.6873186
-10.492894 0.50665122 1.675545
-10.495431 0.49295819 1.6707059
-10.492106 0.4875623 1.6724792
-10.488444 0.46783516 1.6804162
-10.491818 0.44251245 1.6825694
-10.49738 0.43792921 1.6862808
-10.501284 0.43102244 1.6768175
-10.500115 0.41376314 1.6711656
-10.505829 0.39728689 1.6876346
-10.503085 0.37747097 1.6705257
-10.505482 0.35413963 1.677174
-10.499633 0.34895897 1.6847961
-10.498602 0.32776931 1.68169
-10.495777 0.31088856 1.6735252
-10.504995 0.31125924 1.6747073
-10.512039 0.28667343 1.6859765
-10.495351 0.27876964 1.6850102
-10.508106 0.25259858 1.6814564
-10.506493 0.24125759 1.6760992
-10.508389 0.2331844 1.6855996
-10.507375 0.22321682 1.6864429
-10.499692 0.19958135 1.6767802
-10.504366 0.17743899 1.6806036
-10.512125 0.17856298 1.6822225
-10.508029 0.15089044 1.6788888
-10.50273 0.13657455 1.6856468
-10.506142 0.11932682 1.6791787
-10.312092 0.10772634 1.7063273
-10.299979 0.10031339 1.7117046
-10.313205 0.091322377 1.7036881
-10.31691 0.063644379 1.7003839
-10.299751 0.063927814 1.7081245
-10.312235 0.039794751 1.7084032
-10.300875 0.02813909 1.7044868
-10.307877 0.020796174 1.7075793
-10.298191 -0.0010518763 1.7110374
-10.301728 -0.026135828 1.7119294
-10.311713 -0.035422061 1.6978607
-10.299639 -0.052464262 1.7107843
-10.302166 -0.062619634 1.7091222
-10.312691 -0.076387785 1.7141876
-10.306499 -0.092925459 1.7139422
-10.312547 -0.10189512 1.7039694
-10.298295 -0.11947338 1.6967466
-10.30794 -0.12404133 1.6965868
-10.314473 -0.13893265 1.7089847
-10.297527 -0.1573894 1.7107046
-10.299669 -0.18587956 1.6975439
-10.29586 -0.1823637 1.7017467
-10.299108 -0.20146444 1.7101996
-10.303996 -0.21119824 1.6992898
-10.3038 -0.23486932 1.7062476
-10.303828 -0.24473712 1.6986407
-10.31381 -0.26052287 1.7078604
-10.310994 -0.28614289 1.7069167
-10.308318 -0.29850471 1.7054859
-10.293224 -0.31415027 1.7000024
-10.296391 -0.31218743 1.7004324
-10.292697 -0.32668489 1.6987816
-10.30478 -0.34471908 1.7124329
-10.308391 -0.36795208 1.7107528
-10.302892 -0.37131837 1.6998038
-10.290414 -0.39506349 1.7133884
-10.305523 -0.40916014 1.7055885
-10.291392 -0.42083105 1.706569
-10.298185 -0.43023598 1.7095876
-10.30639 -0.44497696 1.71136
-10.300056 -0.46333408 1.709494
-10.293274 -0.47846809 1.7075286
-10.288121 -0.48617613 1.7019266
-10.289297 -0.4980053 1.7074882
-10.292134 -0.52486533 1.7040795
-10.285899 -0.5397985 1.711321
-10.286059 -0.55041158 1.6988604
-10.294 -0.56748497 1.7091224
-10.28094 -0.57196218 1.7043723
-10.284842 -0.58527404 1.6992732
-10.28695 -0.61290389 1.7102081
-10.290905 -0.61442178 1.700399
-10.296804 -0.63147855 1.6972711
-10.288286 -0.65042281 1.6967022
-10.294187 -0.67293453 1.7036605
-10.283475 -0.68996286 1.7100718
-10.285502 -0.68792301 1.700255
-10.27997 -0.71461505 1.7077489
-10.284156 -0.72905838 1.7051483
-10.273071 -0.72823435 1.7036178
-10.287066 -0.75037062 1.7088379
-10.270106 -0.7573331 1.7069193
-10.282935 -0.77108711 1.7023221
-10.278872 -0.79723471 1.7131577
-10.275357 -0.81021422 1.6958569
-10.264864 -0.83343422 1.695902
-10.267941 -0.83965331 1.7123599
-10.280813 -0.861332 1.6964973
-10.266171 -0.86820835 1.7005615
-10.274111 -0.8850323 1.6998185
-11.251821 -0.98396486 1.5857602
19.013557 -4.9612231 0.53006506
19.013073 -4.9302397 0.52956641
19.027954 -4.8962965 0.5172829
19.033634 -4.8799634 0.52638096
19.041977 -4.8542819 0.52661854
19.050327 -4.8328404 0.51499492
19.055098 -4.8054566 0.51604885
19.063969 -4.764636 0.52458107
19.076866 -4.7529798 0.53064215
19.068985 -4.712018 0.51918381
19.072554 -4.6965308 0.52609229
19.094976 -4.6684365 0.51744515
19.096863 -4.6323333 0.51619172
19.106428 -4.6173844 0.52471268
19.105057 -4.5808916 0.53234684
19.123882 -4.5628095 0.5148443
19.11105 -4.52668 0.51813835
19.119232 -4.5083661 0.51565623
19.13591 -4.4838033 0.5182246
19.138613 -4.4537354 0.51513964
19.149818 -4.4266739 0.52091736
19.147896 -4.403728 0.52815551
19.15729 -4.3653965 0.5248546
19.16539 -4.3439627 0.5298506
19.161976 -4.310329 0.52467865
19.186159 -4.2842579 0.53091919
19.172802 -4.2573724 0.52661043
19.182701 -4.2286196 0.53392804
19.190081 -4.209466 0.51911199
19.199991 -4.1938519 0.527659
19.01288 -4.1111345 0.54166287
19.025351 -4.098877 0.54678088
19.025023 -4.0633559 0.54349947
19.021355 -4.0458245 0.55491203
19.042648 -4.0177622 0.55321026
19.038731 -3.991534 0.55082327
19.041018 -3.9646435 0.5485568
19.058958 -3.9337959 0.54827029
19.064178 -3.901474 0.54035544
19.054546 -3.8851089 0.54126519
19.073425 -3.8477862 0.55599391
19.08116 -3.8237278 0.55644464
19.073977 -3.8056958 0.54587317
19.083475 -3.7769909 0.54628187
19.084347 -3.7526176 0.54819411
19.103481 -3.7177477 0.54976743
19.100191 -3.6861405 0.55165672
19.114597 -3.6621051 0.55781108
19.108681 -3.6383238 0.54969734
19.114811 -3.6096127 0.55135083
19.121813 -3.5874248 0.54372185
19.123507 -3.5628657 0.55353832
19.125616 -3.5308173 0.5547666
19.137114 -3.494561 0.55807179
19.148985 -3.4826844 0.55911529
19.142731 -3.4568892 0.54838639
19.158012 -3.4195626 0.54261494
19.155146 -3.392971 0.55422205
19.158396 -3.3774011 0.5429464
19.173494 -3.3407676 0.55371064
19.17021 -3.3221607 0.53998446
19.17926 -3.2868521 0.54413217
19.178089 -3.2543912 0.55363619
19.178108 -3.2353489 0.55269736
19.181395 -3.2093172 0.55692923
19.185688 -3.1743836 0.54024345
19.199215 -3.1489749 0.55416483
19.206932 -3.1312017 0.54795164
19.206221 -3.0949099 0.55057561
19.018291 -3.0367281 0.56820291
19.016949 -3.0182467 0.57258177
19.021843 -2.9953361 0.56551671
19.226883 -2.9888439 0.55904478
19.421474 -3.0063305 0.52484977
19.615173 -3.0044906 0.48991492
19.81315 -3.0022802 0.48313591
20.014486 -3.0104284 0.45498154
20.229786 -3.0147066 0.41781005
20.418917 -3.0035071 0.39013398
20.630713 -3.008106 0.38235217
20.815065 -3.0177388 0.34651691
21.023836 -3.0061312 0.32705149
21.22558 -3.0091357 0.29819575
21.425999 -2.9972482 0.27541775
21.617367 -2.9914072 0.25749069
21.818943 -3.007381 0.22423136
22.018883 -3.0018549 0.20472762
22.235809 -2.9809079 0.18229584
22.617373 -3.0170302 0.12675034
-6.9266024 4.9927258 2.001503
-6.9215078 4.9848104 1.9981155
-6.9257236 4.9774847 1.9922512
-6.9316859 4.970016 1.9872687
-6.9438114 4.9682441 1.9926349
-6.9511857 4.9621272 1.9829695
-6.9668226 4.9503245 1.9873362
-6.9656172 4.9303293 1.9843944
-6.9785533 4.9221182 1.9983963
-6.9865417 4.9112926 1.9876451
-6.9947634 4.9042144 1.9893779
-7.0027733 4.8891826 1.9928747
-6.9941573 4.876874 1.9987355
-7.0113921 4.8655281 1.9868267
-7.0135956 4.8689685 1.9828547
-7.0304193 4.851933 2.0024843
-7.0368948 4.8461447 2.0000396
-7.0389895 4.8284326 1.9873369
-7.0440125 4.8246422 1.9961704
-7.0550199 4.8197069 1.9839354
-7.0567646 4.8133807 1.9943883
-7.0567627 4.785861 1.9995856
-7.0732503 4.7937598 2.0022597
-7.0838628 4.7712135 1.9833831
-7.0863709 4.7732396 1.9977511
-7.0928373 4.7652035 1.9848973
-7.0996599 4.7374411 1.9960786
-7.1089134 4.7343178 1.9993808
-7.1108556 4.7328925 1.9887347
-7.123951 4.7071671 1.983005
-7.1292667 4.7063909 2.0008101
-7.1241159 4.6922956 2.0009656
-7.1337543 4.6883788 1.9988997
-7.1407042 4.6805015 1.9841766
-7.1465168 4.656754 2.0013773
-7.1579475 4.6531653 2.0004499
-7.1622181 4.6493645 2.0016763
-7.1752934 4.6429067 1.9897058
-7.1650529 4.6210899 1.9862452
-7.1854439 4.6127472 1.9870036
-7.1915507 4.6056433 1.9969389
-7.1998386 4.5902319 1.982742
-7.2079568 4.5917096 1.9946001
-7.1981268 4.572751 1.9885617
-7.2030058 4.5744796 1.9887662
-7.21067 4.5512629 1.9953809
-7.2192478 4.5502472 1.9882029
-7.2265844 4.542614 1.9845847
-7.2458782 4.5316658 1.9891758
-7.2486181 4.5067563 1.9954592
-7.2505856 4.5021558 1.9846833
-7.2626033 4.4956694 1.988549
-7.2688041 4.487452 1.9839547
-7.2631326 4.4754391 1.9904728
-7.2834854 4.4649067 1.9887992
-7.2836194 4.4530554 1.9939979
-7.2971244 4.4389582 1.9882787
-7.2977929 4.4438419 1.985033
-7.3020658 4.4157352 2.0009544
-7.3017335 4.4111781 2.0020905
-7.3151031 4.4109282 1.9887588
-7.3192344 4.384922 1.9990824
-7.3194857 4.3789616 1.9913396
-7.3243175 4.3649058 2.0017428
-7.3426161 4.3567157 1.9917814
-7.3425746 4.3545961 2.0001454
-7.3573198 4.3451614 1.9845976
-7.3577695 4.3412347 1.9841273
-7.3614511 4.3191962 1.9857528
-7.3691969 4.3036385 1.9930322
-7.375792 4.3008437 1.9902816
-7.3757043 4.3000369 1.9917529
-7.3852787 4.2850838 1.9975008
-7.3825817 4.2713895 1.9994379
-7.3894668 4.2654719 1.9834391
-7.4062991 4.2456589 1.9955829
-7.414753 4.2371478 1.9885632
-7.4187403 4.2342196 1.9878955
-7.423183 4.2136292 1.9954773
-7.4259858 4.211298 1.9977973
-7.4414949 4.1883616 1.987627
-7.4397402 4.1914887 1.986963
-7.4364996 4.1710024 2.0016665
-7.4474964 4.1591606 1.9930054
-7.4565415 4.1463661 1.9887649
-7.4615707 4.1426578 1.9950569
-7.474442 4.1363993 1.9831923
-7.474318 4.1320434 1.9987624
-7.4748473 4.1091194 1.984113
-7.4877801 4.1092525 1.9975113
-7.4983788 4.0997229 1.9983603
-7.4991326 4.0777798 1.9927316
-7.500536 4.0648942 1.9970204
-7.5072207 4.0668144 1.999879
-7.5225525 4.0454769 2.0003629
-7.52211 4.0448837 1.9875664
-7.5153608 4.0371785 1.9989471
-7.5204616 4.0153413 1.9964159
-7.5299778 4.0187044 2.0014124
-7.5341282 3.9948502 1.9970021
-7.5448661 3.9860981 1.9935303
-7.55474 3.9822779 1.9985911
-7.5502276 3.9627256 2.00125
-7.5614119 3.9621451 1.9963208
-7.5697227 3.951875 2.0005541
-7.5775352 3.9276748 1.9947016
-7.5781293 3.9158368 1.9916593
-7.5873275 3.904496 1.9973029
-7.5990424 3.9092228 1.9968408
-7.6057463 3.8953679 1.9830632
-7.5968451 3.8763292 1.9910799
-7.6114011 3.872956 1.9858308
-7.6208816 3.8596199 1.9915916
-7.607688 3.8406091 1.9873415
-7.6194091 3.8387825 1.983399
-7.6268816 3.8346243 1.9858415
-7.640192 3.8153377 1.9870389
-7.6365299 3.8123035 1.9874958
-7.6472092 3.8029904 1.9832876
-7.6583352 3.7923951 1.9958402
-10.467993 1.0971024 1.7633929
-10.461107 1.0877366 1.7547878
-10.45945 1.0742726 1.7634846
-10.472012 1.0593692 1.7638165
-10.468802 1.0380975 1.7529752
-10.469517 1.0146905 1.7486365
-10.467767 1.0032959 1.7556792
-10.4648 1.0008713 1.7503635
-10.461355 0.97306055 1.7464176
-10.482098 0.95940143 1.7625668
-10.470268 0.94611645 1.7531259
-10.47428 0.94122225 1.7489377
-10.466878 0.91946983 1.7659063
-10.470758 0.90661985 1.7625942
-10.474286 0.89842242 1.7526351
-10.488634 0.87093502 1.7538958
-10.487301 0.86660028 1.7583905
-10.478905 0.84661537 1.7550915
-10.475803 0.83143741 1.7586144
-10.476628 0.81685817 1.7631127
-10.481282 0.79543018 1.7489622
-10.495358 0.79129076 1.7645558
-10.493601 0.77583468 1.753037
-10.494854 0.7577588 1.7633098
-10.4994 0.73739505 1.760029
-10.493884 0.72390229 1.7639059
-10.487086 0.71294159 1.7580949
-10.495774 0.69155592 1.7469478
-10.487741 0.6944294 1.7552727
-10.496163 0.6776163 1.7636704
-10.500068 0.65726578 1.7652935
-10.498101 0.64393699 1.7574321
-10.500522 0.63344181 1.7487712
-10.49444 0.62274885 1.7566923
-10.498065 0.58854598 1.7589091
-10.504951 0.58087409 1.7622939
-10.507938 0.56099397 1.7493804
-10.496716 0.55340046 1.7497448
-10.496622 0.53479457 1.7476476
-10.508182 0.5286991 1.7634038
-10.511323 0.51961237 1.753477
-10.51282 0.49338394 1.7648902
