# .PCD v0.7 - Point Cloud Data file format
VERSION 0.7
FIELDS x y z
SIZE 4 4 4
TYPE F F F
COUNT 1 1 1
WIDTH 1500
HEIGHT 1
VIEWPOINT 0 0 0 1 0 0 0
POINTS 1500
DATA ascii
-0.062089682 -4.900682 1.2871366
-0.038254946 -4.8999987 1.2935369
-0.029737439 -4.9003496 1.289721
-0.026379149 -4.8955259 1.2904122
-0.024034802 -4.891521 1.2787139
-0.018149152 -4.8991323 1.2956632
-0.0086384881 -4.9029202 1.2964169
-0.00061539194 -4.8957253 1.2812533
-0.0048769936 -4.9035368 1.2850127
0.0028923503 -4.9046583 1.2898245
0.012024328 -4.9044142 1.2948393
0.029454151 -4.8871751 1.2806191
0.033284388 -4.8882585 1.2861209
0.0332986 -4.8928237 1.2965093
0.034003984 -4.901885 1.2909563
0.043011036 -4.891901 1.277836
0.048967343 -4.8992462 1.2809623
0.05567712 -4.9054089 1.2913086
0.067223318 -4.9026737 1.2938586
0.082528718 -4.8990097 1.2952927
0.082645833 -4.893054 1.2769672
0.087777533 -4.8965092 1.2958673
0.098688953 -4.9029741 1.2936611
0.11510196 -4.8962655 1.286857
0.12190316 -4.8956914 1.2909497
0.12315117 -4.892951 1.2849748
0.13127866 -4.8910942 1.2915933
0.14253232 -4.8893676 1.2919781
0.14413196 -4.902935 1.2950178
0.14828141 -4.8880367 1.2816318
0.15386462 -4.8998609 1.294102
0.16112204 -4.893393 1.2830081
0.16727933 -4.902853 1.2853305
0.17123006 -4.9027395 1.2942336
0.1883764 -4.9026637 1.2835728
0.18961504 -4.8881788 1.2955053
0.18487853 -4.892405 1.2891378
0.20676009 -4.8922162 1.2843305
0.20902619 -4.8972654 1.2857798
0.21433161 -4.8850036 1.281942
0.22625059 -4.8939962 1.2860848
0.23063928 -4.8825684 1.2964908
0.24393368 -4.8918209 1.2772224
0.23955008 -4.8839588 1.277844
0.24406911 -4.8857875 1.2783078
0.25792685 -4.8932133 1.2930138
0.26371664 -4.8922114 1.283241
0.26313844 -4.8961635 1.2933954
0.27775237 -4.8846846 1.2782286
0.27381516 -4.8947349 1.2950428
0.28603959 -4.8797002 1.2825737
0.30240625 -4.8871112 1.2812321
0.30917835 -4.888061 1.2903285
0.31668153 -4.8802271 1.2869673
0.32480559 -4.8947072 1.2814488
0.33339295 -4.8821611 1.288166
0.33668569 -4.8906574 1.295537
0.33020505 -4.8865628 1.2785984
0.35387814 -4.8746848 1.2927718
0.34238377 -4.8935742 1.2965182
0.36770287 -4.8870687 1.2949128
-3.640203 -3.29391 1.3284638
-3.6248522 -3.3023753 1.3159459
-3.6208408 -3.2978637 1.31932
-3.6133416 -3.3043416 1.3321391
-3.6176164 -3.3082438 1.3218879
-3.6232007 -3.3171859 1.3268784
-3.6089363 -3.3185518 1.3308064
-3.6029711 -3.3217518 1.3139472
-3.5899751 -3.3352103 1.3204484
-3.6042244 -3.3445127 1.3192014
-3.5822973 -3.3433726 1.3262256
-3.5816083 -3.3514874 1.3298727
-3.5734303 -3.360204 1.3231127
-3.5818713 -3.3660412 1.31495
-3.577486 -3.3607805 1.3279536
-3.563345 -3.3657382 1.3170772
-3.5642066 -3.3810728 1.3298905
-3.5611329 -3.3750904 1.3245528
-3.5549119 -3.3807673 1.3307993
-3.5421824 -3.3853557 1.3127795
-3.5506933 -3.3926864 1.3209294
-3.5321727 -3.4040046 1.3259876
-3.5299983 -3.3918278 1.3273456
-3.5345769 -3.4127824 1.3278763
-3.5273113 -3.4140491 1.3186711
-3.5270352 -3.4258792 1.329505
-3.5176289 -3.4232819 1.3299944
-3.5154021 -3.4223294 1.32145
-3.4985063 -3.4398808 1.3322058
-3.495357 -3.429435 1.3233433
-3.4902208 -3.4322391 1.332114
-3.4969277 -3.4412684 1.3145238
-3.47857 -3.4528761 1.3140607
-3.478847 -3.4538224 1.3175869
-3.4785869 -3.4522696 1.3247836
-3.467525 -3.455214 1.3250808
-3.4656224 -3.4735327 1.3128991
-3.4632237 -3.4744117 1.3265871
-3.4493625 -3.4831891 1.3276342
-3.4447389 -3.4936182 1.3240309
-3.4489708 -3.4837189 1.3225207
-3.4444253 -3.4853408 1.3168714
-3.4374635 -3.4934263 1.3244979
-3.430958 -3.5066173 1.3160552
-3.4209197 -3.5043831 1.3140354
-3.4236777 -3.5159285 1.3139342
-3.426132 -3.5104201 1.320371
-3.4207613 -3.5273683 1.3307785
-3.401696 -3.5353172 1.3172516
-3.4015768 -3.5235114 1.3181318
-3.4050543 -3.5408132 1.3137407
-3.3900354 -3.5384519 1.3125502
-3.3806591 -3.5540175 1.3280897
-3.3836498 -3.5479736 1.3152473
-3.3750765 -3.5567937 1.3294411
-3.3685164 -3.5532808 1.3168845
-3.362051 -3.5571382 1.3146247
-3.3691421 -3.5605474 1.3201982
-3.3658192 -3.5698202 1.3225971
-3.3560164 -3.5839097 1.3215696
-3.3453271 -3.5864191 1.3280009
-3.3390224 -3.5988586 1.3215474
-3.3339014 -3.5868776 1.324275
-3.3332345 -3.6028495 1.3177865
-3.3254037 -3.5952168 1.327211
-3.3233724 -3.6059997 1.3248743
-3.3138909 -3.6152992 1.3233993
-3.306663 -3.6166785 1.3232274
-3.3138554 -3.61973 1.3184878
-3.2986419 -3.6179807 1.3243568
-3.3044498 -3.6305504 1.3324075
-3.2838199 -3.64183 1.3127029
-3.2896369 -3.6330104 1.3296564
-3.2727201 -3.6485515 1.3153081
-3.2822852 -3.6412961 1.3132555
-3.2624195 -3.6570504 1.3250761
-3.264884 -3.6683707 1.3322462
-3.2688172 -3.657517 1.3226789
-3.2529161 -3.6589158 1.314695
-3.2417481 -3.6701682 1.3130881
-3.2447047 -3.6723015 1.3235322
-3.2396042 -3.6788845 1.3273102
-3.2342021 -3.6763706 1.3245143
-3.2318401 -3.6820326 1.3307767
-3.22382 -3.7023587 1.3288865
-3.2178464 -3.7079244 1.3158273
-3.2200456 -3.7010663 1.3160256
-2.5959301 -2.9881723 1.6561759
-2.5815132 -2.9987249 1.6549635
-2.5750749 -3.0032418 1.6470554
-2.5702386 -2.9958537 1.6415632
-2.5749533 -3.0085104 1.65403
-2.5758848 -3.0209157 1.6535455
-2.5596073 -3.0161169 1.6519268
-2.5570621 -3.0284619 1.6545025
-2.5564024 -3.0200033 1.656026
-2.5487967 -3.0189204 1.6489135
-2.5409877 -3.0380433 1.6441067
-2.5375509 -3.0269392 1.6523751
-2.5353215 -3.0335917 1.6397486
-2.5409951 -3.0396082 1.638126
-2.532156 -3.0345445 1.6474571
-2.5308452 -3.0546224 1.647987
-2.530014 -3.0426378 1.6569141
-2.5107963 -3.0523283 1.6370888
-2.5089982 -3.0655844 1.6493087
-2.5056717 -3.055465 1.6461922
-2.5094528 -3.0617716 1.6475277
-2.4980357 -3.0688818 1.6435361
-2.4983454 -3.0780075 1.6564548
-2.4912767 -3.0770569 1.6469139
-2.4858255 -3.0715222 1.645988
-2.4910386 -3.0889368 1.6485292
-2.4757168 -3.0897851 1.646594
-2.4714632 -3.0956855 1.6385013
-2.4670298 -3.0840626 1.6406798
-2.4703717 -3.0933928 1.656499
-2.4568255 -3.0907888 1.6495266
-2.4619389 -3.1010573 1.6389534
-2.4510391 -3.1159296 1.6427578
-2.4472156 -3.1080325 1.6510098
-2.4529283 -3.1189885 1.6482878
-2.4395623 -3.1194665 1.6516362
-2.4436502 -3.1289368 1.6376157
-2.4296684 -3.1184719 1.6411676
-2.4237747 -3.1278973 1.6398096
-2.4156976 -3.1249931 1.6525824
-2.4117966 -3.1328754 1.6514142
-2.4148633 -3.1302094 1.6434265
-2.2932656 -2.9909575 1.7089148
-2.2833014 -3.0020978 1.7208314
-2.2850804 -3.0033038 1.7052226
-2.2895772 -2.9955008 1.7125604
-2.270721 -2.9961481 1.7138466
-2.2658808 -3.0071807 1.70901
-2.2774844 -3.0166912 1.7181542
-2.2704413 -3.022501 1.713603
-2.2706213 -3.0087912 1.7045631
-2.2519648 -3.0225341 1.7215774
-2.2612917 -3.014303 1.7111964
-2.2500315 -3.020293 1.71289
-2.24685 -3.0322528 1.7165868
-2.2392731 -3.0329039 1.7112898
-2.2443538 -3.0388982 1.7085427
-2.2281442 -3.044256 1.7179545
-2.2367668 -3.0454254 1.7210413
-2.2162406 -3.0437641 1.721498
-2.2202616 -3.0465 1.7188382
-2.2133179 -3.0548007 1.7056034
-2.2093556 -3.0566545 1.7037617
-2.19577 -3.0514779 1.7190859
-2.2004864 -3.0673544 1.7056006
-2.2015016 -3.0598931 1.7146083
-2.1878099 -3.0617559 1.7207601
-2.1968608 -3.0716569 1.7046864
-2.1764956 -3.0744326 1.7105697
-2.1730392 -3.0809386 1.7212347
-2.169122 -3.0757263 1.7122784
-2.1678603 -3.0878353 1.7181296
-2.1598291 -3.0802517 1.70523
-2.1536355 -3.0833564 1.7206036
-2.1521132 -3.0954554 1.703191
-2.1440723 -3.0928524 1.7163246
-2.1470191 -3.1008441 1.7106738
-2.1438103 -3.1021779 1.7181947
-2.1366706 -3.1074417 1.7060068
-2.1436436 -3.1135485 1.7103734
-2.1399474 -3.1000421 1.7030069
-2.1252034 -3.1095822 1.7065799
-2.124604 -3.1154034 1.7207792
-2.1169 -3.1193473 1.7149104
-2.1138182 -3.12609 1.719973
-2.1081448 -3.1291168 1.7106631
-2.1093338 -3.1194198 1.7163798
-2.0961695 -3.130847 1.7037752
-2.09548 -3.1394725 1.7089131
-2.0869746 -3.1394126 1.7109443
-2.0940983 -3.1400027 1.709476
-2.0885844 -3.1501989 1.7214559
-2.0794935 -3.1441498 1.7105966
-2.0761991 -3.1547554 1.7187691
-1.9747233 -2.9886491 1.768074
-1.9724479 -2.999084 1.7724106
-1.9594784 -2.9950788 1.7694019
-1.9607884 -3.0022848 1.7779173
-1.954699 -2.9931805 1.7807527
-1.9434681 -2.9999545 1.786587
-1.9502021 -3.0182397 1.7747644
-1.9384005 -3.015403 1.7756727
-1.9346153 -3.0078709 1.7855507
-1.9216857 -3.0214443 1.7677379
-1.9205798 -3.0219924 1.7809472
-1.9150705 -3.024452 1.786479
-1.925221 -3.0181334 1.7787673
-1.9183764 -3.0173197 1.7865953
-1.9030128 -3.0346155 1.786267
-1.90481 -3.024883 1.7818986
-1.9007691 -3.0260909 1.7819728
-1.8885471 -3.0397072 1.7676058
-1.895413 -3.0337524 1.783487
-1.8923973 -3.0390859 1.768505
-1.8871907 -3.0475349 1.7756793
-1.8687711 -3.0547001 1.7830924
-1.864816 -3.0562446 1.7795166
-1.8685688 -3.0551777 1.7794411
-1.86449 -3.0629833 1.7847505
-1.860736 -3.0568266 1.7824671
-1.8613467 -3.070873 1.7816448
-1.8618796 -3.0569451 1.769869
-1.8567758 -3.0741348 1.7867049
-1.8357871 -3.0725639 1.7808584
-1.8297769 -3.070045 1.7692078
-1.8365887 -3.0733693 1.7730312
-1.8359839 -3.0770044 1.777943
-1.8189512 -3.0886626 1.7865491
-1.8219906 -3.0805154 1.7699707
-1.8197169 -3.0928912 1.7821641
-1.8197231 -3.0901585 1.7829202
-1.8005478 -3.0922432 1.7802076
-1.813145 -3.0935121 1.7829026
-1.8089027 -3.0980842 1.7697599
-1.7905035 -3.1009414 1.781721
-1.7837512 -3.0949092 1.7729372
-1.7931721 -3.0925748 1.7830913
-1.7776777 -3.0975139 1.7841548
-1.7735735 -3.1098018 1.7759265
-1.7660445 -3.1041293 1.7778776
-1.7663186 -3.1027799 1.7851105
-1.7658329 -3.1065755 1.7728016
-1.7680564 -3.1272922 1.7817609
-1.7475814 -3.128094 1.7686791
-1.7602458 -3.1148274 1.7752652
-1.7409456 -3.119143 1.7704022
-1.7504258 -3.1372175 1.7703865
-1.7297484 -3.1241391 1.7679384
-1.7280042 -3.1313014 1.7757031
-1.7344848 -3.1352832 1.7716347
-1.7190109 -3.1438909 1.7714044
-1.7163008 -3.136368 1.7698607
-1.7258962 -3.1354277 1.770077
-1.7065289 -3.1383748 1.7719616
-1.70024 -3.1383519 1.7695768
-1.7073617 -3.143398 1.7853345
-1.6993431 -3.1422968 1.7854695
-1.691337 -3.1448941 1.7811289
-1.6857755 -3.1501267 1.7720656
-1.6031468 -2.9994507 1.8463596
-1.5941154 -2.9843345 1.849568
-1.5853112 -2.9908981 1.8427202
-1.5780473 -2.9914503 1.8392279
-1.5905643 -2.9970319 1.8351977
-1.5811936 -3.0007246 1.8335931
-1.5742044 -2.9959421 1.8493392
-1.5714546 -3.0075479 1.8485771
-1.5685667 -3.0155573 1.847602
-1.5500162 -3.0024188 1.8437724
-1.560526 -3.0203671 1.8462189
-1.5416441 -3.0134714 1.846023
-1.539551 -3.0219615 1.8414989
-1.5443025 -3.0273807 1.8386521
-1.5325433 -3.0295134 1.8324476
-1.5248113 -3.0264747 1.8447685
-1.5386808 -3.0206494 1.8440837
-1.5168012 -3.0362802 1.8339994
-1.5156808 -3.0332313 1.8381058
-1.5155324 -3.0358438 1.8375452
-1.5192107 -3.033181 1.8412244
-1.5004395 -3.0358539 1.8339822
-1.5018613 -3.0406547 1.8404267
-1.5078044 -3.034431 1.8436224
-1.4965912 -3.0406747 1.8468505
-1.4915794 -3.0434165 1.8352762
-1.494244 -3.044261 1.8516802
-1.4775904 -3.0474615 1.8346007
-1.4710183 -3.0537806 1.8427112
-1.4803368 -3.0641932 1.8503444
-1.4702131 -3.0625291 1.84277
-1.4564072 -3.0663416 1.8346459
-1.4698406 -3.0558267 1.8438385
-1.4568268 -3.0555086 1.8413663
-1.4606142 -3.068234 1.8347559
-1.4411707 -3.0602074 1.8475033
-1.4532987 -3.0591078 1.8415
-1.44902 -3.0656202 1.8343838
-1.4418179 -3.0698287 1.8430302
-1.4265023 -3.067627 1.8433397
-1.4235508 -3.0795758 1.8473831
-1.4281709 -3.0819957 1.8496779
-1.4209124 -3.082129 1.8445452
-1.4044585 -3.0735312 1.8417827
-1.4104739 -3.0930064 1.8483404
-1.403097 -3.0773265 1.8449647
-1.40297 -3.0980661 1.8447225
-1.3888434 -3.0988212 1.8399957
-1.4018304 -3.0966709 1.8330823
-1.3861681 -3.1035051 1.8503865
-1.3901938 -3.0916903 1.8377516
-1.3701732 -3.0888011 1.8447007
-1.3678552 -3.1029615 1.8335142
-1.3706671 -3.104979 1.8329173
-1.3762388 -3.0973256 1.834831
-1.3552502 -3.1066117 1.834404
-1.3576345 -3.1000903 1.8352112
-1.3602586 -3.1037641 1.8372309
-1.3476065 -3.1047497 1.8433625
-1.3418653 -3.1144006 1.8446153
-1.3388174 -3.1124072 1.8396325
-1.3284016 -3.1147263 1.8394823
-1.3310342 -3.1190629 1.8471092
-1.3248507 -3.1305497 1.8346497
-1.3192613 -3.1319494 1.8317689
-1.3117558 -3.116704 1.8415209
-1.3046745 -3.1281896 1.8397076
-1.3167835 -3.1266479 1.8361275
-1.3068702 -3.136806 1.8334626
-1.3108228 -3.1255772 1.8430417
-1.2935201 -3.1356573 1.8365028
-1.3011975 -3.1396813 1.8495276
-1.2890226 -3.1307001 1.8400922
-1.2892183 -3.1399002 1.8410405
-1.2818711 -3.1478784 1.8424535
-1.277402 -3.1527212 1.84097
-1.2631785 -3.1548553 1.8498533
-1.2707658 -3.1534734 1.8421241
-1.2619307 -3.1465561 1.8460767
-1.255758 -3.1479719 1.8430918
-1.2600038 -3.1564674 1.8318546
-1.2507859 -3.1570261 1.8384147
-1.248541 -3.1497977 1.8357713
-1.2357289 -3.1671555 1.8457372
-1.241966 -3.1615591 1.849528
-1.2267877 -3.155889 1.850273
-1.2330905 -3.1603937 1.8506749
-1.2305076 -3.1568859 1.8342431
-1.2156516 -3.168946 1.8465071
-1.1489002 -2.9826849 1.9040331
-1.1333181 -3.0015368 1.9099243
-1.1289711 -2.9955819 1.8970169
-1.1380618 -2.9917948 1.9130917
-1.1297935 -2.9996114 1.9135563
-1.1315572 -2.9980831 1.901359
-1.1295279 -3.0057971 1.9165668
-1.1067513 -3.0042369 1.9089993
-1.1035707 -3.004519 1.9066625
-1.1168197 -3.0143728 1.9139822
-1.0978026 -3.0098455 1.9127195
-1.1061628 -3.013922 1.9142145
-1.0886295 -3.0178397 1.9032683
-1.0840015 -3.0150383 1.8977071
-1.0832967 -3.0081613 1.9059215
-1.0821248 -3.0072429 1.8972503
-1.0731484 -3.0084922 1.9024456
-1.068962 -3.0111639 1.9107755
-1.0723408 -3.0148566 1.9003921
-1.0580546 -3.0160019 1.9017177
-1.0564464 -3.022336 1.9091274
-1.0560989 -3.0212379 1.9140117
-1.0542544 -3.0268166 1.9165233
-1.0433538 -3.0319798 1.9033756
-1.0380124 -3.0206523 1.8986381
-1.0444546 -3.0323696 1.9163467
-1.0395659 -3.0393291 1.9143275
-1.02948 -3.0263228 1.911152
-1.0310621 -3.0409186 1.9057938
-1.0230255 -3.0454528 1.900794
-1.0136614 -3.0326061 1.9109582
-1.0168855 -3.0436409 1.9037125
-1.0152235 -3.0370624 1.9123741
-1.0110476 -3.0438166 1.8973528
-1.0000176 -3.0494647 1.9151332
-0.99372303 -3.0457926 1.9026647
-0.98971808 -3.041471 1.9046991
-0.98773032 -3.0513051 1.9011961
-0.98891598 -3.0469649 1.9045482
-0.97545809 -3.0588334 1.9048105
-0.96699798 -3.0455856 1.8993583
-0.96837169 -3.0598114 1.904304
-0.97698921 -3.0566266 1.8972551
-0.95694321 -3.0535192 1.9048728
-0.95191658 -3.0636377 1.9082572
-0.94910771 -3.051719 1.8967228
-0.95876545 -3.0600545 1.910913
-0.94638699 -3.0706639 1.896666
-0.9375096 -3.0667222 1.9081506
-0.94527835 -3.0535877 1.9091516
-0.93278283 -3.0562603 1.9047796
-0.92573774 -3.0645759 1.9075551
-0.93374503 -3.0657799 1.9148827
-0.92879951 -3.0712111 1.9066786
-0.91623443 -3.0758901 1.9097115
-0.9202832 -3.062037 1.9060124
-0.91586447 -3.0821204 1.9153211
-0.89725381 -3.0741057 1.9153577
-0.89288831 -3.0814958 1.9006674
-0.89703655 -3.0809388 1.9004369
-0.88018203 -3.0721724 1.8988531
-0.88769776 -3.0806487 1.910267
-0.87243617 -3.0814219 1.9017842
-0.86984533 -3.0815411 1.9091719
-0.87545681 -3.0733886 1.9131758
-0.87803364 -3.0935798 1.9123222
-0.86430782 -3.0936491 1.9126686
-0.86127168 -3.0794065 1.902307
-0.85819721 -3.085099 1.9058267
-0.84981132 -3.0792418 1.9111687
-0.8416543 -3.0808339 1.9065365
-0.83507949 -3.0942478 1.9146812
-0.83708906 -3.0967073 1.9033
-0.82757974 -3.1008854 1.913041
-0.83068103 -3.0949857 1.9121697
-0.82977682 -3.0959754 1.9123363
-0.82972467 -3.087554 1.9136567
-0.8093245 -3.1004121 1.9104369
-0.8192842 -3.0945137 1.9027358
-0.80572265 -3.1045489 1.9020969
-0.80681747 -3.1107481 1.9010648
-0.79254299 -3.0946951 1.9078119
-0.79012215 -3.1049764 1.9132862
-0.79908091 -3.1100743 1.9157636
-0.77829719 -3.1026013 1.9053154
-0.77838326 -3.0985537 1.9150461
-0.77830106 -3.0987844 1.9143612
-0.77689695 -3.102948 1.9019747
-0.7587111 -3.1014054 1.8966372
-0.76822495 -3.1106369 1.9024091
-0.75837612 -3.1053009 1.9031204
-0.74955797 -3.1100292 1.9010168
-0.75399125 -3.1166773 1.9097584
-0.75294864 -3.1166263 1.9145224
-0.74942714 -3.1201351 1.9078735
-0.73635244 -3.1080754 1.9063807
-0.73354548 -3.1202803 1.9057589
-0.73142195 -3.1154294 1.9020694
-0.72168356 -3.1167424 1.9010128
-0.71728128 -3.1319206 1.9118081
-0.70710558 -3.1216028 1.9090176
-0.71621728 -3.1268213 1.9025701
-0.70743108 -3.1208289 1.9105402
-0.70990187 -3.1181512 1.8996209
-0.70760727 -3.1363111 1.9062458
-0.69196022 -3.125756 1.905978
-0.69780463 -3.1367562 1.9145463
-0.68426955 -3.1299958 1.9090008
-0.67442244 -3.1378615 1.9031711
-0.68563074 -3.1256912 1.903186
-0.66604227 -3.1277125 1.9145354
-0.6692431 -3.1432145 1.901677
-0.65889001 -3.1343005 1.9158156
-0.66056544 -3.1322289 1.9136302
-0.65315902 -3.132236 1.9142776
-0.65912622 -3.1409702 1.9064659
-0.64536017 -3.1399248 1.9086344
-0.64302438 -3.1297214 1.8985373
-0.68429661 -3.319356 1.8366367
-0.67307484 -3.3193252 1.8327736
-0.6618368 -3.3240869 1.8478448
-0.65924799 -3.3364315 1.8483636
-0.64951628 -3.3228064 1.8387396
-0.64564472 -3.3352418 1.8321246
-0.6439572 -3.3246567 1.8464335
-0.64162111 -3.3244264 1.8329331
-0.68308681 -3.5205386 1.7764914
-0.66613197 -3.5130351 1.7760713
-0.65927291 -3.5131311 1.7722296
-0.64940774 -3.5266562 1.7693719
-0.66340429 -3.5135956 1.7826996
-0.64232832 -3.5225995 1.7846229
-0.64073235 -3.5265267 1.781105
-0.68293357 -3.7173014 1.7211738
-0.67731422 -3.7050304 1.7176538
-0.65738463 -3.7150819 1.7152785
-0.65095407 -3.7152672 1.7034189
-0.65605843 -3.723418 1.720014
-0.64158171 -3.7096312 1.7174575
-0.65094543 -3.7109022 1.7023137
-0.67552 -3.8974817 1.6562556
-0.6541509 -3.9015679 1.6470228
-0.65085715 -3.9089844 1.6547798
-0.65107989 -3.9093552 1.6387352
-0.6463272 -3.9092951 1.6559119
-0.6450932 -3.9144957 1.6439806
-0.67702514 -4.1051097 1.5878947
-0.66976291 -4.099411 1.5894923
-0.66590428 -4.1044288 1.5857985
-0.64460069 -4.1040058 1.581748
-0.63843977 -4.1009984 1.5784131
-0.66291833 -4.2889428 1.5270314
-0.6668793 -4.2922301 1.5140759
-0.66308188 -4.2812009 1.5216793
-0.65532792 -4.2908792 1.5102645
-0.65039593 -4.2847867 1.5145634
-0.66557693 -4.472362 1.4509021
-0.66349292 -4.4713755 1.4587868
-0.65980995 -4.4722571 1.4425874
-0.6398195 -4.4775629 1.447737
-0.64387822 -4.4824371 1.4568117
-0.65814698 -4.6752887 1.3808091
-0.65175283 -4.6708746 1.3873671
-0.65831292 -4.6686563 1.3858893
-0.6372683 -4.6646795 1.3956587
-0.65346748 -4.8691702 1.3275329
-0.65927458 -4.8592887 1.3247108
-0.6438362 -4.8735828 1.3238152
-0.64051181 -4.8704548 1.3229692
-0.6333856 -4.8735986 1.3177398
-0.62110847 -4.8670645 1.3285501
-0.61975557 -4.8741875 1.3146703
-0.6094985 -4.8614435 1.3261381
-0.61268204 -4.8617883 1.3207484
-0.59734231 -4.867619 1.320251
-0.59223199 -4.8703494 1.3235725
-0.59034073 -4.8656816 1.3177085
-0.57127047 -4.8723707 1.3184738
-0.57309473 -4.8825321 1.323281
-0.57576382 -4.8723655 1.3258489
-0.56366116 -4.8767214 1.3158461
-0.56074715 -4.8665247 1.3196056
-0.55171186 -4.8728724 1.3169849
-0.5312075 -4.8692069 1.3148855
-0.53609186 -4.8770061 1.3278127
-0.52147263 -4.8864999 1.3188565
-0.52353078 -4.8809094 1.3154061
-0.5114519 -4.8830562 1.3260949
-0.4986068 -4.873836 1.327441
-0.50095344 -4.874095 1.3197629
-0.50073111 -4.8890624 1.3285291
-0.49051076 -4.8879285 1.3282824
-0.47652987 -4.884572 1.3224683
-0.46516874 -4.887526 1.3210909
-0.45590606 -4.8821797 1.3126762
-0.45371532 -4.8890305 1.3155197
-0.4404799 -4.8847575 1.3246964
-0.45069394 -4.8952236 1.3124593
-0.43021828 -4.8796649 1.330166
-0.42839566 -4.8932729 1.3283274
-0.41425017 -4.8934808 1.332226
-0.41133767 -4.8902903 1.3179537
-0.40867117 -4.8999429 1.3277229
-0.41181791 -4.8850589 1.3152143
-0.3963412 -4.8877373 1.3287181
-0.38927838 -4.8950515 1.3160276
-0.37937135 -4.8959579 1.3282578
-0.38028681 -4.8939061 1.330659
-0.3734386 -4.8982077 1.3292475
-0.36888304 -4.887517 1.3148462
-0.34616521 -4.8895111 1.3208463
-0.3395482 -4.8954244 1.330636
-0.34720278 -4.9055037 1.3313633
-0.32508737 -4.9055634 1.3275549
-0.33548006 -4.8969798 1.3216388
-0.31236824 -4.8881688 1.3289698
-0.32194614 -4.896286 1.3159463
-0.29929334 -4.8921556 1.3255166
-0.29423863 -4.9080133 1.3313178
-0.29059494 -4.9061542 1.328333
-0.28135195 -4.9084153 1.3238673
-0.28610826 -4.8908987 1.3139921
-0.28107423 -4.907877 1.314532
-0.25531241 -4.9095807 1.3154972
-0.25335839 -4.9085178 1.3255209
-0.25731993 -4.9111857 1.3248214
-0.25395003 -4.910274 1.3164605
-0.24360314 -4.8935528 1.312677
-0.22368544 -4.8986206 1.3134723
-0.21796609 -4.9068894 1.3165543
-0.21523111 -4.9127603 1.3177929
-0.21696131 -4.9102335 1.3169562
-0.20856625 -4.9095182 1.3195399
-0.19963096 -4.9098883 1.3208092
-0.18973008 -4.8951516 1.3235207
-0.18980514 -4.9112244 1.3239342
-0.17057933 -4.9107757 1.3256199
-0.15971395 -4.9068289 1.3243775
-0.15263177 -4.9098134 1.3184085
-0.16475402 -4.913929 1.3245022
-0.15379384 -4.9021592 1.3250471
-0.14159477 -4.8989706 1.3284317
-0.13023213 -4.9142385 1.312834
-0.13628545 -4.9074221 1.3171597
-0.12106917 -4.8975568 1.3165057
-0.12314127 -4.914619 1.320053
-0.10479954 -4.8993082 1.3243138
-0.10477193 -4.8999853 1.3127764
-0.085986443 -4.9004331 1.3184997
-0.093169846 -4.899857 1.3203435
-0.074259296 -4.9151754 1.314183
-0.074803635 -4.9051485 1.3314277
-0.071963288 -4.910614 1.3136121
-0.064720429 -4.9089875 1.3228102
-0.05315185 -4.8990002 1.3220613
-0.04223717 -4.9179401 1.3244286
-0.047774974 -4.9053946 1.3222754
-0.0290519 -4.8996773 1.3196045
-0.021866126 -4.9020305 1.3166353
-0.0089570526 -4.9184232 1.3143818
-0.014204123 -4.9027624 1.3169408
-0.0056116255 -4.9145026 1.3296473
0.00022565929 -4.9102592 1.3169996
0.0082472963 -4.9056301 1.3260798
0.025467001 -4.9162898 1.3252397
0.021937843 -4.9028921 1.3255416
0.020775907 -4.9018893 1.3184623
0.037460782 -4.9090209 1.3171637
0.051474784 -4.9158249 1.3135655
0.042519391 -4.9165769 1.3136184
0.051310491 -4.9094338 1.3293667
0.062660463 -4.9005566 1.3133998
0.066716805 -4.9126992 1.3216915
0.078125358 -4.9036784 1.3146181
0.078614078 -4.9042954 1.3168813
0.098262407 -4.9152994 1.3125288
0.098212585 -4.9143229 1.3291562
0.11108325 -4.9035196 1.3186189
0.1026551 -4.90556 1.3212358
0.11062857 -4.9034133 1.3230487
0.1186547 -4.899333 1.3319433
0.14242893 -4.9107604 1.3296444
0.13023601 -4.9049883 1.3151224
0.14633459 -4.9146652 1.3295311
0.15535945 -4.9107108 1.323223
0.16664723 -4.9139643 1.3258016
0.17358233 -4.9041247 1.3292375
0.17714435 -4.9082713 1.3233483
0.19016883 -4.9077024 1.3152808
0.18580991 -4.9060159 1.3292123
0.20326354 -4.9031596 1.3270669
0.20961131 -4.9033852 1.3133273
0.21365994 -4.9026585 1.3251832
0.22318605 -4.9126892 1.3271762
0.2271205 -4.9005494 1.3129283
0.22474647 -4.9039769 1.3152214
0.24495059 -4.9073238 1.3271394
0.24859019 -4.8939629 1.3146865
0.24634017 -4.8944316 1.3225688
0.25602216 -4.9061122 1.3318937
0.25963515 -4.9071927 1.323822
0.2611022 -4.9087777 1.3152624
0.26882923 -4.893167 1.3271569
0.28841159 -4.8948822 1.3287392
0.2899864 -4.8995142 1.3221695
0.29731286 -4.8933721 1.3318714
0.30693182 -4.8938761 1.3179157
0.30846816 -4.8975911 1.3170009
0.31755105 -4.8904061 1.3152881
0.33451557 -4.9003882 1.321555
0.34080449 -4.8936067 1.3263928
0.33902103 -4.8922062 1.3292868
0.34867734 -4.8899269 1.3274236
0.3502275 -4.8949127 1.3234677
0.35335928 -4.9051704 1.3144925
8.0146017 2.9572139 0.14463857
-3.6339953 -3.5738618 1.2927692
-3.6294582 -3.5857074 1.2893136
-3.6192348 -3.5919261 1.2923497
-3.6249757 -3.5996187 1.2916517
-3.6162846 -3.6090832 1.2858925
-3.6076305 -3.6140251 1.2870586
-3.6184478 -3.6161323 1.293862
-3.6045773 -3.6084337 1.298696
-3.5910962 -3.6149931 1.2948047
-3.5892248 -3.6191585 1.3030124
-3.5870428 -3.6293964 1.3014894
-3.5741117 -3.6401098 1.2932116
-3.5846293 -3.6456187 1.3037993
-3.5721037 -3.6418948 1.2917712
-3.5602691 -3.6545136 1.2953488
-3.5541866 -3.6635184 1.2990472
-3.566931 -3.6683881 1.2856946
-3.5528653 -3.6644421 1.285089
-3.5539584 -3.6720762 1.3029659
-3.5389361 -3.6829078 1.301712
-3.5356991 -3.6766331 1.2952477
-3.5339782 -3.6825099 1.3030905
-3.5205283 -3.6839941 1.2904376
-3.5164838 -3.6980488 1.2865148
-3.5244603 -3.7053728 1.2949723
-3.5088525 -3.711725 1.2994168
-3.5095391 -3.715939 1.3039764
-3.503572 -3.7112119 1.29746
-3.4982033 -3.7127092 1.2882797
-3.4949508 -3.7243226 1.293231
-3.4929454 -3.737844 1.2894132
-3.4773979 -3.734797 1.3046674
-3.4740005 -3.743459 1.3033793
-3.4632492 -3.7532423 1.2929707
-3.456414 -3.7561748 1.3001653
-3.4611144 -3.7486794 1.2859279
-3.4613636 -3.7670572 1.2923892
-3.4570463 -3.7646611 1.288483
-3.439239 -3.7620966 1.2879779
-3.4306049 -3.7814867 1.3007504
-3.4370129 -3.7840853 1.3048849
-3.427232 -3.7763569 1.2969428
-3.4221904 -3.7904584 1.285208
-3.4184301 -3.7990429 1.2885514
-3.4050717 -3.8060334 1.2938168
-3.4045119 -3.8029721 1.2914246
-3.3981829 -3.8054142 1.2954944
-3.385386 -3.8088005 1.2867926
-3.3964887 -3.8196473 1.2854805
-3.3880897 -3.8271351 1.289596
-3.3869116 -3.8263121 1.2959231
-3.3815925 -3.8409963 1.2947817
-3.3642089 -3.8359337 1.304334
-3.3585536 -3.8324122 1.29009
-3.3495481 -3.8408406 1.2936361
-2.6080623 -2.9958742 1.6661441
-2.5973694 -3.0070076 1.6798486
-2.6026018 -3.010674 1.674925
-2.5965307 -3.0107796 1.6839056
-2.5917666 -3.0078292 1.6701419
-2.5828822 -3.0090504 1.6819373
-2.5876656 -3.0103087 1.6837769
-2.5735853 -3.0195465 1.6754
-2.5699475 -3.0284982 1.6752582
-2.560549 -3.0338204 1.671394
-2.5675991 -3.0302477 1.6790447
-2.5632634 -3.0401726 1.6792105
-2.5452182 -3.039525 1.6793524
-2.5520916 -3.0370069 1.6830257
-2.5499792 -3.05393 1.6732804
-2.5416257 -3.0461793 1.6859387
-2.541472 -3.0474274 1.6809578
-2.5394735 -3.058816 1.6703525
-2.525847 -3.0507922 1.6744028
-2.5323572 -3.0576005 1.6767324
-2.522727 -3.0556948 1.66623
-2.5254409 -3.0736938 1.6693923
-2.5079842 -3.0778935 1.6767858
-2.5103807 -3.0732172 1.6702752
-2.5090988 -3.0706842 1.6704131
-2.4975576 -3.0840583 1.6818676
-2.4933529 -3.0815442 1.6756338
-2.4941244 -3.0813022 1.6815654
-2.4854963 -3.0917091 1.6790687
-2.4728129 -3.092907 1.6733055
-2.4777951 -3.1087599 1.672984
-2.4732749 -3.1116168 1.6781934
-2.4655876 -3.1013126 1.6827271
-2.4705021 -3.1177046 1.6754551
-2.4619222 -3.11712 1.674228
-2.4531996 -3.1093042 1.6831324
-2.4530177 -3.1215985 1.6780509
-2.439065 -3.118984 1.6767052
-2.4391756 -3.1320658 1.6684403
-2.4417782 -3.1367939 1.6824595
-2.4301393 -3.1308382 1.6841013
-2.438817 -3.1447015 1.6663557
-2.3063424 -2.9851437 1.7458992
-2.3054771 -3.004765 1.7489867
-2.2918794 -3.0001602 1.7361102
-2.2995045 -3.0111918 1.734495
-2.2982204 -3.0064049 1.7440248
-2.2820134 -3.0120332 1.739602
-2.2871478 -3.0021455 1.7455244
-2.2805424 -3.0192382 1.7301396
-2.2799134 -3.0090744 1.7441252
-2.2776382 -3.0119758 1.747656
-2.2731042 -3.022733 1.7440693
-2.2525434 -3.0368121 1.7440958
-2.2488906 -3.0214853 1.7319558
-2.25811 -3.0379796 1.7320073
-2.24894 -3.0373905 1.7400625
-2.250236 -3.0447998 1.7457005
-2.2359505 -3.041553 1.7444315
-2.235738 -3.0359149 1.7492691
-2.2309058 -3.0538664 1.7474639
-2.2320838 -3.0537658 1.7459449
-2.2297268 -3.0533586 1.7368504
-2.2109518 -3.0566223 1.7368525
-2.212146 -3.0604699 1.7353512
-2.205476 -3.0577772 1.7405196
-2.1987503 -3.0701597 1.7494348
-2.2039649 -3.0680878 1.7340928
-2.2035372 -3.0759842 1.7451439
-2.1843743 -3.0679264 1.7449731
-2.1803694 -3.0792992 1.7299849
-2.1781654 -3.076117 1.7382255
-2.1774762 -3.0948491 1.7299956
-2.1858773 -3.079082 1.741618
-2.1742718 -3.0887892 1.7325034
-2.1641636 -3.0961111 1.7491857
-2.1688826 -3.1009955 1.7365836
-2.1646819 -3.0953879 1.7491457
-2.1558194 -3.1136501 1.7368977
-2.1559014 -3.1170506 1.7357879
-2.1561501 -3.1007526 1.7463795
-2.1513827 -3.1065605 1.7432215
-2.1383705 -3.1159937 1.7443937
-2.1335843 -3.1181469 1.7443892
-2.137171 -3.1130178 1.7377274
-2.1298685 -3.1221073 1.746788
-2.1258793 -3.1202476 1.734002
-2.1144884 -3.1385231 1.7298557
-2.1105309 -3.1322758 1.7304732
-2.0988173 -3.1304548 1.7307098
-2.1082096 -3.1332307 1.7302585
-2.1070061 -3.1355922 1.7470067
-2.0889564 -3.1492982 1.7373232
-1.9847634 -2.9846323 1.8120033
-1.9857585 -2.9857185 1.8112807
-1.9734116 -3.0038717 1.8044518
-1.9720001 -3.0024095 1.80246
-1.9633707 -2.9939339 1.8051636
-1.9588839 -3.0058832 1.7970796
-1.9537756 -3.0105052 1.7937752
-1.948427 -3.0089097 1.8106475
-1.9435258 -3.010505 1.808105
-1.9418726 -3.0184491 1.7947969
-1.9498992 -3.0115697 1.8111426
-1.9467629 -3.0298719 1.8091837
-1.9243455 -3.0200169 1.8118476
-1.928753 -3.032944 1.7987436
-1.9351487 -3.0214396 1.7968791
-1.918837 -3.02965 1.8058233
-1.9106055 -3.0369573 1.8128982
-1.9056747 -3.0431252 1.804315
-1.9038678 -3.0486047 1.7968771
-1.9045997 -3.0366483 1.8042297
-1.8986359 -3.0369389 1.8011904
-1.8963227 -3.0383177 1.8025718
-1.8959647 -3.0415072 1.7965252
-1.8929392 -3.0533364 1.8002625
-1.883014 -3.0557971 1.7982092
-1.8749496 -3.0661855 1.8106449
-1.8779372 -3.0525858 1.7984666
-1.8738463 -3.0583026 1.8028076
-1.8583349 -3.066463 1.8043504
-1.8702577 -3.0596099 1.8005251
-1.8548243 -3.0710514 1.7990788
-1.8624266 -3.0844417 1.7989172
-1.8486438 -3.0817397 1.7982236
-1.8409039 -3.0802817 1.8083525
-1.8494233 -3.0731714 1.7986662
-1.8399922 -3.0822735 1.8012311
-1.8381219 -3.0786436 1.8000294
-1.8284264 -3.0952072 1.7957387
-1.8143861 -3.1005468 1.8059092
-1.8187997 -3.1021011 1.8055484
-1.8070349 -3.0925169 1.796356
-1.8167127 -3.0948336 1.7963768
-1.8065487 -3.1076698 1.8016974
-1.7970748 -3.0970724 1.8110676
-1.7974684 -3.0993037 1.8101338
-1.7875447 -3.1164172 1.8026774
-1.7950526 -3.115977 1.8014245
-1.7837589 -3.1101618 1.8061756
-1.7767522 -3.1146302 1.8081484
-1.7795717 -3.1278398 1.8111225
-1.7627482 -3.1136155 1.8062303
-1.7751139 -3.1334038 1.8015646
-1.7674553 -3.1273661 1.8065999
-1.7544727 -3.1361961 1.8047638
-1.7521164 -3.129765 1.8032216
-1.7506905 -3.137759 1.8070849
-1.7367175 -3.1376131 1.7939013
-1.743994 -3.1305292 1.8090398
-1.7265159 -3.1407979 1.8022106
-1.7270616 -3.1382484 1.8046666
-1.7246299 -3.1432419 1.8038355
-1.727087 -3.1449709 1.8056986
-1.7142065 -3.1434143 1.7960758
-1.7162873 -3.1532514 1.8000932
-1.6097476 -2.9984291 1.876527
-1.6154329 -2.9931214 1.8639035
-1.6172516 -2.9982278 1.8738779
-1.6122507 -2.9950013 1.873382
-1.5921082 -2.9986908 1.865057
-1.5987917 -3.0073235 1.8617148
-1.5830162 -2.997925 1.8758063
-1.5880685 -3.015388 1.8705902
-1.5912547 -3.0043778 1.8693457
-1.5840605 -3.0198593 1.8606727
-1.5728459 -3.0036688 1.8625416
-1.5687157 -3.0173481 1.8719884
-1.5772057 -3.0170341 1.8585933
-1.5557183 -3.0159101 1.8706833
-1.5547237 -3.0188379 1.8613367
-1.5620511 -3.0326469 1.8656043
-1.5527176 -3.0348804 1.8615113
-1.5492895 -3.02637 1.8621906
-1.5510746 -3.0252528 1.8761092
-1.5341011 -3.041151 1.8567698
-1.5257975 -3.0300477 1.8758384
-1.5356221 -3.0390301 1.8634393
-1.5159969 -3.0407217 1.8735601
-1.5297638 -3.0451479 1.8670044
-1.5114377 -3.0528049 1.8597149
-1.5224552 -3.0520175 1.8608046
-1.5092021 -3.046128 1.8618425
-1.5000391 -3.0410447 1.8735671
-1.490194 -3.0419838 1.8685793
-1.4864271 -3.05019 1.8698575
-1.4819969 -3.0543361 1.8643974
-1.478495 -3.0525532 1.8721074
-1.4873893 -3.0553944 1.8602724
-1.4861599 -3.0562551 1.8661517
-1.4714833 -3.063045 1.8665086
-1.4640934 -3.0651109 1.8697816
-1.455611 -3.0781851 1.8610668
-1.4660876 -3.0663605 1.859552
-1.4648368 -3.0689578 1.8592089
-1.448571 -3.0720587 1.8727645
-1.4510241 -3.0750024 1.8642727
-1.4389344 -3.0787203 1.8596568
-1.4391319 -3.0756114 1.8742865
-1.4311615 -3.0755551 1.8701364
-1.4373091 -3.0851068 1.8612714
-1.4230969 -3.0915565 1.8724093
-1.425609 -3.0938141 1.8725362
-1.416833 -3.0908418 1.8665445
-1.409569 -3.090915 1.8600062
-1.4026455 -3.0990212 1.8724121
-1.4021636 -3.0938828 1.8639132
-1.4101706 -3.1009595 1.8737291
-1.4027908 -3.0925412 1.8686808
-1.4007787 -3.1004629 1.8657098
-1.3829137 -3.0988457 1.8752016
-1.3739113 -3.1073322 1.8602527
-1.373768 -3.1026499 1.865049
-1.3734951 -3.113513 1.8748143
-1.3792114 -3.1214368 1.866497
-1.3714632 -3.1067641 1.872058
-1.3713064 -3.1159396 1.864736
-1.359646 -3.1174548 1.8723099
-1.3581668 -3.1159256 1.8702685
-1.3417332 -3.1167226 1.8622656
-1.3482682 -3.1239955 1.8578343
-1.3453087 -3.1266096 1.8668647
-1.3372953 -3.1334269 1.8625196
-1.3244832 -3.1243203 1.8692474
-1.3219031 -3.1252818 1.8699816
-1.3276378 -3.1428497 1.8673123
-1.3078088 -3.1446178 1.8573854
-1.3152992 -3.1390853 1.8678551
-1.3152131 -3.1364362 1.8617594
-1.2971658 -3.1417186 1.8567665
-1.3071189 -3.1379037 1.8663939
-1.3015007 -3.1354997 1.8752944
-1.2868496 -3.1494553 1.859259
-1.296541 -3.1549747 1.8742052
-1.279502 -3.142292 1.8700588
-1.2817265 -3.159725 1.8702074
-1.2666177 -3.1617124 1.8704447
-1.2614331 -3.1555762 1.858065
-1.2657766 -3.1537426 1.8701789
-1.2562132 -3.1582527 1.8588487
-1.2516403 -3.15711 1.8731655
-1.2574375 -3.1547451 1.8717123
-1.2543317 -3.162128 1.8581234
-1.2472588 -3.1636038 1.8608289
-1.1758945 -2.9959319 1.9215456
-1.1582636 -2.9913068 1.9231098
-1.1604817 -2.9959822 1.9244817
-1.1624602 -2.9998846 1.933779
-1.1568162 -2.9925449 1.9266928
-1.139056 -3.0000584 1.9368732
-1.1526238 -3.0074184 1.9299669
-1.1318725 -3.0049973 1.9271898
-1.1325721 -3.0038943 1.9387881
-1.1268585 -3.000145 1.9306625
-1.1184371 -2.9988034 1.9354422
-1.1128179 -3.0040154 1.9264899
-1.1256323 -3.0156331 1.9344996
-1.1170726 -3.0134184 1.9202379
-1.1192135 -3.0097518 1.9349414
-1.1084383 -3.0125191 1.9237508
-1.1074805 -3.0130503 1.926814
-1.0934269 -3.0170288 1.9339062
-1.1021483 -3.0259075 1.9237033
-1.0792693 -3.0132756 1.9388458
-1.0845137 -3.0164278 1.93692
-1.0849762 -3.018168 1.9313666
-1.0743889 -3.0169322 1.9357738
-1.0757898 -3.0313485 1.9239682
-1.0714504 -3.0321198 1.9373959
-1.0724053 -3.0263321 1.9296172
-1.0645487 -3.0238049 1.9228621
-1.0536269 -3.0314448 1.9336774
-1.0556108 -3.0320287 1.937157
-1.0477955 -3.0339584 1.9348056
-1.0448358 -3.0453596 1.9308335
-1.0437995 -3.0414522 1.9266465
-1.0283148 -3.031189 1.9252145
-1.0284208 -3.0465598 1.9308797
-1.0203303 -3.0418267 1.9372814
-1.0188103 -3.0422862 1.9309722
-1.0250669 -3.0391288 1.928686
-1.0180765 -3.0492911 1.9202497
-1.0002689 -3.0456812 1.9327133
-0.99897963 -3.058502 1.9247252
-1.0000398 -3.0526106 1.926808
-1.0050701 -3.0499332 1.9342641
-0.99428552 -3.0560231 1.9334435
-0.98493081 -3.0464728 1.9387063
-0.98990905 -3.0530882 1.9301503
-0.96848375 -3.0624416 1.9225771
-0.9733656 -3.0623116 1.9395977
-0.96053177 -3.0594535 1.9278864
-0.95613235 -3.0630519 1.9212092
-0.95926744 -3.0696268 1.9231299
-0.95038873 -3.0615301 1.9323542
-0.95942539 -3.0627337 1.9256625
-0.9410041 -3.0774245 1.9342815
-0.9434014 -3.0670347 1.9338452
-0.94053411 -3.0658989 1.928182
-0.92622095 -3.0676155 1.934548
-0.93947917 -3.0784936 1.9224206
-0.93571484 -3.0808196 1.934522
-0.92366016 -3.0830295 1.9243897
-0.91828072 -3.0726602 1.929041
-0.91097885 -3.0776992 1.9231417
-0.91445082 -3.0760641 1.9373854
-0.90461272 -3.0802989 1.938279
-0.90615386 -3.0912237 1.9308971
-0.88812953 -3.0835762 1.9259797
-0.89576662 -3.0859122 1.9206682
-0.8970359 -3.0858047 1.9257953
-0.89043081 -3.0862334 1.9299071
-0.87172264 -3.0989094 1.9331133
-0.88314503 -3.0905099 1.9279878
-0.86991441 -3.0991144 1.9391156
-0.86258137 -3.0954983 1.9331651
-0.86100286 -3.0863533 1.9242603
-0.85852915 -3.1030607 1.9257051
-0.84343565 -3.1060567 1.9360659
-0.85325783 -3.1010044 1.9253533
-0.8483898 -3.1015377 1.9360044
-0.83839303 -3.0997841 1.9274774
-0.84428281 -3.1036422 1.9275186
-0.82696468 -3.1032443 1.9371976
-0.8347705 -3.0939393 1.9395044
-0.83144683 -3.1016262 1.9266535
-0.81407213 -3.1120615 1.9241678
-0.80560058 -3.1043513 1.9261886
-0.81568259 -3.1058779 1.9264216
-0.79540217 -3.1015584 1.9329089
-0.80583286 -3.1167045 1.9400588
-0.80561084 -3.106189 1.9301522
-0.79391432 -3.1059 1.9375712
-0.78217494 -3.1126313 1.9265658
-0.7807551 -3.1115088 1.9260372
-0.77702683 -3.1114042 1.9389873
-0.76614791 -3.1182683 1.9226618
-0.77775329 -3.1210058 1.9351997
-0.76733619 -3.1181717 1.9273585
-0.75668466 -3.1194055 1.924978
-0.75954431 -3.1154199 1.9285868
-0.75525254 -3.1155634 1.9238403
-0.74086595 -3.1283631 1.9205056
-0.73905885 -3.1337783 1.9315566
-0.74825567 -3.1221294 1.9248412
-0.73797959 -3.13111 1.9393351
-0.734752 -3.1335707 1.9280636
-0.72784853 -3.1319973 1.9351473
-0.72840559 -3.1243691 1.9261515
-0.71680242 -3.1304531 1.9370022
-0.7075783 -3.1237617 1.9329131
-0.71474409 -3.1371453 1.9297485
-0.70665497 -3.1405103 1.9348462
-0.70189905 -3.1264379 1.9355848
-0.68609083 -3.1259336 1.929022
-0.69699663 -3.1395257 1.9345225
-0.69340718 -3.134264 1.9385999
-0.68108785 -3.1464744 1.9252821
-0.68168342 -3.1436188 1.9206181
-0.67127353 -3.1335382 1.9308894
-0.67001152 -3.1386132 1.9288652
-0.67283738 -3.1352353 1.9344646
-0.65882641 -3.1481504 1.9376997
-0.65971649 -3.1406939 1.9360019
-0.65986669 -3.1418145 1.9357973
-0.64657843 -3.1382272 1.9229832
-0.64778835 -3.1554387 1.936407
-0.68307763 -3.3304863 1.8750695
-0.67326593 -3.3248074 1.861073
-0.66811699 -3.3331101 1.858115
-0.6726954 -3.3445439 1.8710337
-0.65929663 -3.3431981 1.8682762
-0.66029727 -3.3322368 1.8735429
-0.6580615 -3.3465626 1.8671997
-0.63752222 -3.345437 1.8606632
-0.67326701 -3.5216033 1.7951137
-0.66548389 -3.53725 1.7967888
-0.66427571 -3.5344298 1.8100913
-0.66088247 -3.5264602 1.8100283
-0.65148443 -3.5380054 1.8026119
-0.64504313 -3.538794 1.8047043
-0.6456818 -3.5308504 1.8090788
-0.6490767 -3.5285752 1.8053442
-0.66120255 -3.7153053 1.7446856
-0.665411 -3.7196414 1.7295904
-0.65615457 -3.7283127 1.7454195
-0.64892513 -3.7341337 1.7465557
-0.64001924 -3.72368 1.731459
-0.63780963 -3.7347682 1.7452718
-0.66809642 -3.9082448 1.6849513
-0.67310268 -3.913413 1.6682893
-0.65601522 -3.9241581 1.68049
-0.65455192 -3.9232383 1.6758784
-0.65682197 -3.9253862 1.6720144
-0.6362282 -3.9169457 1.6847597
-0.66159666 -4.1115685 1.606251
-0.66000515 -4.1170945 1.6063739
-0.65727609 -4.0989213 1.6178745
-0.64964241 -4.1037464 1.6192034
-0.64819461 -4.1116323 1.6148154
-0.64354497 -4.1099958 1.6062064
-0.66485584 -4.304112 1.5442705
-0.6644032 -4.2949119 1.5477077
-0.64856088 -4.2934566 1.549921
-0.63658142 -4.2968836 1.5414916
-0.66010821 -4.4878159 1.4829426
-0.67010647 -4.4954081 1.4833326
-0.65998048 -4.4860115 1.4828321
-0.65835267 -4.4947233 1.4784346
-0.63539463 -4.487731 1.487071
-0.66376644 -4.6895547 1.414735
-0.65354079 -4.6814518 1.4200755
-0.64172846 -4.678905 1.4155529
-0.6464777 -4.6865253 1.413414
-0.65490651 -4.8760457 1.3652469
-0.66560698 -4.8790197 1.3581083
-0.65133399 -4.8782673 1.36432
-0.63666958 -4.8736653 1.3608618
8.2439909 2.9570031 0.15498911
8.2373486 2.9708123 0.15933815
8.2435198 2.9796703 0.15649171
8.2265339 2.9846637 0.14221901
8.2194643 3.0057561 0.14519463
8.2151937 3.0201848 0.15435632
8.0373774 2.9556823 0.21691401
8.0300007 2.9757941 0.21466224
8.0374689 2.9793224 0.22019117
8.030508 2.9924912 0.20693389
8.0150108 2.9936709 0.2190735
8.0239553 3.0123229 0.21352872
8.0172329 3.0212762 0.20535396
8.1854563 3.1046464 0.14855719
8.1814899 3.1180992 0.14350994
8.1804829 3.1314602 0.1614209
8.1686211 3.1296554 0.14888091
8.1771679 3.1445925 0.14524303
8.1634464 3.1511312 0.15392978
8.1552391 3.1748588 0.1445871
8.153758 3.187254 0.14523201
8.1444006 3.1927738 0.15334253
8.1494827 3.2157674 0.15922567
8.1463737 3.213388 0.15004733
8.1485863 3.2313631 0.14290497
8.1457348 3.2326682 0.15771261
8.1407795 3.246465 0.15931065
8.1232681 3.2531776 0.14444712
8.1221027 3.2705543 0.14472964
8.1096087 3.2841241 0.15735319
8.1077557 3.3006294 0.15099171
8.1065321 3.3122101 0.15877597
8.1134033 3.3133211 0.15818578
8.1061411 3.335788 0.14385456
8.0896854 3.3449471 0.15614299
8.086072 3.3557515 0.15838738
8.0772495 3.3661118 0.14308573
8.0900097 3.3834882 0.14316024
8.0678911 3.3842425 0.14928128
8.0660391 3.3970621 0.15764821
8.0567951 3.4126036 0.15120305
8.0611734 3.4115124 0.14502752
8.0533209 3.4418986 0.14865845
8.0448618 3.4496453 0.14345802
8.0420561 3.4455745 0.15612505
8.0515232 3.4625437 0.14831118
8.0432186 3.4753604 0.15957896
8.0395975 3.4856226 0.15695103
8.0360346 3.498467 0.14381205
8.0185776 3.5141759 0.15223351
-3.6308455 -3.6011536 1.3259487
-3.6411855 -3.6052465 1.3281343
-3.6323695 -3.6089954 1.3322603
-3.6190758 -3.619905 1.335447
-3.6149905 -3.6124783 1.3318565
-3.6160228 -3.6203978 1.3376868
-3.5997438 -3.6281769 1.3232495
-3.6003373 -3.6301365 1.3400905
-3.5967684 -3.6370258 1.3327435
-3.5960159 -3.6496017 1.3290848
-3.5837829 -3.6579235 1.3391674
-3.5751131 -3.6616237 1.3302462
-3.5842507 -3.6615534 1.3226584
-3.5692554 -3.6732421 1.3292361
-3.5710661 -3.6659055 1.3283089
-3.5564606 -3.6846678 1.324523
-3.5560179 -3.672225 1.3380119
-3.5500054 -3.6854565 1.3345878
-3.5471451 -3.7002072 1.3293144
-3.5316248 -3.6993005 1.3364977
-3.5397563 -3.7112625 1.3403846
-3.5377982 -3.6996636 1.3255897
-3.5247545 -3.7023182 1.3358761
-3.5192916 -3.7151008 1.3394779
-3.5072441 -3.714824 1.3354133
-3.5161169 -3.7250783 1.337576
-3.5087688 -3.7400341 1.3371638
-3.5079253 -3.734128 1.3284955
-3.4904985 -3.7505193 1.3300445
-3.4983385 -3.7365546 1.3374612
-3.4789884 -3.7558932 1.3378696
-3.4757447 -3.7584524 1.3348234
-3.467289 -3.7531528 1.3340614
-3.4685402 -3.7675827 1.325449
-3.4661825 -3.7751641 1.342038
-3.4478829 -3.7768245 1.33329
-3.4474137 -3.7763495 1.3344964
-3.44735 -3.7802505 1.3265116
-3.4359479 -3.7919512 1.327031
-3.4429901 -3.7967253 1.3264031
-3.4226089 -3.8073895 1.3313175
-3.4218123 -3.8000567 1.3385464
-3.4240556 -3.8095219 1.335941
-3.4070539 -3.8054988 1.3237643
-3.4186583 -3.8243854 1.3288579
-3.3936665 -3.8302462 1.3371352
-3.3974166 -3.8209186 1.3307242
-3.3999534 -3.8368149 1.3252416
-3.3904684 -3.8466032 1.33288
-3.3804574 -3.8487346 1.340559
-3.3710675 -3.8557923 1.3423809
-2.6253397 -2.9892352 1.7091362
-2.6249924 -2.9873269 1.6984175
-2.6072452 -2.9937463 1.696507
-2.6016698 -2.9971058 1.7004871
-2.6109955 -3.0008166 1.7033763
-2.5920391 -3.0136266 1.7003555
-2.5994885 -3.0143294 1.7061934
-2.5924153 -3.01091 1.7069905
-2.5776987 -3.0228486 1.7103959
-2.5752981 -3.0307732 1.7114761
-2.5710704 -3.0297697 1.7057055
-2.5728834 -3.0326085 1.7055124
-2.5654101 -3.0418959 1.7025632
-2.5598423 -3.049808 1.6999116
-2.5702896 -3.0512514 1.6972008
-2.5578425 -3.0379488 1.7053256
-2.5484111 -3.0563111 1.6963872
-2.5531368 -3.0518212 1.7145021
-2.5370607 -3.0568402 1.7043064
-2.5375741 -3.0636892 1.7098079
-2.5370021 -3.0705469 1.6999291
-2.5221961 -3.0634582 1.7108215
-2.5275779 -3.0731423 1.6960307
-2.5159042 -3.0815094 1.6969261
-2.5268772 -3.0845797 1.6999705
-2.520556 -3.079464 1.6999037
-2.5061049 -3.0891826 1.705055
-2.5005875 -3.087898 1.6982708
-2.4969501 -3.0948131 1.710036
-2.5035038 -3.1065226 1.6985146
-2.484551 -3.1019461 1.7036922
-2.495472 -3.1068542 1.6995088
-2.4754958 -3.10144 1.709186
-2.4703057 -3.1086526 1.7140343
-2.484215 -3.1111441 1.6993449
-2.4750752 -3.1116245 1.7132978
-2.4659975 -3.1219697 1.7010523
-2.4517636 -3.1311176 1.7136058
-2.4643092 -3.1209536 1.7027524
-2.4450846 -3.1416731 1.703692
-2.4573765 -3.1277752 1.7127042
-2.4444861 -3.129138 1.7002985
-2.3191357 -2.9847534 1.7589246
-2.3209517 -2.9894814 1.7716825
-2.317915 -2.9924736 1.765421
-2.3095629 -3.0106857 1.7621448
-2.3072536 -3.0041845 1.7719833
-2.2971852 -3.0078187 1.7761273
-2.2945588 -3.0083723 1.773883
-2.3027813 -3.01408 1.7743603
-2.2900598 -3.0164638 1.772171
-2.2883215 -3.0303452 1.7720481
-2.2789845 -3.0199084 1.7696166
-2.2731502 -3.0354757 1.7657112
-2.2745538 -3.0321991 1.762062
-2.2622144 -3.0247676 1.7634429
-2.2731466 -3.0392289 1.7745615
-2.254236 -3.047828 1.7652768
-2.2511771 -3.0380113 1.7586633
-2.2503579 -3.0406327 1.7695607
-2.2490571 -3.0547523 1.7612877
-2.2499411 -3.0513582 1.7623402
-2.2309437 -3.0628555 1.7770307
-2.2343733 -3.052752 1.7593491
-2.221704 -3.0682898 1.7681335
-2.2326798 -3.0557301 1.7675327
-2.22227 -3.0783494 1.7756482
-2.2207375 -3.066309 1.7583363
-2.2084851 -3.075465 1.7740064
-2.202842 -3.0880618 1.7702148
-2.2062972 -3.0836217 1.7754573
-2.1980209 -3.0843346 1.7672417
-2.188688 -3.0903227 1.7706704
-2.1846604 -3.0840182 1.7673384
-2.1783099 -3.0893259 1.7715985
-2.1831708 -3.0898955 1.7715421
-2.1686282 -3.1043458 1.7719841
-2.1659658 -3.1015582 1.7675784
-2.1606112 -3.1108174 1.7771225
-2.1595819 -3.1187372 1.7771696
-2.1623402 -3.1144197 1.7647502
-2.1598518 -3.1061382 1.7747061
-2.1455748 -3.1128402 1.7617553
-2.1478646 -3.1198349 1.7581848
-2.1334825 -3.1248043 1.7723762
-2.134836 -3.1189637 1.7690616
-2.1362417 -3.1229141 1.7743541
-2.1372013 -3.1285398 1.7654856
-2.1225624 -3.1331527 1.7704034
-2.1183751 -3.1410828 1.7704407
-2.1141367 -3.1361217 1.7578287
-2.1023135 -3.1530268 1.7765255
-2.1005304 -3.1400137 1.7715412
-2.006031 -2.9956195 1.8247107
-2.0009816 -2.9990973 1.8337861
-1.9817369 -2.9883006 1.8317047
-1.9858029 -3.0032856 1.8286697
-1.9845725 -3.0036101 1.8229995
-1.9722066 -3.0136802 1.8357008
-1.9749192 -3.0039515 1.8234501
-1.9775906 -3.0143774 1.8391328
-1.97287 -3.0173767 1.8208762
-1.9694489 -3.0229936 1.8385925
-1.9510082 -3.024179 1.8256224
-1.9415277 -3.0245035 1.8319747
-1.942968 -3.0297754 1.8319181
-1.9464858 -3.0233097 1.8196648
-1.9330349 -3.0398138 1.8298695
-1.9252503 -3.0281558 1.8327808
-1.9247608 -3.0434182 1.8281914
-1.9165181 -3.0455637 1.8359412
-1.912589 -3.0472043 1.8234507
-1.9269125 -3.049643 1.8280964
-1.9035162 -3.0378644 1.8343039
-1.9130859 -3.0408323 1.8229282
-1.8962998 -3.0494714 1.8290157
-1.8995667 -3.0458627 1.8242985
-1.895083 -3.0530419 1.8258008
-1.9003909 -3.0566785 1.8216786
-1.8827839 -3.0640719 1.8250058
-1.8897625 -3.0674725 1.8288931
-1.8689877 -3.0711973 1.8338397
-1.8806996 -3.073503 1.8390412
-1.8677622 -3.0766737 1.8387094
-1.8686136 -3.073679 1.8380916
-1.8608371 -3.0781667 1.8315108
-1.8669693 -3.0901935 1.8312083
-1.8578153 -3.0820127 1.826391
-1.8471552 -3.0834196 1.8205948
-1.8406136 -3.0915029 1.8300573
-1.8307414 -3.0908518 1.8387655
-1.8369782 -3.0937169 1.8263888
-1.8382648 -3.0925884 1.8343403
-1.8343464 -3.1028206 1.8217493
-1.8307561 -3.098206 1.8347751
-1.8277801 -3.1101205 1.8259292
-1.8113813 -3.1124766 1.8276663
-1.8152814 -3.1099911 1.8201883
-1.8039954 -3.1211619 1.8339012
-1.798502 -3.1101112 1.8221228
-1.8035425 -3.1135118 1.8335813
-1.7998713 -3.1274765 1.8247545
-1.7885733 -3.1270587 1.8196299
-1.7893202 -3.1270568 1.8268409
-1.7826546 -3.1278026 1.8212279
-1.7829599 -3.1299138 1.826256
-1.7721076 -3.1399715 1.8314776
-1.7595147 -3.138278 1.8217282
-1.7543963 -3.1296504 1.8233453
-1.7555616 -3.1398852 1.8385444
-1.7485017 -3.1395199 1.8328679
-1.74998 -3.1398461 1.8357457
-1.7402816 -3.1532404 1.8215543
-1.7357044 -3.1517515 1.8298717
-1.7439128 -3.1479704 1.8199439
-1.7377307 -3.1488714 1.8303995
-1.6351461 -2.9965947 1.8954195
-1.6389405 -3.0026867 1.8824818
-1.632481 -2.9880481 1.900648
-1.6244012 -2.9989655 1.8910494
-1.6211193 -3.0072174 1.8842802
-1.6235106 -3.0013452 1.8996426
-1.6030209 -3.0101762 1.8840622
-1.5967195 -2.9988344 1.8924161
-1.6020976 -3.000109 1.8869904
-1.5974003 -3.019613 1.8830972
-1.6022443 -3.0123184 1.887202
-1.5841987 -3.0130036 1.8875083
-1.5790876 -3.0114176 1.8847408
-1.5758073 -3.0259438 1.8933376
-1.5821226 -3.0213828 1.8959583
-1.5752038 -3.0234113 1.8867211
-1.5729197 -3.0291514 1.8909171
-1.5662128 -3.0327945 1.8887131
-1.551149 -3.0260231 1.8874869
-1.5615077 -3.0387652 1.889003
-1.5557567 -3.040565 1.9000543
-1.5458976 -3.0285363 1.8926553
-1.5357294 -3.0356164 1.8890707
-1.5283257 -3.0436394 1.8931831
-1.532322 -3.0422037 1.8840733
-1.5336947 -3.0380788 1.8951459
-1.5243016 -3.055902 1.8826836
-1.5107095 -3.0512538 1.8887776
-1.5193185 -3.0557804 1.883836
-1.5091506 -3.0549073 1.8883399
-1.5174637 -3.0525277 1.8932254
-1.4947225 -3.0645368 1.8923151
-1.4993775 -3.0706284 1.8864944
-1.487614 -3.0535698 1.8948143
-1.4917352 -3.0647645 1.8867273
-1.4849634 -3.0615916 1.8849173
-1.4871159 -3.0732882 1.8874296
-1.4817278 -3.0756586 1.8967298
-1.4702429 -3.0709066 1.8836373
-1.4636966 -3.0802584 1.8935459
-1.4726436 -3.0821977 1.8879558
-1.4567021 -3.0856736 1.8924726
-1.4616681 -3.0780849 1.8930078
-1.4524519 -3.0830164 1.8927052
-1.4549131 -3.0763552 1.883306
-1.4454584 -3.0872118 1.8991716
-1.4378109 -3.0845129 1.8854265
-1.4276483 -3.1007214 1.891391
-1.4281826 -3.0897427 1.8841816
-1.4218067 -3.0965185 1.8896883
-1.4255193 -3.0965452 1.8953174
-1.4148192 -3.1049373 1.8995266
-1.4195995 -3.1026049 1.8933742
-1.403842 -3.0953686 1.8843343
-1.4083841 -3.1149087 1.8839933
-1.4023228 -3.1093121 1.8948275
-1.400393 -3.100389 1.8903863
