# .PCD v0.7 - Point Cloud Data file format
VERSION 0.7
FIELDS x y z
SIZE 4 4 4
TYPE F F F
COUNT 1 1 1
WIDTH 1531
HEIGHT 1
VIEWPOINT 0 0 0 1 0 0 0
POINTS 1531
DATA ascii
0.61205524 -3.8207448 1.9964397
0.61787182 -3.8193314 1.9865104
0.62831646 -3.8179293 1.9831694
0.63584924 -3.8152339 1.9825366
0.62445468 -3.8175969 1.9938686
0.63722062 -3.7980177 1.999145
0.64978528 -3.8126471 1.9835414
0.64476639 -3.797317 1.9958912
0.65276319 -3.8114295 1.9966542
0.65865391 -3.8093402 1.9974166
0.66072208 -3.7982762 1.9977474
0.66086239 -3.8067226 1.9986476
0.67107213 -3.8100505 2.0000982
0.67793953 -3.7911701 1.9833854
0.68417281 -3.7890079 1.983443
0.70173675 -3.7994018 1.982206
0.70457578 -3.8025522 1.985458
0.71180981 -3.7960415 1.9831516
0.71139234 -3.7868521 1.9858364
0.71173656 -3.7970896 1.9897069
0.71284181 -3.790575 1.9837303
0.71427649 -3.7892346 1.9883887
0.73660994 -3.7829981 1.9887933
0.74039274 -3.7952065 1.9871448
0.7474612 -3.7864923 1.9867179
0.75458586 -3.7855239 1.9949489
0.74047196 -3.7870245 1.9990736
0.74960876 -3.786598 1.9887462
0.7564376 -3.7918947 1.9866375
0.76594985 -3.7821512 1.9933136
0.77933115 -3.7766054 1.9855189
0.7667343 -3.7749262 1.9980718
0.77879429 -3.7762136 1.9958611
0.79125744 -3.779017 2.0004344
0.80207068 -3.7800491 1.9927071
0.79245549 -3.7792523 1.9849257
0.81106961 -3.777864 1.9946141
0.81380695 -3.7726316 1.9836917
0.80621535 -3.765862 1.9864281
0.81651354 -3.7748702 1.9978561
0.83348614 -3.7757854 1.9937706
0.82266253 -3.774585 1.9902973
0.84439021 -3.7666099 1.9844626
0.84390557 -3.7714558 1.994743
0.84799272 -3.770771 1.9829023
0.84435081 -3.7649825 1.9907621
0.85292602 -3.7658594 1.9989066
11.011149 -0.72750872 0.10666716
10.629196 -0.68618989 0.20232341
10.61552 -0.67405361 0.21566011
10.630155 -0.6527108 0.20402355
10.618123 -0.65179008 0.20012514
10.624296 -0.63277102 0.21147877
10.626067 -0.6224767 0.21935721
10.634696 -0.59795809 0.20375469
10.625829 -0.5945732 0.21869241
10.623493 -0.56230986 0.21473745
10.63741 -0.55579007 0.20755099
10.627236 -0.54626292 0.20088767
10.630859 -0.53137821 0.2115397
10.627799 -0.50280255 0.20871238
10.633081 -0.48718286 0.21198221
10.634444 -0.4862929 0.21944632
10.62714 -0.46451461 0.20237871
10.627694 -0.4549692 0.21500245
10.632624 -0.43513224 0.2161826
10.632471 -0.4184514 0.2147965
10.648343 -0.40865347 0.20509943
10.637008 -0.38980907 0.21009769
10.638988 -0.36809984 0.21514772
10.6316 -0.37018907 0.21393944
10.641364 -0.34771335 0.21351585
10.634377 -0.32457113 0.21914625
10.634833 -0.30940881 0.21171801
10.638201 -0.29434797 0.21899731
10.634171 -0.29499117 0.21127479
10.651302 -0.27640072 0.20539349
10.647026 -0.26253158 0.21446961
10.653031 -0.24057028 0.20754884
10.644014 -0.23718013 0.20749521
10.640027 -0.22170915 0.21050954
10.654811 -0.19698468 0.20115601
10.64915 -0.17973693 0.20010044
10.649098 -0.1625018 0.21936224
10.641599 -0.16234696 0.21883932
10.641357 -0.14664868 0.20282699
10.653373 -0.13422684 0.21055837
10.639485 -0.10646757 0.21731155
10.654654 -0.093067981 0.21117818
10.642881 -0.089029826 0.21358663
10.651033 -0.06930311 0.21661723
10.64218 -0.055096131 0.20952305
10.643952 -0.026832512 0.20482697
10.644648 -0.01888188 0.20251597
10.644585 0.0013274938 0.20550942
10.664161 0.0030460863 0.28716731
10.667518 0.034637108 0.28857917
10.658586 0.03216226 0.28289902
10.676386 0.044697635 0.29576695
10.668033 0.065322421 0.27782133
10.662066 0.093982972 0.28475055
10.65911 0.093693584 0.29103467
10.669039 0.11510069 0.2907303
10.674251 0.13714869 0.28352427
10.65713 0.13909937 0.28167531
10.662983 0.16042978 0.2847214
10.672656 0.16512756 0.28447798
10.66372 0.18092406 0.28687924
10.669084 0.19457242 0.28693539
10.667294 0.21993926 0.29273599
10.667538 0.23943298 0.29231694
10.674689 0.25608414 0.29672837
10.668105 0.26279858 0.28766701
10.661196 0.27488014 0.28577393
10.66706 0.29001781 0.29095203
10.671054 0.31120503 0.28258136
10.658073 0.32228276 0.28402948
10.664828 0.34466287 0.28639552
10.653964 0.35266513 0.28753167
10.663135 0.3591575 0.27915674
10.658086 0.38619429 0.29539809
10.652596 0.40070468 0.29341355
10.651499 0.40897277 0.28326684
10.661318 0.43069419 0.29032561
10.649223 0.43866283 0.27764648
10.662287 0.45102978 0.29127958
10.666959 0.47084102 0.28111595
10.653057 0.47785318 0.27845863
10.661502 0.49446741 0.28893036
10.651061 0.52073985 0.29102194
10.652225 0.52247113 0.28527847
10.649611 0.53924209 0.2791743
10.644989 0.55546421 0.28646791
10.650202 0.58207607 0.28061333
10.642451 0.59718448 0.28785869
10.642001 0.60596764 0.29260305
10.655164 0.62005472 0.28229162
10.658142 0.64089394 0.28412622
10.658442 0.65085125 0.2877098
10.649193 0.67106283 0.28270161
10.642015 0.67315364 0.28456143
10.649072 0.69336498 0.28832996
10.650004 0.70971239 0.29345942
10.63821 0.73204905 0.29034051
10.64054 0.74743366 0.28747106
10.650095 0.76318717 0.27852678
10.644374 0.7729426 0.28881291
10.64832 0.78653634 0.2850827
10.63408 0.8013109 0.29645547
10.643403 0.80773813 0.29318666
10.627697 0.82790947 0.29715687
10.633831 0.8360815 0.28648797
10.643712 0.86615002 0.27731723
10.638701 0.8654086 0.29563534
10.630552 0.88800257 0.29449165
10.832609 0.91739166 0.24475242
10.812581 0.92616111 0.23942915
10.822819 0.93994415 0.23285748
10.829305 0.9605754 0.24621984
10.827142 0.97163838 0.23117037
10.82169 0.98812485 0.24145481
10.820187 1.0118946 0.2450754
10.807994 1.0267162 0.24393025
10.806609 1.037719 0.24721104
10.803521 1.0617841 0.23825489
10.819269 1.0760422 0.24764429
10.81476 1.0915486 0.23070607
10.804908 1.0985897 0.23245566
10.808462 1.1134351 0.23974304
10.805357 1.1274576 0.24300182
10.807182 1.1373885 0.2476574
10.799271 1.1671978 0.240995
10.794959 1.1662166 0.23406839
10.789481 1.1852741 0.24306075
10.787262 1.2026886 0.2410364
10.796066 1.217316 0.23819017
10.79424 1.2289214 0.23577267
10.795453 1.2521815 0.24532059
10.798395 1.2605245 0.23464042
10.788604 1.2873126 0.24291143
10.78205 1.2974967 0.24604408
9.0274525 2.9618402 0.5934189
9.038147 2.9785082 0.5889141
9.0311756 2.9726434 0.59112006
9.0238314 2.990557 0.58289224
9.0259027 3.0063231 0.58001971
8.83146 2.9576731 0.64266193
8.8198996 2.980201 0.62866694
8.8250608 2.9850197 0.63442487
8.825799 2.9912281 0.63583148
8.8117533 3.0140083 0.63769108
8.6275749 2.9647987 0.68238157
8.62257 2.9728463 0.68163627
8.6130438 2.9780576 0.68243217
8.6057072 3.0000765 0.68855339
8.6101246 3.0083373 0.67785823
8.4287443 2.9461472 0.73686081
8.4234838 2.9602411 0.73657322
8.4242125 2.9836321 0.72879601
8.4106827 2.991915 0.73492461
8.3985424 2.9903226 0.73153657
8.408246 3.0120912 0.72934985
8.2107525 2.9674621 0.77268565
8.2149563 2.9626963 0.77970529
8.1999397 2.9747443 0.77672654
8.2110281 2.995378 0.78999656
8.1914062 3.001725 0.77305108
8.2012663 3.0069232 0.77845478
8.0090103 2.9499424 0.82501441
8.0108681 2.9703574 0.83861983
7.9988379 2.9827938 0.83890539
8.0034046 2.9891107 0.82923818
7.9857688 3.0044944 0.82873642
7.9819489 3.0081999 0.83201367
7.8038898 2.9524667 0.88539344
7.8041759 2.9602754 0.87845916
7.7977166 2.9726281 0.88643396
7.7942967 2.9990227 0.88817513
7.7962656 2.9991722 0.8885448
7.7752748 3.0052989 0.87816322
7.7878742 3.0235314 0.88905716
7.6001787 2.9601574 0.92461705
7.5834646 2.973387 0.93490767
7.5862341 2.9869797 0.93776047
7.5722661 2.9879549 0.92229897
7.582159 3.013334 0.92376775
7.5651026 3.0163867 0.92671627
7.5760064 3.0201681 0.92519259
7.3887672 2.9579952 0.98246109
7.3818536 2.970845 0.98549688
7.3845434 2.9804876 0.97591573
7.3781128 2.9872091 0.98244154
7.3777242 3.0013418 0.97161126
7.3676114 3.0223842 0.98379362
7.3603373 3.0336134 0.98637706
7.178431 2.9650648 1.0332754
7.1772389 2.9772348 1.02316
7.1589813 2.9845078 1.0262691
7.1591859 2.9886253 1.0287408
7.167141 3.0099566 1.0337684
7.1581182 3.0181201 1.0381507
7.1595001 3.0240099 1.0389723
7.1473937 3.0336819 1.0236503
6.9661231 2.9615896 1.0886042
6.9554472 2.9820108 1.0850186
6.9473414 2.983896 1.0764662
6.9566164 2.9887142 1.0700808
6.9557619 2.9994135 1.0809715
6.9380035 3.0144706 1.0859884
6.9427028 3.0216498 1.0823511
6.9324164 3.0439866 1.076898
6.7490373 2.9740763 1.1368649
6.7440367 2.9738448 1.127032
6.743701 2.9948852 1.1309818
6.738802 2.9893806 1.1256455
6.7303042 2.9999139 1.1324933
6.7332406 3.0238798 1.1344634
6.7297792 3.0311623 1.1374434
6.717195 3.0248706 1.1257964
6.7296147 3.0474768 1.1316507
6.5419135 2.9639604 1.1796738
6.5253286 2.9785531 1.1764402
6.5391936 2.992275 1.1835624
6.5232134 2.989804 1.1823183
6.5311699 3.0065901 1.1861686
6.5137777 3.0190477 1.1711569
6.5232205 3.0186245 1.1707215
6.5146208 3.0389347 1.1881852
6.5089879 3.0508692 1.1699797
6.3162456 2.9771862 1.2345127
6.3249102 2.9785209 1.2367072
6.3120813 2.9874063 1.2243806
6.3160067 2.9943056 1.2366682
6.3070421 3.0093856 1.2373829
6.2968206 3.0165963 1.2257874
6.3104377 3.0306013 1.2375593
6.2890306 3.0382481 1.2198235
6.2871761 3.0415072 1.2333193
6.2827725 3.0433583 1.229677
6.1058669 2.9674542 1.2750477
6.098381 2.9888067 1.283433
6.0930777 3.0014777 1.2718937
6.0954361 3.0022337 1.2784493
6.0900702 3.0181968 1.2712865
6.0854068 3.0081229 1.2825416
6.0891361 3.0158622 1.2790149
6.0846257 3.0264032 1.2743541
6.0823679 3.0393102 1.2841773
6.0735936 3.0520473 1.2870826
6.0611653 3.0664086 1.2700207
5.8916287 2.990056 1.3353015
5.8835506 2.979677 1.3352411
5.8839226 2.9958191 1.3274342
5.8708382 3.0107703 1.3270938
5.8705792 3.0052447 1.3281889
5.8615646 3.0276473 1.3285384
5.8690114 3.0297499 1.3309499
5.8517861 3.0338166 1.3177953
5.8643727 3.0533433 1.3289106
5.8598533 3.0446873 1.3259259
5.8582602 3.0637157 1.3255005
5.8524327 3.0788133 1.326488
5.8465333 3.0784411 1.3354156
5.8328161 3.089155 1.331098
5.8387465 3.1037915 1.3330643
5.8257613 3.093606 1.3292487
5.8131137 3.115072 1.3193569
5.8228664 3.1235285 1.325359
5.8194532 3.1287987 1.3227205
5.8071442 3.1337876 1.3232653
5.8118391 3.1414337 1.3346832
5.7960973 3.1475134 1.3330497
5.8013315 3.1519666 1.3229008
5.7954822 3.1669862 1.3353285
5.7853041 3.1722319 1.3342614
5.7770805 3.1887987 1.3348838
5.7850308 3.197036 1.328853
5.7830777 3.1993554 1.3231655
5.7671151 3.2026021 1.3346411
5.7685032 3.2178917 1.3230047
5.7704248 3.2222393 1.3309194
5.7637534 3.2352192 1.3368253
5.7554369 3.2378197 1.3191016
5.7569604 3.2389677 1.3283209
5.7509003 3.2543454 1.3347155
5.743762 3.2659197 1.3296126
5.7372351 3.2698748 1.3246893
5.7246661 3.2763186 1.3340334
5.7263985 3.2912536 1.3185787
5.719595 3.2920408 1.3303744
5.7211447 3.2992253 1.3184843
5.7105975 3.304225 1.3315475
5.705945 3.3254063 1.3191905
5.703558 3.3326201 1.3199672
5.6903787 3.3382945 1.3281138
5.6835833 3.341362 1.319833
5.6916738 3.3424449 1.327512
5.67483 3.3555129 1.3336461
5.6873193 3.3748782 1.3267324
5.6643429 3.3720162 1.3326298
5.673151 3.3752909 1.3177421
5.6700578 3.3926167 1.3198909
5.660017 3.3898995 1.3352638
5.6576085 3.4094155 1.3299004
5.6559653 3.4203842 1.3222672
5.6424575 3.4291999 1.329764
5.6406584 3.4307601 1.3304129
5.6265273 3.4401412 1.3362052
5.6385188 3.4466872 1.3334448
5.6235862 3.4549437 1.3199112
5.6145401 3.4567063 1.3217474
5.6105947 3.4600844 1.3330112
5.6087875 3.478142 1.3336661
5.6023426 3.4785216 1.3259521
5.6105232 3.5019996 1.3213283
5.5910597 3.4967232 1.3176484
5.599082 3.5144112 1.3276635
5.5877423 3.522743 1.3192012
5.5821843 3.5278521 1.3294333
5.5738549 3.5228252 1.3200767
5.571981 3.5335596 1.3246442
5.5719323 3.5451677 1.3247584
5.5631371 3.5597978 1.3351051
5.5549855 3.5728233 1.3180132
5.5591092 3.5788808 1.3365881
5.5385981 3.5703366 1.322082
5.5343962 3.5946879 1.3174663
5.5401993 3.5925837 1.3333912
5.537529 3.6098158 1.3266412
5.5250797 3.6036243 1.327087
5.5232635 3.6204753 1.330497
5.5260038 3.6222048 1.3177514
5.5088477 3.6400771 1.3318794
5.5020275 3.6347466 1.3312832
5.4981046 3.6384995 1.3290017
5.4927459 3.6467118 1.3304403
5.4928703 3.6557038 1.3285012
5.4883685 3.6754906 1.336736
5.4797812 3.6776099 1.334488
5.4844327 3.6922936 1.3183405
5.4695196 3.6901853 1.3313432
5.4580059 3.6958523 1.3183815
5.4537358 3.709409 1.3356053
5.463583 3.7212017 1.3198189
5.4528236 3.734139 1.3201126
5.4397721 3.7267954 1.3209532
5.4481487 3.7446649 1.3231273
5.4345751 3.7431319 1.3174368
5.4292264 3.7581213 1.3262215
5.4216189 3.7628825 1.3220527
5.4178529 3.7778621 1.3281459
5.4070797 3.7864697 1.3322833
5.4033337 3.7759595 1.3223617
5.3968015 3.8004596 1.3366247
5.3944716 3.7993743 1.3362238
5.3924255 3.8104215 1.3208855
5.3912096 3.8150396 1.3358303
5.3921571 3.8312902 1.3216628
5.3874035 3.8274076 1.3349124
5.3714242 3.8411441 1.3253586
5.3712659 3.8363519 1.323227
5.3571901 3.8460336 1.3221529
5.3472414 3.8572278 1.3230258
5.3473606 3.8671582 1.3208637
5.3417325 3.880038 1.330088
5.3356934 3.8761613 1.3228389
5.3343053 3.8963687 1.332695
5.3278513 3.9028342 1.3312957
5.32722 3.9098673 1.3185155
5.3198276 3.9062526 1.3319808
5.3228707 3.9278214 1.3331705
5.3037724 3.9206667 1.3365661
5.3035893 3.928926 1.3236873
5.3042693 3.9426777 1.3332778
5.2827764 3.9561851 1.3282948
5.2904978 3.9490469 1.3319893
5.2709599 3.9659247 1.3284527
5.2812676 3.9617636 1.3239509
5.2701654 3.9823961 1.3190588
5.2662735 3.9810715 1.3231363
5.255836 3.9882362 1.3213747
5.2465787 4.0017586 1.3250579
5.240706 4.0005641 1.3296077
5.2419448 4.0055261 1.3205241
5.2327638 4.014482 1.3175703
5.2385893 4.0366569 1.3201085
5.2280993 4.0448012 1.3321626
5.2140627 4.0487709 1.3327013
5.2155137 4.0471668 1.3265258
5.2120628 4.0672088 1.3316869
5.1926794 4.0623617 1.3366812
5.191524 4.0738163 1.3278745
5.1940422 4.0849667 1.3305577
5.1810994 4.0829353 1.3308951
5.1790633 4.097312 1.3328886
5.1740632 4.1031137 1.3297647
5.1715913 4.1040349 1.3275007
5.1611638 4.1165395 1.3219298
5.1512647 4.1161251 1.3274862
5.3063693 4.2591071 1.2763197
5.2952662 4.2673593 1.2825576
5.2891469 4.2601166 1.2730049
5.2742109 4.2810616 1.2673657
5.2819481 4.2747445 1.2724658
5.2700119 4.2920814 1.2847214
5.2600594 4.2901187 1.2755654
5.2669725 4.3113947 1.2801256
5.2516112 4.3079629 1.2699932
5.250669 4.3203626 1.2722572
5.2352729 4.3224182 1.2691147
5.238204 4.3392906 1.2868407
5.2273631 4.3359737 1.2699478
5.2269592 4.3436618 1.2866325
5.2209063 4.3450375 1.2696407
5.219943 4.3604379 1.282635
5.211225 4.3718567 1.2863239
5.1933413 4.3761702 1.2839545
5.2000074 4.3911142 1.2708275
5.1965308 4.3911176 1.2827829
5.1753087 4.4017372 1.2694846
5.1709337 4.4013104 1.2857581
5.1642742 4.4160752 1.2714227
5.1607122 4.4164786 1.2774915
5.3008685 4.563086 1.2281563
5.296803 4.5687938 1.2364588
5.2857213 4.571856 1.2289219
5.2783184 4.5831175 1.2184485
5.2685356 4.5871382 1.2356778
5.2656155 4.5937858 1.2256778
5.274641 4.6053238 1.2190733
5.2503576 4.5986099 1.2248261
5.2623377 4.6113701 1.2181364
5.2399716 4.6267118 1.2246516
5.2436647 4.6213193 1.2243797
5.2275162 4.6382008 1.2224288
5.2196603 4.650351 1.2361628
5.224257 4.641458 1.2337896
5.2183704 4.6491532 1.2280772
5.209703 4.6603093 1.2216611
5.1910253 4.6668816 1.2194409
5.1857328 4.6755714 1.223174
5.186183 4.682653 1.2323431
5.179934 4.6937909 1.2295386
5.1801896 4.6950531 1.2340353
5.1601634 4.7066092 1.2281164
5.1581759 4.7167611 1.2270594
5.2928281 4.8488331 1.1803263
5.2819991 4.8508296 1.1835223
5.2854466 4.8706412 1.1706133
5.2824683 4.8782678 1.1770245
5.2772593 4.887104 1.1848829
5.2557735 4.8829041 1.1725891
5.2634463 4.8989773 1.184208
5.2483044 4.9018388 1.1698738
5.237649 4.9112172 1.1798893
5.2410641 4.9251614 1.1728597
5.2234125 4.9174051 1.1798532
5.2285213 4.9255753 1.181465
5.2168164 4.9439597 1.1755195
5.2121921 4.9461422 1.1698408
5.1939688 4.9499021 1.1856489
5.2035937 4.9589729 1.1699163
5.1809149 4.9625239 1.1829259
5.1898451 4.9777498 1.171476
-1.1453311 -3.8967764 1.9756805
-1.1409283 -3.8989744 1.9757572
-1.1201991 -3.899215 1.9719745
-1.1312534 -3.9078028 1.9686457
-1.1209341 -3.907455 1.9638158
-1.1185305 -3.9003849 1.9773504
-1.1077657 -3.911443 1.9769124
-1.1027927 -3.9055383 1.9780706
-1.0938675 -3.9093258 1.9718667
-1.0875548 -3.9027181 1.9768212
-1.0928155 -3.9001379 1.9636381
-1.0720764 -3.9185987 1.9698581
-1.0712584 -3.9217763 1.9774311
-1.074221 -3.9214563 1.9780021
-1.0605104 -3.9162676 1.9604992
-1.0516274 -3.9141278 1.9716369
-1.0492079 -3.9266779 1.9732795
-1.0472243 -3.9197121 1.962382
-1.0440804 -3.9292803 1.9692447
-1.0271382 -3.9179969 1.9642553
-1.0252396 -3.9174378 1.9633785
-1.016522 -3.9216049 1.9655658
-1.0215826 -3.9304218 1.9660926
-1.0190681 -3.9276712 1.9684489
-1.0159806 -3.9366817 1.9774958
-1.0103941 -3.9222832 1.9701768
-0.99366784 -3.9309413 1.9717941
-0.99529707 -3.943094 1.9618562
-0.98782182 -3.937583 1.9638214
-0.97348183 -3.9406118 1.9785335
-0.98412925 -3.9472265 1.9752607
-0.97565156 -3.9306097 1.9692689
-0.96498477 -3.9445419 1.9759009
-0.95378923 -3.9414501 1.9667164
-0.9602356 -3.9407628 1.9699466
-0.9376331 -3.9399834 1.9689927
-0.94234776 -3.947974 1.9607905
-0.94544315 -3.9430919 1.9618379
-0.93847466 -3.9562347 1.9697908
-0.9295392 -3.9405396 1.9761016
-0.92588979 -3.9609962 1.977177
-0.90551132 -3.9584808 1.9762404
-0.91112286 -3.9508066 1.9627352
-0.91010064 -3.9574466 1.973678
-0.89826113 -3.9560444 1.9666562
-0.88318968 -3.9575534 1.9617546
-0.88907033 -3.9692924 1.9701952
-0.88315141 -3.9696438 1.964843
-0.87618339 -3.9685462 1.9676656
-0.86126071 -3.9640336 1.9674927
-0.86002547 -3.9613945 1.9681654
-0.85771322 -3.9639015 1.9726478
-0.85633594 -3.9575462 1.9660909
-0.8484621 -3.975697 1.9741729
-0.84964383 -3.9675381 1.9649283
-0.83784556 -3.9698393 1.9754379
-0.8309474 -3.9635549 1.9754643
-0.81560695 -3.9768863 1.9763869
-0.82561702 -3.968787 1.9796475
-0.81280303 -3.9713032 1.968653
-0.80016023 -3.9781249 1.9615222
-0.80684304 -3.9681761 1.9731014
-0.789042 -3.9823937 1.972245
-0.79779613 -3.9742832 1.9744393
-0.7784667 -3.9729013 1.965986
-0.7883805 -3.98527 1.9764174
-0.76778305 -3.9762907 1.9743116
-0.76715767 -3.9775231 1.9800446
-0.76560819 -3.9943192 1.9750397
-0.76079655 -3.9838567 1.9686732
-0.74697793 -3.9863081 1.9766322
-0.74028862 -3.9810009 1.9756793
-0.7420187 -3.9834526 1.9616401
-0.74460369 -4.0002198 1.9768355
-0.72499305 -3.9832213 1.9745287
-0.73383409 -4.0017009 1.9609613
-0.71224231 -3.9851496 1.9774737
-0.71275491 -3.9935405 1.9738463
-0.70753312 -3.9859514 1.9745077
-0.70731485 -3.9991214 1.9667087
-0.69346172 -4.004045 1.9775276
-0.69164819 -4.0078535 1.9747152
-0.69078618 -3.9989669 1.9705049
-0.68396199 -3.9982424 1.9705728
-0.68194109 -4.0034852 1.9686776
-0.66222572 -4.003149 1.9693331
-0.65607631 -4.0068016 1.9675623
-0.65341318 -3.9965496 1.9784154
-0.65437621 -4.0066595 1.9778644
-0.65467656 -4.0021367 1.9651425
-0.64277458 -4.0093474 1.9684881
-0.64005244 -4.0003328 1.9690089
-0.62014145 -4.0160451 1.9793918
-0.6244396 -4.0105243 1.9714671
-0.62866849 -4.008575 1.9792596
-0.61479133 -4.0125036 1.9683408
-0.60025752 -4.0158772 1.9747133
-0.60749328 -4.0221844 1.9722744
-0.6038748 -4.0150514 1.9606543
-0.58080614 -4.0138178 1.9744779
-0.59045821 -4.0062823 1.9620038
-0.57676351 -4.0216255 1.9794499
-0.58254683 -4.0226607 1.9620807
-0.57794607 -4.0135975 1.9711219
-0.56126887 -4.0143681 1.9629945
-0.5567981 -4.0268674 1.9718122
-0.54324508 -4.0104408 1.9781222
-0.54331845 -4.0268583 1.9789835
-0.54582953 -4.0252676 1.9678278
-0.53995973 -4.0262189 1.9787484
-0.52026528 -4.0224342 1.9780394
-0.5330438 -4.0305686 1.9628136
-0.50837523 -4.0301003 1.9673721
-0.52107483 -4.0306473 1.9618047
-0.50473219 -4.0201335 1.9762701
-0.49651605 -4.030767 1.9790312
-0.49948111 -4.0334659 1.9790065
-0.49613526 -4.0218587 1.963344
-0.49192712 -4.0383835 1.9700443
-0.47887364 -4.0346608 1.9765571
-0.47489867 -4.0368667 1.9676107
-0.4716318 -4.0374756 1.9712784
-0.46358973 -4.039041 1.9761546
-0.45098832 -4.0389328 1.9612166
-0.44395331 -4.0281091 1.9775169
-0.44245204 -4.0346975 1.9639007
-0.43818879 -4.0298805 1.9682943
-0.43394932 -4.027348 1.9649962
-0.42537153 -4.0262384 1.9658664
-0.43009266 -4.0377078 1.9711449
-0.40829998 -4.0308356 1.9748946
-0.41545296 -4.0463305 1.9787052
-0.39893743 -4.0394187 1.9616119
-0.39754492 -4.0455413 1.9652808
-0.39108965 -4.0302658 1.9604193
-0.38833323 -4.0391273 1.9696074
-0.3791922 -4.0493636 1.9642426
-0.38565692 -4.0410004 1.9620327
-0.37541893 -4.0496998 1.9615464
-0.36430991 -4.0487618 1.9701973
-0.36792177 -4.0516729 1.9663191
-0.34778309 -4.04738 1.9675364
-0.34383315 -4.0522156 1.9762487
-0.33697587 -4.0413032 1.9794132
-0.34644905 -4.0495806 1.9784201
-0.340783 -4.0407481 1.969125
-0.32592821 -4.0484214 1.9701446
-0.31643754 -4.0482073 1.9800708
-0.30915618 -4.0434031 1.9618331
-0.30236033 -4.0531397 1.9650612
-0.30691302 -4.0521379 1.9658977
-0.29534337 -4.0566483 1.9715387
-0.28255564 -4.0428596 1.9728482
-0.28105512 -4.0478659 1.965566
-0.27638954 -4.0479984 1.9704944
-0.27271649 -4.0481181 1.9647355
-0.27833796 -4.0590372 1.9717755
-0.26293933 -4.0461202 1.9794941
-0.25761396 -4.0515771 1.9724729
-0.25052577 -4.0558944 1.9761639
-0.24020903 -4.0504208 1.9612973
-0.24905528 -4.0590348 1.9623531
-0.23226 -4.0605192 1.9776223
-0.23415476 -4.0461612 1.9683019
-0.22333117 -4.0527968 1.9792583
-0.22757877 -4.061419 1.9704961
-0.21758486 -4.0613222 1.971208
-0.20055051 -4.0514879 1.9652221
-0.19579713 -4.0619898 1.9741566
-0.19806452 -4.0510645 1.9791433
-0.19664057 -4.0554852 1.9699649
-0.19008288 -4.0544147 1.9725261
-0.18246891 -4.062212 1.9739486
-0.17958543 -4.0575676 1.9700668
-0.16602196 -4.0477643 1.9798791
-0.1615018 -4.0478725 1.9613914
-0.14574352 -4.0636525 1.9633142
-0.14927296 -4.0480633 1.9753772
-0.13878793 -4.0533867 1.9772369
-0.13936813 -4.0466437 1.9703118
-0.13496138 -4.0641437 1.9792484
-0.11973272 -4.0607529 1.96953
-0.12194268 -4.0554156 1.9722806
-0.12272982 -4.0528631 1.9799339
-0.10739855 -4.0624146 1.9776415
-0.10225461 -4.0531149 1.9754829
-0.095598146 -4.0537257 1.9777795
-0.087018825 -4.0635352 1.9758921
-0.086376272 -4.0485291 1.9689001
-0.083873853 -4.0597734 1.9688619
-0.068296373 -4.0522804 1.971527
-0.063782059 -4.0552297 1.9777778
-0.068986006 -4.0660591 1.9695531
-0.05143917 -4.0633469 1.9640605
-0.046238896 -4.0509744 1.9691874
-0.043330986 -4.0591297 1.9637774
-0.042581394 -4.0662994 1.9779119
-0.039535135 -4.0505624 1.9623846
-0.038376272 -4.0598545 1.9620029
-0.024209328 -4.0523162 1.9705089
-0.010080444 -4.054873 1.9666313
-0.013286459 -4.058588 1.9799204
-0.010241549 -4.0531793 1.9624878
0.0045786831 -4.0558972 1.9678675
-0.0060936706 -4.0590873 1.9657116
0.0083608292 -4.065043 1.9754848
0.017405318 -4.055922 1.9781642
0.020584403 -4.0494285 1.976649
0.02823611 -4.0674491 1.9659021
0.035506066 -4.0569763 1.9627458
0.031281952 -4.0580482 1.977077
0.043180168 -4.0679998 1.9677299
0.048367485 -4.0605803 1.9638196
0.056122128 -4.064014 1.9772124
0.069256358 -4.0637937 1.9674276
0.060234617 -4.0547929 1.971692
0.080986001 -4.0624208 1.9650741
0.084416524 -4.0525436 1.9649388
0.0863318 -4.060689 1.9667637
0.097500026 -4.0672374 1.9790345
0.085511722 -4.0636835 1.9701984
0.10785456 -4.0539055 1.9713678
0.10085005 -4.0646133 1.9799063
0.10993512 -4.0532398 1.9649522
0.11241277 -4.0544057 1.9701518
0.12510537 -4.0502663 1.9642776
0.12206211 -4.0510488 1.9706926
0.13240069 -4.0540738 1.9668944
0.1426038 -4.0608563 1.9748529
0.15463164 -4.0621433 1.9761565
0.15892996 -4.0610914 1.9608995
0.1543919 -4.0633688 1.9752986
0.17102303 -4.0583234 1.9788598
0.17619227 -4.0498643 1.9736564
0.16640715 -4.0646 1.9671413
0.1818212 -4.0523143 1.9646114
0.19136079 -4.0487437 1.9611374
0.18731511 -4.0605054 1.9744686
0.1994708 -4.0477352 1.9608396
0.19958462 -4.0486078 1.9657379
0.20100163 -4.0508523 1.9714949
0.20716126 -4.0633049 1.9747727
0.22771966 -4.0447965 1.9628869
0.23183887 -4.0467887 1.9792427
0.23075418 -4.0442348 1.9606376
0.24315391 -4.0519361 1.9740849
0.23302342 -4.0557666 1.9708618
0.23941842 -4.0493107 1.975628
0.25914419 -4.0563669 1.9729075
0.26524052 -4.0489774 1.9690498
0.25623468 -4.0458374 1.9626746
0.27298525 -4.0422053 1.9635658
0.27301317 -4.0436807 1.9626768
0.28115481 -4.0467029 1.9794993
0.28565156 -4.0564756 1.9785709
0.29154277 -4.0395136 1.969629
0.29088065 -4.0583467 1.9765366
0.30699497 -4.0564494 1.9695716
0.30787489 -4.0404897 1.9752141
0.30603379 -4.0440969 1.9679023
0.32033432 -4.0423732 1.9633781
0.32825899 -4.049561 1.9621265
0.33707428 -4.0423832 1.9790316
0.34499994 -4.0527244 1.9725385
0.34974745 -4.04423 1.9758892
0.35356602 -4.0355043 1.9758103
0.34844202 -4.0531011 1.9764987
0.37022483 -4.0402422 1.9786773
0.365042 -4.0521617 1.9764
0.36550096 -4.0515809 1.9700922
0.37864736 -4.0423565 1.9650769
0.3872689 -4.0508642 1.9724349
0.39463809 -4.0362129 1.9665239
0.39891157 -4.0392914 1.9698167
0.39669123 -4.0432773 1.9611412
0.39782083 -4.049099 1.9607204
0.41887078 -4.0456982 1.9622247
0.4206084 -4.0461674 1.9761014
0.42452377 -4.0374713 1.977564
0.42616114 -4.0339684 1.9791052
0.44148976 -4.0429697 1.9693607
0.43180239 -4.0289993 1.9705902
0.44947204 -4.0333095 1.9659451
0.46122995 -4.0389943 1.9776876
0.45627975 -4.032548 1.9649024
0.46265316 -4.0306187 1.9657459
0.46860495 -4.0332861 1.9694327
0.47606018 -4.0398612 1.9720849
0.47739115 -4.0281658 1.9628593
0.48018372 -4.0404768 1.9765557
0.48451671 -4.0231028 1.9606618
0.49910417 -4.0210581 1.978141
0.49492022 -4.0269852 1.9707053
0.50609016 -4.0267954 1.9769716
0.50900161 -4.0371952 1.9690639
0.51912689 -4.0268607 1.9624568
0.53009468 -4.0362124 1.972546
0.52474833 -4.023746 1.9754155
0.54205298 -4.0155849 1.9693283
0.5501312 -4.0302668 1.9702697
0.55190474 -4.0262494 1.9679173
0.55778331 -4.0132785 1.9669337
0.56114 -4.0301242 1.9793392
0.55705994 -4.021431 1.971243
0.57924515 -4.0154572 1.9720474
0.57352155 -4.0249877 1.962479
0.58118969 -4.0091791 1.9628437
0.57894588 -4.0243444 1.9749515
0.59957051 -4.0078316 1.9744897
0.59410673 -4.0088658 1.9786073
0.6095832 -4.0137515 1.9659953
0.60270625 -4.0183821 1.9655998
0.61484456 -4.0052781 1.9675963
0.61938709 -4.0218759 1.9775155
0.63583225 -4.0219083 1.9726304
0.63308066 -4.0132837 1.9774288
0.64075935 -4.0026093 1.9772421
0.64880145 -3.9997954 1.9610884
0.64895028 -4.0019727 1.960638
0.64863598 -4.0152287 1.9783356
0.6524381 -3.9986215 1.9703224
0.66362691 -4.014504 1.9768457
0.67441887 -4.003859 1.9756318
0.66720611 -4.0142817 1.9769716
0.68991125 -3.9938686 1.977422
0.68772995 -4.0018144 1.9656326
0.69034582 -4.007688 1.9636453
0.69277364 -3.9911246 1.9635918
0.69904643 -4.0000167 1.9604728
0.70486742 -3.9948256 1.9632022
0.70838463 -3.9914339 1.961635
0.72388726 -4.0024538 1.9632739
0.72591186 -3.9882805 1.9746381
0.72672117 -3.986918 1.9746525
0.72886884 -3.9884465 1.9741453
0.7514655 -3.9977515 1.9647496
0.74227124 -3.9900341 1.9685296
0.75108838 -3.9854815 1.9679143
0.75985044 -3.9802473 1.9774411
0.7654922 -3.9947817 1.9711846
0.77386177 -3.9913874 1.9673378
0.7806626 -3.9780774 1.9714817
0.78910089 -3.9883285 1.968801
0.78890187 -3.9833543 1.9664778
0.78871572 -3.9818156 1.9616128
0.80802089 -3.9832613 1.9664221
0.79792869 -3.9794812 1.9779197
0.81161499 -3.9724627 1.9729334
0.82468456 -3.982259 1.9721371
0.82727921 -3.9719894 1.975754
0.82361585 -3.9789243 1.9617054
0.83610415 -3.9846311 1.9798992
0.83273458 -3.9674706 1.9667664
0.84668285 -3.9760787 1.9775243
0.85830617 -3.9704413 1.9687301
0.86506295 -3.9710653 1.9773911
11.221145 -0.75882459 0.13066076
11.035574 -0.73040515 0.18899149
10.653417 -0.68137902 0.27831492
10.451968 -0.66012996 0.34298542
10.455783 -0.64579213 0.32736787
10.445505 -0.6294564 0.3338033
10.454806 -0.62634128 0.34669644
10.644363 -0.62280726 0.28697157
10.648394 -0.60839117 0.29454061
10.660214 -0.58748966 0.28805703
10.655352 -0.56409162 0.27962822
10.658051 -0.55398858 0.29094997
10.649555 -0.54035252 0.2904247
10.651355 -0.53575689 0.28382674
10.6483 -0.50827581 0.29698628
10.649607 -0.49198115 0.29189992
10.657329 -0.48727465 0.29534581
10.657923 -0.46731979 0.27913427
10.648274 -0.44419882 0.2824834
10.666175 -0.43009987 0.29187745
10.657572 -0.42168602 0.28981182
10.660519 -0.41137454 0.28299031
10.654766 -0.39033887 0.29494488
10.668468 -0.38826367 0.29663402
10.655551 -0.36998257 0.2909421
10.655772 -0.35111314 0.28668174
10.670887 -0.32522002 0.29226375
10.669427 -0.31941006 0.28293553
10.671735 -0.30390412 0.28186223
10.657371 -0.29113317 0.28002098
10.672379 -0.26758078 0.29172578
10.665302 -0.26167586 0.27887341
10.671382 -0.24209665 0.29218727
10.669396 -0.22936843 0.2927061
10.669079 -0.21008925 0.296635
10.663049 -0.19109955 0.2845616
10.672738 -0.17748573 0.2835089
10.667988 -0.16580191 0.29339305
10.673889 -0.15225969 0.28390941
10.658696 -0.13350993 0.29232237
10.66164 -0.12015864 0.28941277
10.67627 -0.11427148 0.27753261
10.658026 -0.10266996 0.29035562
10.673074 -0.073399551 0.28103033
10.668621 -0.064771168 0.29610723
10.668077 -0.042476725 0.29529643
10.675437 -0.030776624 0.29322159
10.661724 -0.024088895 0.28795236
10.657875 -0.011741794 0.2813468
10.684135 0.0071663256 0.35657439
10.679172 0.026871648 0.3723118
10.691277 0.041026514 0.35905692
10.691481 0.056778532 0.36252388
10.684487 0.067441531 0.36038134
10.688148 0.093534306 0.37198713
10.686865 0.098985732 0.37100714
10.68475 0.11172238 0.36684692
10.680539 0.13069151 0.37449399
10.691038 0.14577724 0.35960767
10.694911 0.16749592 0.36677399
10.696028 0.16426045 0.35873774
10.692863 0.19316122 0.36994845
10.67642 0.20231803 0.36200336
10.683425 0.22455387 0.36981353
10.688266 0.23054342 0.36880887
10.684691 0.25536355 0.35834813
10.680117 0.25820345 0.36571676
10.691361 0.27698824 0.35714743
10.690231 0.28644866 0.36875695
10.674195 0.29997912 0.36717856
10.685304 0.31484491 0.36745837
10.688355 0.34678337 0.36173296
10.682597 0.36253959 0.37025872
10.688873 0.36558053 0.36611506
10.682939 0.37376359 0.37305608
10.675978 0.39869457 0.36991283
10.678536 0.41939342 0.37470549
10.688442 0.43169987 0.36337948
10.669758 0.443261 0.36661097
10.682663 0.45919043 0.36847052
10.673968 0.46665448 0.37029403
10.685533 0.47761682 0.36915481
10.67135 0.50328821 0.36887127
10.665673 0.51572341 0.35672876
10.675833 0.52273273 0.35787016
10.672912 0.54331136 0.36904404
10.666826 0.56699854 0.36601904
10.665513 0.58116299 0.36040357
10.672853 0.5972352 0.37145311
10.663404 0.60682476 0.36353683
10.675794 0.62835318 0.36819017
10.669986 0.64210027 0.36891237
10.663017 0.6423406 0.36041337
10.675746 0.65759993 0.36945799
10.65631 0.68373454 0.37062129
10.657995 0.68768543 0.35747361
10.670834 0.70630932 0.37312457
10.660626 0.72439885 0.36805248
10.664783 0.73062795 0.3641662
10.659967 0.74822807 0.37498423
10.667215 0.77905875 0.3724466
10.659097 0.78494352 0.36877316
10.651678 0.80474305 0.37045842
10.655741 0.81817383 0.37252259
10.648827 0.83309335 0.36584222
10.663055 0.85064286 0.36823487
10.644115 0.86199629 0.37437493
10.660807 0.86412859 0.36372933
10.652404 0.89142424 0.36443907
10.640095 0.89493281 0.36787662
10.658583 0.92673796 0.36727399
10.654512 0.93149304 0.3576867
10.646748 0.94992012 0.37303111
10.640648 0.9535203 0.36693993
10.636591 0.97133803 0.3609035
10.839143 1.0024009 0.30946681
10.830731 1.0181026 0.32260859
10.82844 1.0316885 0.32302275
10.835481 1.0580863 0.31587437
10.823211 1.0734097 0.31737807
10.834357 1.0884768 0.31583217
10.82488 1.1007499 0.32418832
10.825794 1.1065555 0.31612042
10.822032 1.1275789 0.31680328
10.812158 1.1458842 0.32045642
10.816225 1.1547909 0.32246259
10.816922 1.1766918 0.32505691
10.81074 1.1977268 0.32612544
10.824949 1.2072504 0.31848219
10.811991 1.2259722 0.3110548
10.820515 1.2373297 0.323589
10.807471 1.2607204 0.31329289
10.802763 1.2665567 0.31370112
10.809966 1.2901833 0.32003364
10.797831 1.3055087 0.30957451
9.0592375 2.9407108 0.6484586
9.0574884 2.9525018 0.6441915
9.0574713 2.9719498 0.65898651
9.052803 2.9935613 0.65747374
9.0391607 2.9997635 0.65634984
8.8461313 2.9477243 0.70249754
8.8500509 2.9550686 0.7088365
8.8523493 2.9830487 0.7018348
8.8421659 2.9970038 0.69997936
8.8384247 2.9997702 0.69547957
8.8336229 3.0043514 0.69674253
8.6504335 2.9684732 0.7452541
8.6467361 2.9792633 0.75250441
8.6378174 2.9895277 0.7487489
8.6273689 2.99031 0.75858426
8.6357803 3.0064487 0.74505103
8.4389887 2.9665191 0.79460603
8.4318562 2.9768562 0.79171789
8.437705 2.9811542 0.79045373
8.4216814 2.9858723 0.79963076
8.4211426 3.0099671 0.80106974
8.4218502 3.0187566 0.79713404
8.240263 2.962343 0.84002382
8.2287054 2.9665279 0.85304588
8.2133751 2.9844232 0.85481054
8.2278652 2.994904 0.84068024
8.2088051 3.0160325 0.83869046
8.2111979 3.0141468 0.85527134
8.0285397 2.9550867 0.8924762
8.0268421 2.97106 0.89455777
8.0143061 2.9906631 0.88898522
8.0031939 2.995158 0.90045917
8.0081291 3.0049703 0.88941318
8.0078526 3.0273499 0.89107579
7.8190055 2.9698589 0.94724947
7.8135805 2.9794445 0.93435293
7.8140101 2.9941442 0.95112574
7.8124347 2.9954264 0.93455994
7.8074255 3.0004029 0.93464571
7.7915187 3.0078099 0.93951803
7.7976785 3.026824 0.93281186
7.617353 2.9684303 0.98751187
7.6094828 2.9893486 0.99276781
7.5905514 2.9941807 0.98923975
7.5932679 2.9959486 0.98574537
7.5840564 3.016417 0.98093796
7.581934 3.0214555 0.99993736
7.5765696 3.0290744 0.9893319
7.394424 2.9636359 1.0409086
7.3926511 2.9784439 1.04093
7.3957362 2.9836133 1.0290962
7.3921003 2.993571 1.0384592
7.3750639 3.0197916 1.0381352
7.3832688 3.0312283 1.0320439
7.3679314 3.0295444 1.037127
7.189599 2.9688504 1.0801772
7.1860347 2.9839518 1.0895976
7.1814556 2.9978957 1.0960606
7.1862569 2.9941163 1.0787338
7.1745348 3.0126996 1.0859022
7.1628199 3.0185175 1.0879331
7.1592569 3.0248642 1.0896207
7.1650434 3.038353 1.0872335
6.9718437 2.9682629 1.1340803
6.971293 2.9827702 1.1408731
6.975812 2.9826529 1.1306705
6.9552813 3.003104 1.1255481
6.9641571 3.0031223 1.1443541
6.9594822 3.0121031 1.1293713
6.9574671 3.0335357 1.1429679
6.9426069 3.0474422 1.1323845
6.7719755 2.964021 1.1862425
6.7609162 2.9883218 1.1755161
6.7674561 2.9823015 1.1806962
6.7527432 2.9998686 1.1906585
6.7448101 3.0061064 1.1907842
6.7466612 3.0159783 1.1816475
6.7433763 3.0389051 1.1828219
6.7388849 3.0413494 1.1832751
6.739397 3.0459845 1.1754652
6.5566983 2.9797838 1.2399584
6.5403099 2.9849215 1.221227
6.5496802 3.0031369 1.2373666
6.5483112 3.0120428 1.2380614
6.5321097 3.0103996 1.2269052
6.5258574 3.0250001 1.2325742
6.5197186 3.0256414 1.2387087
6.5244303 3.0472014 1.238369
6.510304 3.0484858 1.2310787
6.3408442 2.9721017 1.2871212
6.3394508 2.9762208 1.2796882
6.3344517 2.9880953 1.2882625
6.330709 2.9934959 1.2859277
6.3230934 3.0216966 1.2833802
6.3161602 3.0178773 1.2700764
6.3180585 3.0320005 1.2822661
6.3056135 3.0441916 1.285996
6.2992911 3.0453143 1.2821904
6.2926164 3.0565424 1.2705801
6.1240335 2.9734733 1.323999
6.1181188 2.9977658 1.3246183
6.1047587 3.0012143 1.3282856
6.0999618 3.0050869 1.3285331
6.1128173 3.0055234 1.3281664
6.1031141 3.0232189 1.3351717
6.1000948 3.0270166 1.327497
6.0892534 3.0425861 1.3232164
6.0821304 3.0560615 1.3312674
6.0911899 3.0471032 1.3217611
6.0886269 3.0684206 1.3252629
6.0713844 3.0679703 1.3245274
6.0747499 3.0783184 1.3187164
6.0617704 3.0880399 1.3282599
6.0690265 3.0947998 1.3297279
6.0559044 3.11605 1.320385
6.0497756 3.1184876 1.3263394
6.0559607 3.1143017 1.3193685
6.0378532 3.1272223 1.3173844
6.0477848 3.1334441 1.3179591
6.0281982 3.1413562 1.3313746
6.0321021 3.1562915 1.3358687
6.0352588 3.1588688 1.3222461
6.0325923 3.172756 1.3298861
6.0194578 3.1781998 1.335833
6.0077796 3.1948338 1.3345833
6.0067468 3.2096632 1.3273304
6.0116568 3.2150137 1.3274566
6.009584 3.2066042 1.3320748
6.0055156 3.232486 1.334492
5.9820104 3.2431529 1.3364049
5.9919086 3.2421062 1.3248427
5.9862895 3.2486107 1.3274536
5.9870362 3.2568555 1.3355534
5.9754109 3.2763836 1.3207051
5.9697213 3.2686636 1.334105
5.9627705 3.2843523 1.3339548
5.9685545 3.2894039 1.3307818
5.9544535 3.2968476 1.3308322
5.9449592 3.3046994 1.3284037
5.9378705 3.3135338 1.3282872
5.9326835 3.3167665 1.3187759
5.9359221 3.3388915 1.327427
5.9417605 3.3462861 1.3359871
5.9356866 3.3465903 1.3357462
5.9147534 3.3657513 1.3194622
5.9272084 3.3625188 1.3305502
5.9195018 3.3696404 1.3183794
5.9086103 3.3872418 1.3253485
5.897758 3.3999414 1.3318719
5.9044657 3.3901567 1.3189387
5.8910456 3.3998003 1.3209537
5.8881025 3.41731 1.3368155
5.8937988 3.4252968 1.3318002
5.8880439 3.4318604 1.3188242
5.8820372 3.4421525 1.3367501
5.8797345 3.4495728 1.3231918
5.8685083 3.4539711 1.3285093
5.8651004 3.4721749 1.3231893
5.8486495 3.4642341 1.3223366
5.8587112 3.4877205 1.3234732
5.8558283 3.4825172 1.3260342
5.8349485 3.4991131 1.3178923
5.8299193 3.5061591 1.3295312
5.8398638 3.5122156 1.3195344
5.8368206 3.5170414 1.3316369
5.8316922 3.524353 1.3229737
5.812994 3.5452375 1.3305298
5.819602 3.5475249 1.3281171
5.800879 3.5581839 1.3295977
5.8012915 3.5637379 1.3264056
5.8028297 3.5712538 1.3298579
5.7869172 3.5827465 1.3217605
5.7828522 3.5940778 1.3325707
5.7904143 3.6002324 1.3213053
5.7679682 3.6082339 1.3267409
5.7776136 3.616009 1.3313695
5.7585845 3.6099987 1.3287715
5.7671008 3.6355207 1.3203562
5.7531924 3.6272552 1.3345025
5.7607541 3.6443491 1.3261119
5.7451119 3.6479392 1.3171536
5.7329111 3.6605864 1.331611
5.7326016 3.6741488 1.32933
5.7230916 3.6802654 1.3251405
5.7223043 3.6889391 1.3208969
5.7269421 3.6922727 1.3363792
5.716197 3.7016029 1.3178095
5.7028427 3.7044857 1.336727
5.7010622 3.7185085 1.3193511
5.6934171 3.725152 1.3310484
5.6973701 3.7212236 1.3183221
5.6923532 3.7301762 1.3302364
5.6817832 3.743912 1.3277137
5.6889215 3.7532411 1.3233154
5.6718583 3.7668984 1.3196057
5.6705413 3.7703192 1.3312515
5.6646953 3.7681322 1.3242567
5.6602683 3.7777393 1.3321811
5.654748 3.7907255 1.3261718
5.6518407 3.8012366 1.3188567
5.6406198 3.8008823 1.3196714
5.6366615 3.8207042 1.3215039
5.6246066 3.8151598 1.3291446
5.6300182 3.8419681 1.3181944
5.6310205 3.8369393 1.3329885
5.6083021 3.85583 1.3232979
5.6172185 3.8541224 1.323522
5.5991292 3.8732469 1.3254625
5.608953 3.8721211 1.3325055
5.5927572 3.8733687 1.3221835
5.5892353 3.8886871 1.3236384
5.5865173 3.9053502 1.3170542
5.5856204 3.895272 1.3170714
5.5723538 3.91593 1.3360505
5.5681262 3.9229259 1.3221618
5.558682 3.93255 1.3193321
5.559536 3.9364479 1.3269709
5.5606036 3.9476247 1.3259175
5.5436006 3.954005 1.3359292
5.5336299 3.9495795 1.3193868
5.5333261 3.9670331 1.330369
5.5344667 3.9671805 1.3302277
5.5290127 3.971854 1.3322295
5.5235648 3.9886942 1.327118
5.5170856 3.9867513 1.3212388
5.5167065 4.0008192 1.3172275
5.4934874 4.0212069 1.3293656
5.4978962 4.0281391 1.3249398
5.4812407 4.0235562 1.3191613
5.4945865 4.0345006 1.321232
5.4713788 4.0506506 1.3330384
5.4791431 4.0534616 1.3172822
5.4667554 4.0563483 1.3184972
5.4563589 4.059329 1.3288579
5.4608402 4.0813828 1.3295889
5.4594316 4.0886197 1.3367085
5.4540009 4.0782113 1.336545
5.4406981 4.097796 1.3356502
5.4429588 4.1063199 1.3225166
5.4194303 4.1137953 1.3326797
5.4179621 4.1236792 1.3313531
5.4082894 4.1269546 1.3252051
5.4028506 4.1234794 1.3343199
5.3986158 4.1352558 1.3187993
5.4047313 4.1571722 1.3177235
5.3915672 4.1633496 1.3362845
5.3855124 4.169776 1.3368446
5.3792834 4.1685905 1.3294045
5.372149 4.1753664 1.3229117
5.371871 4.1843257 1.3363256
5.3617454 4.1975384 1.332063
5.3502827 4.2068119 1.3235228
5.3526616 4.2163892 1.3239628
5.3441448 4.2074857 1.3286427
5.3400974 4.2304616 1.3277105
5.3349633 4.2260485 1.3254349
5.3283801 4.2413654 1.3220737
5.3223467 4.2362494 1.3300225
5.3088627 4.249805 1.3172508
5.3088756 4.2688994 1.3259503
5.3022923 4.2636952 1.3203828
5.2914357 4.2728658 1.336617
5.2920284 4.2902632 1.3349648
5.2930512 4.2850022 1.3369535
5.2787437 4.3015623 1.3344711
5.2834935 4.2988672 1.3201364
5.2659574 4.3154788 1.333688
5.2650499 4.3119564 1.3347009
5.2520809 4.3208604 1.3218555
5.2463303 4.3356977 1.3206983
5.2492685 4.3498821 1.326939
5.2466297 4.3391509 1.3349608
5.2402143 4.3549643 1.3329989
5.2321367 4.3577619 1.3184032
5.2260375 4.3722239 1.3330033
5.2174459 4.3774176 1.3175524
5.2145095 4.391068 1.3313653
5.2051144 4.3898134 1.3343167
5.196722 4.4016032 1.3188409
5.1954741 4.4136648 1.3308797
5.193059 4.4146986 1.3297888
5.1768746 4.4191365 1.3306611
5.1687021 4.423213 1.3200495
5.1585574 4.4452753 1.3249469
5.1538072 4.4473128 1.3170259
5.290607 4.5736904 1.2789406
5.2848086 4.5765829 1.2753289
5.2928123 4.5961852 1.2832081
5.2837577 4.5935092 1.2756308
5.2792168 4.6157098 1.2728778
5.2667041 4.6216297 1.2839293
5.2530904 4.6175098 1.2721984
5.2603393 4.631372 1.2773319
5.2569656 4.6412539 1.2773248
5.2384796 4.6525602 1.2721604
5.2320623 4.6598907 1.27934
5.2356362 4.6477947 1.2820301
5.2155876 4.670085 1.2769488
5.2234087 4.669713 1.2818271
5.2036424 4.6712027 1.2815504
5.2011127 4.6865931 1.2798473
5.1896243 4.6947927 1.2866865
5.1863952 4.6966748 1.2800591
5.1882892 4.7016273 1.2759941
5.170166 4.7145476 1.2759246
5.1668682 4.7275147 1.2758842
5.1707406 4.7305298 1.2764549
5.3002877 4.8712821 1.223946
5.3015652 4.8752484 1.2318771
5.2877102 4.8859529 1.2340326
5.2735686 4.8806419 1.2243222
5.2777133 4.8903675 1.2355646
5.2686872 4.9033985 1.221451
5.2530231 4.9048686 1.2250612
5.253284 4.9147706 1.2343719
5.2534652 4.9279399 1.229439
5.2335958 4.9315567 1.24032
5.2342868 4.9483104 1.2334599
5.2305455 4.9531198 1.2231839
5.214725 4.9508629 1.236239
5.2210498 4.9612637 1.2366199
5.1976542 4.9626188 1.2393725
5.2054906 4.9817672 1.2278119
-1.1396164 -3.9027255 2.0071719
-1.1391068 -3.9062381 2.0015697
-1.1238559 -3.9133692 1.9934895
-1.1255406 -3.9011784 1.9986219
-1.1063571 -3.9052439 1.9919291
-1.104895 -3.9128361 1.9953796
-1.0986236 -3.914223 2.0062218
-1.097854 -3.9115021 2.0054235
-1.0835725 -3.9168117 2.0008407
-1.0844653 -3.9079347 1.9946262
-1.0867776 -3.922981 2.004282
-1.0843023 -3.9229736 1.9920216
-1.0674269 -3.9131737 1.9942189
-1.0586298 -3.9305189 1.9901882
-1.0646981 -3.9141433 2.0036654
-1.0574572 -3.9217703 1.9911163
-1.0467637 -3.9285932 1.9987386
-1.045226 -3.9201155 1.9906322
-1.0444845 -3.9228277 1.998759
-1.0283237 -3.931906 1.9972984
-1.0183754 -3.9287722 2.0023189
-1.0187694 -3.9286411 2.0088668
-1.0114217 -3.9371142 2.0067267
-1.0018746 -3.9422724 2.0087461
-0.99635613 -3.9389827 2.0086384
-0.99735862 -3.9339383 2.0023925
-0.99090821 -3.9436886 1.9908057
-0.99683356 -3.9373915 2.0091705
-0.99086338 -3.9358454 2.0062895
-0.97676438 -3.9436326 1.9957886
-0.9641242 -3.9469678 2.0098724
-0.96646154 -3.9561956 2.0055306
-0.96224904 -3.9435761 1.994151
-0.96017468 -3.9469118 1.9990413
-0.95607901 -3.9502335 2.0086412
-0.95208943 -3.9600639 2.004698
-0.9343437 -3.9489524 1.9924093
-0.92818296 -3.9492764 2.0078149
-0.92365563 -3.9491425 2.0061557
-0.92200756 -3.9604237 1.9980912
-0.91085851 -3.964581 2.0080652
-0.90562391 -3.9565935 2.0101776
-0.90472925 -3.9699132 2.0062683
-0.89521241 -3.9666805 2.0003738
-0.90080345 -3.9648759 1.9925008
-0.89679277 -3.964607 1.9961326
-0.87672347 -3.9721198 1.9922036
-0.86894119 -3.9790013 2.0092704
-0.8657518 -3.9668863 2.0077832
-0.86421967 -3.9786561 1.9963191
-0.85075039 -3.9648116 2.0019944
-0.84730542 -3.9712691 1.9969463
-0.84174639 -3.9823701 1.9998595
-0.84009504 -3.9694943 2.0072787
-0.84433645 -3.9677515 1.9977685
-0.83644921 -3.9875414 2.0097849
-0.82492852 -3.9728076 1.9955388
-0.81733525 -3.9758387 1.9956537
-0.81267351 -3.9812288 2.0091183
-0.80949748 -3.9906378 1.99204
-0.79778385 -3.9921293 2.0100253
-0.80039334 -3.9757299 2.0027645
-0.78804934 -3.9793272 2.0056064
-0.79279065 -3.9868305 2.0025198
-0.79011112 -3.984134 2.0023642
-0.77694029 -3.9991109 2.0035989
-0.7717514 -3.9881294 2.0007401
-0.76080716 -3.9951184 1.9960148
-0.76974648 -4.0030112 2.0070562
-0.74521965 -3.993295 2.0098383
-0.75776976 -3.9974339 1.9922699
-0.75233305 -3.9897525 1.9922346
-0.7341556 -3.9952991 2.0097277
-0.73313487 -3.9911602 2.0008359
-0.73519921 -3.9899168 1.9957507
-0.71741772 -4.0010791 1.996791
-0.71840018 -3.992631 2.0099077
-0.70224017 -3.9988177 1.997122
-0.71080387 -3.9995251 1.9975228
-0.70832473 -4.0012879 2.0087109
-0.6830622 -4.0011854 1.9968235
-0.69536668 -4.0012312 1.9936732
-0.68770522 -4.008687 2.0060241
-0.68254918 -4.00071 2.0035539
-0.66628367 -4.0003877 2.0033588
-0.65510207 -4.007875 1.9930261
-0.66287869 -4.0019379 1.9921583
-0.65753746 -4.0054345 2.0061123
-0.64498049 -4.0230908 2.00036
-0.65202153 -4.0238647 1.9938377
-0.62787318 -4.0249743 2.0084035
-0.63561094 -4.0239882 2.0039008
-0.62649781 -4.0209417 1.9929119
-0.62503254 -4.0183415 1.9908617
-0.60603637 -4.0250797 2.0100877
-0.60723382 -4.0262413 2.0027726
-0.59876287 -4.0207863 2.0023329
-0.59115863 -4.0155973 1.9993268
-0.58959913 -4.0234604 1.9995873
-0.59379083 -4.0239749 1.9999886
-0.58450365 -4.0259528 2.0001869
-0.58064944 -4.0212808 2.0022705
-0.56129688 -4.0331101 2.0082917
-0.57293195 -4.0290895 1.9977964
-0.56661618 -4.0316887 2.0014384
-0.56107324 -4.0211034 2.0047863
-0.54284441 -4.0276661 1.9944494
-0.5450542 -4.0322447 2.0101531
-0.53026897 -4.020885 1.9988378
-0.53522217 -4.0393395 2.0078442
-0.51977313 -4.0341306 1.9957014
-0.52412456 -4.0306921 2.0090508
-0.50639141 -4.0335269 1.9913836
-0.50263602 -4.0336242 1.998542
-0.50937504 -4.0330338 2.0038977
-0.49247104 -4.0325294 2.0006278
-0.49221811 -4.0394268 1.9915763
-0.48230115 -4.0341654 1.9987196
-0.47667938 -4.0397515 1.9979879
-0.48237199 -4.035924 1.9995592
-0.45905721 -4.0422821 2.0070891
-0.46788439 -4.0386276 1.9987993
-0.46336132 -4.0428767 2.0084083
-0.45650455 -4.0490079 1.9986464
-0.44248849 -4.0475168 1.990193
-0.44311577 -4.0347619 2.0029542
-0.42701215 -4.0473943 2.0095203
-0.4199591 -4.0357518 2.0020421
-0.42576194 -4.0441298 2.0096648
-0.41229564 -4.0438442 2.0017934
-0.41725719 -4.0458884 2.0082345
-0.41468793 -4.0424051 1.9989932
-0.40040773 -4.0400453 2.0061579
-0.39651766 -4.0564761 2.0078382
-0.38238877 -4.044539 1.9916489
-0.37671244 -4.038878 2.008846
-0.37827423 -4.0427637 1.9940339
-0.3732692 -4.0452471 1.9914802
-0.3557415 -4.059185 2.0011559
-0.35059044 -4.0453091 1.9917166
-0.35331005 -4.042048 2.0008252
-0.34958783 -4.0418715 1.9940008
-0.33510628 -4.0530705 2.0101123
-0.33345938 -4.0460348 1.9903611
-0.33013132 -4.0505266 2.0031073
-0.322992 -4.0549998 2.0020666
-0.31865489 -4.0466928 1.9976846
-0.30912918 -4.0590396 1.9913558
-0.30215663 -4.0595179 1.9916177
-0.30550787 -4.0605059 2.0062761
-0.29829758 -4.0498748 2.0047083
-0.28197813 -4.0611825 2.0038216
-0.29248253 -4.0636716 1.9922329
-0.28687489 -4.0501771 2.0081689
-0.28101787 -4.0590181 2.0000939
-0.2624141 -4.0663843 2.0080192
-0.26485056 -4.0550785 2.0047166
-0.25166839 -4.0599127 2.0095246
-0.24481452 -4.0634408 1.9943031
-0.23769824 -4.0559874 1.9985353
-0.23592299 -4.0669913 1.9938323
-0.235715 -4.0673437 1.9982468
-0.23639338 -4.06387 2.0005898
-0.2286599 -4.0604572 1.9968375
-0.22498995 -4.0568581 2.0046458
-0.20939453 -4.0603251 2.005482
-0.20587353 -4.0519004 1.9980096
-0.2056547 -4.0559645 2.0060809
-0.20062751 -4.058847 1.9909942
-0.19082129 -4.060286 2.0037234
-0.17678253 -4.0656228 2.0058026
-0.18744634 -4.0564256 2.0078757
-0.17369528 -4.0535803 1.9937613
-0.15760072 -4.0686765 2.0033896
-0.16525823 -4.0657778 1.9969399
-0.16510706 -4.0729589 2.0073373
-0.14411959 -4.062295 2.0064666
-0.15060411 -4.0570889 2.0018301
-0.12901694 -4.0725317 1.9946018
-0.14251618 -4.0638461 2.0062172
-0.12328613 -4.0667987 1.9927709
-0.1219764 -4.0660934 2.0087888
-0.11859335 -4.0573153 2.007911
-0.10932449 -4.0581212 1.9921879
-0.11042703 -4.0722632 1.9996067
-0.097979091 -4.0719337 2.0000796
-0.095133476 -4.0562963 1.9914436
-0.093158469 -4.0728235 2.0082333
-0.075819731 -4.0734439 2.0097911
-0.085709125 -4.0732436 2.0002382
-0.063982829 -4.0594945 2.0079281
-0.055702824 -4.0701165 1.9965107
-0.051404692 -4.0630369 1.9940512
-0.047984432 -4.0723701 1.9909575
-0.040287085 -4.0684872 1.993885
-0.045170709 -4.0578389 1.997298
-0.029581359 -4.0700269 1.996496
-0.022627929 -4.0659227 1.9993068
-0.018884754 -4.0701623 2.0016294
-0.013583661 -4.0699739 2.0042758
-0.017835349 -4.0737424 2.0007875
-0.014397232 -4.0749135 2.0067854
-0.0023763892 -4.0574703 1.999963
0.0071849595 -4.0622902 2.0038998
0.01365258 -4.0650964 1.9918033
0.02304781 -4.0584693 1.9904317
0.015855899 -4.0619373 1.9969401
0.027861992 -4.0641356 2.0076134
0.022678824 -4.068274 1.9940999
0.039818112 -4.0727959 2.000819
0.039603859 -4.0672536 2.0038061
0.055901363 -4.0639572 2.0056505
0.05819663 -4.0743237 2.0049589
