# .PCD v0.7 - Point Cloud Data file format
VERSION 0.7
FIELDS x y z
SIZE 4 4 4
TYPE F F F
COUNT 1 1 1
WIDTH 1548
HEIGHT 1
VIEWPOINT 0 0 0 1 0 0 0
POINTS 1548
DATA ascii
10.36162 -3.4633038 1.6293058
10.351193 -3.4520788 1.6264449
10.369491 -3.4317355 1.6290028
10.369803 -3.4296558 1.6255609
10.376957 -3.4142153 1.6308874
10.382095 -3.4003942 1.6323792
10.385561 -3.3867855 1.6360018
10.394653 -3.3704357 1.6294849
10.402856 -3.3444731 1.6328928
10.397156 -3.3381047 1.6373316
10.222342 -3.2662022 1.6545256
10.21721 -3.2503834 1.6633884
10.229197 -3.2410824 1.6581407
10.223721 -3.216264 1.6605122
10.234784 -3.2090678 1.6638572
10.231153 -3.1814892 1.6465496
10.248995 -3.1751802 1.6483701
10.250439 -3.1644933 1.6520535
10.245346 -3.1502981 1.6472056
10.243641 -3.1264784 1.6542259
10.266355 -3.1131756 1.6580855
10.261133 -3.109555 1.6635146
10.264755 -3.0984776 1.6639891
10.263108 -3.0773852 1.6550198
10.283814 -3.06972 1.6589783
10.287845 -3.0501554 1.6562411
10.274548 -3.0372 1.645532
10.283051 -3.0072308 1.6512228
10.295217 -3.0067649 1.6568156
10.493006 -3.0479178 1.6268196
10.487383 -3.0349379 1.6209302
10.485598 -3.0115297 1.6243498
10.509222 -3.0088305 1.6245295
10.704098 -3.0465467 1.6063685
10.699262 -3.033123 1.6066524
10.698363 -2.9999394 1.6121652
10.714707 -3.0043037 1.5962919
10.91142 -3.0377874 1.570931
10.902778 -3.009656 1.5767919
10.919708 -2.9984162 1.5826639
11.10305 -3.0496392 1.5617753
11.109235 -3.0340157 1.5547671
11.118817 -3.0189748 1.5558151
11.128557 -2.9840424 1.5589567
11.316835 -3.0297096 1.5354917
11.313836 -3.0087061 1.5353924
11.316328 -2.9955592 1.5359961
11.51475 -3.0316966 1.4964602
11.521143 -3.0097218 1.4949534
11.533374 -2.9950285 1.509469
11.723492 -3.0424192 1.4850205
11.72584 -3.0176845 1.4858084
11.741158 -3.0075879 1.4861349
11.929745 -3.0410604 1.4607767
11.929275 -3.0126648 1.4508685
11.930425 -3.0114956 1.4461763
12.143901 -3.040345 1.4337287
12.145577 -3.018208 1.4251727
12.132803 -2.9939098 1.4225187
12.909092 -3.171582 1.3180423
12.929543 -3.1642919 1.3204427
12.930631 -3.1388867 1.3312192
12.932481 -3.1223745 1.3357277
12.934632 -3.0937078 1.3195034
12.936509 -3.0897446 1.3350301
12.948453 -3.068841 1.3350754
12.955679 -3.0510962 1.3179195
12.955542 -3.0359068 1.3259695
12.946822 -3.0176992 1.3213805
12.955424 -2.9979806 1.3321688
13.153317 -3.0267689 1.3071134
13.160292 -2.994066 1.2945415
14.655764 -0.98380888 1.1531887
14.652748 -0.95224941 1.1442107
14.666298 -0.93202579 1.1458827
14.667225 -0.9228012 1.1487585
14.672314 -0.9032982 1.1498612
14.67387 -0.87057114 1.1423398
14.662878 -0.86235338 1.1531796
14.661977 -0.83566904 1.1522403
14.662821 -0.81016576 1.1505754
14.666524 -0.78225052 1.1609117
14.681462 -0.7757709 1.1431094
14.673808 -0.75366849 1.1564114
14.677148 -0.73934853 1.1494797
14.682131 -0.70540494 1.1513138
14.669961 -0.68764794 1.15219
14.678865 -0.66958177 1.1453307
14.68022 -0.64372599 1.1462249
14.672385 -0.61996031 1.1533374
14.683582 -0.6165123 1.1454856
14.673087 -0.5904941 1.1450799
14.672898 -0.57064122 1.1506829
14.674879 -0.53951776 1.1579162
14.690133 -0.52610183 1.1589955
14.678428 -0.50872153 1.1535434
14.688527 -0.48450094 1.1453716
14.679474 -0.47233742 1.1547878
14.683533 -0.43975243 1.1495806
14.688457 -0.41590622 1.1476585
14.680466 -0.4017382 1.1487025
14.684594 -0.37891322 1.1552818
14.688288 -0.35709506 1.1612296
14.697556 -0.33408603 1.1578156
14.69403 -0.3165842 1.1473311
14.691553 -0.29152125 1.1537395
14.683596 -0.27706325 1.1438799
14.687438 -0.25233406 1.1456945
14.700668 -0.244193 1.1596037
14.688663 -0.21174598 1.1568679
14.694706 -0.1878804 1.147808
14.681765 -0.18044811 1.1610801
14.695374 -0.1498549 1.1556768
14.694903 -0.13049772 1.1527882
14.690989 -0.11514339 1.1469064
14.696563 -0.10271257 1.1455917
14.688515 -0.078657515 1.1582388
14.690579 -0.051150095 1.1551182
14.69443 -0.03077404 1.1596413
14.692162 -0.02273662 1.1561134
14.700315 0.013760826 1.2633092
14.70619 0.034339041 1.2500823
14.705308 0.048279639 1.2669493
14.698994 0.081530467 1.2626742
14.709763 0.09067747 1.2532536
14.714621 0.10523608 1.255764
14.698135 0.1316146 1.2618291
14.714269 0.15995349 1.2549015
14.707253 0.17206727 1.2678494
14.704731 0.20186509 1.2683343
14.698653 0.20661107 1.2620951
14.712385 0.23724529 1.255915
14.712863 0.24703988 1.2631568
14.710178 0.27059153 1.2631304
14.70319 0.30501157 1.2517323
14.706753 0.3244181 1.2543741
14.692797 0.34749645 1.2628763
14.704877 0.36689368 1.259199
14.710002 0.37948909 1.2671176
14.708045 0.40980574 1.2643166
14.706545 0.4143157 1.2657443
14.698777 0.43285841 1.2572894
14.704801 0.45220676 1.2581128
14.698037 0.48922783 1.261972
14.691219 0.4996464 1.2597357
14.692974 0.5140419 1.2563913
14.697342 0.53492463 1.2556111
14.690184 0.56835973 1.2537144
14.699319 0.58741957 1.2639003
14.696344 0.60505193 1.2638907
14.69054 0.62174159 1.2678797
14.686135 0.65124941 1.2499008
14.693247 0.66739529 1.2507604
14.681153 0.67742097 1.2681323
14.69289 0.70130002 1.2554148
14.682362 0.72763425 1.2565858
14.688461 0.73906559 1.2581335
14.693751 0.7640959 1.2526115
14.677115 0.79904801 1.2656453
14.690638 0.81184053 1.2558087
14.684122 0.83967227 1.2621602
14.681566 0.84397101 1.2575191
14.681003 0.87628174 1.2685248
14.681271 0.8974278 1.2690582
14.678882 0.91126835 1.2529742
14.683747 0.93556714 1.2627292
14.669754 0.94697976 1.2634217
14.677281 0.96472579 1.2686521
14.679256 0.98690856 1.2683437
10.216379 -4.88901 1.6545019
10.225987 -4.8855467 1.6627221
10.224287 -4.8639746 1.6619896
10.236076 -4.858336 1.6527064
10.238508 -4.8421125 1.6658231
10.253364 -4.8234081 1.6559026
10.254826 -4.8109317 1.6542983
10.260598 -4.8034849 1.665197
10.270781 -4.7817593 1.6683375
10.264076 -4.7682047 1.6648449
10.27429 -4.7585163 1.6630324
10.283965 -4.7460523 1.6704355
10.28184 -4.7221007 1.6651536
10.298963 -4.7131524 1.6712435
10.306781 -4.6885448 1.6592809
10.307697 -4.6758351 1.6517367
10.318672 -4.668395 1.6623743
10.328023 -4.6618958 1.6661538
10.328253 -4.6319079 1.6573454
10.331602 -4.6152968 1.6677682
10.351439 -4.6151247 1.6535469
10.349443 -4.5919108 1.6574479
10.354831 -4.577435 1.6709493
10.354916 -4.5724297 1.659039
10.361071 -4.5461783 1.6573665
10.375243 -4.5455642 1.6540253
10.381851 -4.5205078 1.6637359
10.379076 -4.5126133 1.6655489
10.217867 -4.4119515 1.6866025
10.209912 -4.3936977 1.6861932
10.232361 -4.3820596 1.6915321
10.240568 -4.3788495 1.6856517
10.232656 -4.3566651 1.679805
10.238227 -4.3407869 1.6845125
10.251866 -4.3251262 1.6810112
10.263813 -4.3216453 1.6836553
10.252399 -4.2978888 1.6768781
10.270676 -4.2832179 1.6835089
10.270745 -4.2738547 1.6772753
10.28819 -4.2586064 1.6950458
10.285206 -4.2470508 1.690196
10.287539 -4.2334094 1.6942893
10.303973 -4.2137809 1.6862921
10.29454 -4.1946635 1.6798886
10.309795 -4.1879683 1.6948534
10.321528 -4.1753678 1.6789981
10.315886 -4.1602025 1.6925905
10.323445 -4.1527629 1.6865356
10.337616 -4.1312351 1.675518
10.345532 -4.1182241 1.6854142
10.351199 -4.0941401 1.692523
10.351996 -4.0936432 1.6789223
10.356867 -4.062614 1.6905909
10.35372 -4.0668993 1.687009
10.364149 -4.0417924 1.6757464
10.369523 -4.0307932 1.6827008
10.379022 -4.0112591 1.6904279
10.382092 -3.9899664 1.6911947
10.399088 -3.9802847 1.6790808
10.385046 -3.9684474 1.6855613
10.215338 -3.88587 1.7053601
10.218162 -3.8792896 1.7075649
10.227365 -3.8535399 1.7063584
10.228215 -3.8366182 1.7064179
10.245465 -3.834928 1.7171284
10.251432 -3.8135047 1.7043735
10.244334 -3.8082032 1.7166806
10.244943 -3.7854314 1.7158006
10.266298 -3.7712443 1.7101146
10.25552 -3.756659 1.7017702
10.271202 -3.75178 1.7106857
10.283005 -3.7294984 1.7119296
10.276992 -3.7034144 1.7046636
10.289753 -3.7018602 1.7000524
10.282554 -3.6884174 1.7028567
10.286044 -3.6743484 1.7128023
10.296761 -3.6526992 1.71376
10.299763 -3.6357424 1.7031926
10.301866 -3.6227117 1.7125081
10.318263 -3.6057205 1.7020969
10.326295 -3.5982885 1.7022458
10.323223 -3.5842757 1.7103502
10.321374 -3.5614767 1.7102047
10.332239 -3.5510983 1.7172726
10.338473 -3.5330811 1.7034354
10.347491 -3.5167146 1.7093117
10.346436 -3.5147538 1.702475
10.346316 -3.4948914 1.7182252
10.35561 -3.4780076 1.7126294
10.354198 -3.4697883 1.7096411
10.362356 -3.4585783 1.6996937
10.370643 -3.4354618 1.7093614
10.387013 -3.4191949 1.7074231
10.383218 -3.4170439 1.7014512
10.386471 -3.3936198 1.6990776
10.395865 -3.3861184 1.7186449
10.391116 -3.3645942 1.7057402
10.21056 -3.2869506 1.7419169
10.214599 -3.2862966 1.7368726
10.213022 -3.271914 1.7255942
10.228437 -3.2542145 1.7310659
10.233885 -3.2330487 1.7251874
10.22898 -3.2203124 1.7411023
10.242117 -3.196151 1.7246883
10.249263 -3.1934967 1.7372113
10.254014 -3.1861868 1.7227423
10.258313 -3.1683452 1.7352976
10.249688 -3.1468081 1.7298508
10.253561 -3.1258259 1.7308087
10.272369 -3.1109941 1.7318933
10.279879 -3.1053011 1.7364154
10.27284 -3.0986943 1.7278349
10.279904 -3.0815063 1.737716
10.282863 -3.055675 1.7374773
10.289387 -3.0471725 1.7256055
10.288413 -3.0383725 1.7267499
10.292952 -3.0097077 1.7314363
10.310024 -3.0140829 1.7233535
10.301631 -2.9989796 1.7419407
10.504914 -3.0247495 1.7173831
10.4986 -3.0117905 1.7078526
10.516788 -3.0102041 1.7105982
10.697343 -3.0403767 1.6925372
10.716866 -3.0371108 1.6896234
10.716129 -3.0115955 1.6808635
10.7235 -2.9913073 1.6865491
10.903265 -3.0441556 1.6628805
10.916499 -3.0304377 1.6641291
10.92163 -3.0093076 1.6661087
10.925325 -2.9998074 1.6632475
11.119667 -3.0332234 1.6350365
11.132964 -3.0200243 1.6374141
11.128985 -3.0014286 1.6294649
11.322365 -3.0391238 1.6061884
11.321098 -3.0099442 1.6171453
11.331049 -2.9975977 1.6134441
11.538661 -3.0317047 1.591724
11.534314 -3.0257809 1.5921552
11.531193 -2.9989426 1.5984855
11.742238 -3.0425618 1.5754206
11.73826 -3.0173497 1.5597265
11.749706 -3.0030651 1.5617154
11.935925 -3.0461168 1.5431194
11.941822 -3.02233 1.546527
11.948078 -3.0040417 1.5433128
12.137889 -3.0283594 1.512979
12.151422 -3.0126328 1.5271482
12.14687 -3.0054889 1.5111537
14.680569 -0.9825719 1.2673889
14.677089 -0.96286339 1.2579051
14.682763 -0.94428748 1.2581557
14.680562 -0.90768397 1.2676091
14.684052 -0.89015257 1.2665898
14.672745 -0.87237859 1.2592789
14.678708 -0.85105306 1.2601359
14.686647 -0.82516289 1.2610772
14.677597 -0.81361598 1.2529159
14.68743 -0.78763264 1.2572848
14.685645 -0.76948702 1.261605
14.684836 -0.75618422 1.2651602
14.694514 -0.73853999 1.2668158
14.684415 -0.70440203 1.2645974
14.68374 -0.68805057 1.2594314
14.682017 -0.66425449 1.2515583
14.692955 -0.65571457 1.2645282
14.684721 -0.62042534 1.2629037
14.6974 -0.61534971 1.2523403
14.701889 -0.58157384 1.2672726
14.690718 -0.57068813 1.2598614
14.703838 -0.54168814 1.2652622
14.700486 -0.52405775 1.2678151
14.69876 -0.49754637 1.2640125
14.694788 -0.49270067 1.2560662
14.70562 -0.4705399 1.2514195
14.70855 -0.43837506 1.2548152
14.704423 -0.41534916 1.2530011
14.698642 -0.40052092 1.2557625
14.702269 -0.38205174 1.2517982
14.7008 -0.35557276 1.258217
14.69189 -0.33676377 1.253132
14.708353 -0.32206959 1.2651726
14.70734 -0.30983472 1.2632188
14.702497 -0.28227755 1.2656038
14.709677 -0.26456422 1.2496417
14.712183 -0.24456777 1.2653357
14.698055 -0.20931849 1.263546
14.702085 -0.20044075 1.2560741
14.708848 -0.16849807 1.26656
14.711617 -0.15855819 1.2630128
14.700778 -0.13803241 1.2577618
14.704824 -0.12151986 1.2666916
14.700882 -0.086467698 1.2673421
14.714958 -0.076678649 1.255035
14.71139 -0.060099017 1.2599261
14.711831 -0.041375406 1.2642977
14.707938 -0.017112216 1.2634023
15.112156 0.013599669 1.3139051
15.118939 0.028647281 1.3127962
15.116179 0.046217237 1.3211098
15.109843 0.072728291 1.3294313
15.118226 0.10309544 1.3137472
15.115509 0.10935929 1.3125969
15.113414 0.12956594 1.3207171
15.118981 0.16610037 1.3248981
15.109411 0.18300046 1.327284
15.124183 0.19596019 1.3134141
15.11803 0.22318982 1.3270137
15.119312 0.23721729 1.3145696
15.119457 0.26852849 1.3186042
15.107886 0.29357621 1.3280586
15.104607 0.30710948 1.3267891
15.105614 0.31805795 1.3306925
15.105442 0.34707212 1.3137118
15.11336 0.36184496 1.332175
15.10543 0.38726738 1.3264481
15.119857 0.407711 1.3125911
15.100384 0.42228043 1.3248743
15.114481 0.45844129 1.3300958
15.116104 0.47508466 1.3255398
15.101733 0.50052404 1.3249435
15.116787 0.52308089 1.3167928
15.110542 0.5470711 1.3185035
15.108171 0.55134428 1.328142
15.108789 0.58402056 1.3314676
15.107842 0.60928106 1.3191305
15.101138 0.62951148 1.3261528
15.100548 0.65084183 1.326661
15.092212 0.66687185 1.3222473
15.109067 0.68515736 1.3133951
15.101337 0.70973289 1.3289014
15.092981 0.73005283 1.3258845
15.096446 0.7448476 1.3257787
15.101592 0.7780205 1.3288683
15.096347 0.79259086 1.3235571
15.094398 0.8070218 1.3224306
15.100082 0.83558637 1.3204598
15.092759 0.84442765 1.3187461
15.085916 0.86582869 1.3319901
15.094628 0.90501088 1.3224486
15.09446 0.9174183 1.316413
15.089768 0.94245458 1.3296291
15.08203 0.95196903 1.316573
15.094157 0.98767221 1.3156245
15.089344 0.99920273 1.3281822
10.218285 -4.9241476 1.7349783
10.214483 -4.8927035 1.7351844
10.22016 -4.8916159 1.742563
10.223874 -4.8660622 1.7471606
10.247226 -4.8643045 1.7487803
10.240415 -4.8421655 1.7466968
10.25262 -4.8377614 1.7505014
10.251966 -4.8112173 1.7402343
10.272907 -4.8110008 1.7347003
10.27754 -4.7815685 1.7394412
10.277933 -4.7717133 1.7408825
10.285344 -4.7525177 1.7395178
10.292941 -4.7344837 1.7449813
10.307898 -4.7395535 1.7417293
10.307431 -4.7080693 1.7459561
10.308564 -4.7101755 1.7380334
10.327594 -4.6868348 1.7402173
10.330407 -4.6708865 1.7346381
10.342934 -4.6607146 1.7349588
10.329906 -4.6526093 1.750386
10.3416 -4.6307893 1.7413331
10.354714 -4.6082172 1.7371311
10.366445 -4.6046858 1.7366092
10.363617 -4.5928173 1.7366546
10.377518 -4.5680137 1.7538112
10.375626 -4.5486555 1.7344804
10.38579 -4.5368266 1.7440993
10.398118 -4.5287218 1.7352668
10.22261 -4.435257 1.7644032
10.229528 -4.4209237 1.7650204
10.231854 -4.4013758 1.7730302
10.225108 -4.3951712 1.769176
10.234139 -4.3836751 1.7744079
10.242628 -4.3614235 1.757054
10.251143 -4.3516688 1.7700404
10.256795 -4.3301845 1.7679127
10.263095 -4.324893 1.7631329
10.278995 -4.3136101 1.7719679
10.286041 -4.2819157 1.7604171
10.279999 -4.2694888 1.7689463
10.294553 -4.2609019 1.7627617
10.297096 -4.2452083 1.7685114
10.295766 -4.2266102 1.7714784
10.299647 -4.2256289 1.7624093
10.306155 -4.2022195 1.7687987
10.325629 -4.1992254 1.7623678
10.322955 -4.1759777 1.7669158
10.335482 -4.1628571 1.7684249
10.336823 -4.1486959 1.7672988
10.346593 -4.1265645 1.7642615
10.344872 -4.1158462 1.7754644
10.356946 -4.10853 1.768006
10.35475 -4.0884714 1.7647827
10.355501 -4.0704379 1.7681689
10.367163 -4.0517836 1.7605848
10.385193 -4.0395222 1.7616068
10.376773 -4.0357809 1.7714808
10.392879 -4.0253401 1.7600712
10.390476 -3.9993644 1.7684102
10.221427 -3.9180126 1.7866663
10.21472 -3.8957992 1.779006
10.219195 -3.8872573 1.7842249
10.236193 -3.8666377 1.7950577
10.229947 -3.8509731 1.7894713
10.247067 -3.8493328 1.7880787
10.236585 -3.8353274 1.7844793
10.247103 -3.8153877 1.7901444
10.247476 -3.8049657 1.7917663
10.256419 -3.7825527 1.7848716
10.273681 -3.7692745 1.7934364
10.266973 -3.7681682 1.7899659
10.272584 -3.7480314 1.7807808
10.283395 -3.7363224 1.7979513
10.285017 -3.7162645 1.796515
10.301034 -3.7044716 1.7824397
10.295638 -3.6885276 1.7880834
10.306623 -3.6674106 1.7793728
10.303252 -3.6512468 1.7867825
10.321484 -3.6514456 1.7822964
10.3128 -3.6396682 1.7967721
10.332662 -3.6198649 1.7980304
10.329033 -3.5996962 1.7850941
10.336198 -3.5939429 1.7895286
10.340514 -3.5717723 1.7796752
10.343373 -3.5587711 1.787262
10.352138 -3.5363317 1.7964324
10.346525 -3.5280535 1.7923523
10.352182 -3.5082715 1.7900616
10.365229 -3.495364 1.7931902
10.373769 -3.4762254 1.7937074
10.376764 -3.4622912 1.7796317
10.380998 -3.4570317 1.791322
10.392275 -3.4496322 1.7943555
10.387966 -3.4229221 1.7851423
10.393785 -3.4183378 1.7945063
10.387169 -3.3899546 1.7918787
10.220765 -3.3304105 1.8052977
10.219113 -3.3121166 1.8018475
10.215151 -3.2856812 1.816853
10.234297 -3.2755904 1.8165387
10.23394 -3.2673688 1.8156931
10.239489 -3.2597578 1.8056349
10.236707 -3.2456937 1.8084971
10.236938 -3.220742 1.8035839
10.247937 -3.2147565 1.8087624
10.248281 -3.20015 1.8078252
10.265975 -3.1877525 1.8102081
10.254864 -3.161644 1.8166364
10.260281 -3.1441152 1.8152453
10.280684 -3.1320374 1.8096833
10.280753 -3.1248934 1.8180755
10.279956 -3.1167593 1.8198045
10.289081 -3.0959444 1.8013172
10.281048 -3.0794153 1.8134944
10.288082 -3.0563855 1.8173643
10.300274 -3.0574911 1.801541
10.311509 -3.0453594 1.8038095
10.305107 -3.0287778 1.8178748
10.305114 -3.0111966 1.8151509
10.323709 -2.9976106 1.8101804
10.507622 -3.0436876 1.7958171
10.509084 -3.0192993 1.7974581
10.512255 -3.010124 1.7855712
10.516917 -2.9932997 1.7958647
10.724943 -3.0280266 1.7726269
10.725688 -3.0202851 1.7761295
10.730588 -3.0055666 1.7573972
10.929168 -3.0349731 1.7386676
10.930435 -3.0148389 1.745347
10.928956 -3.0003073 1.7512281
10.942487 -2.9969404 1.7519958
11.135566 -3.0287611 1.7202828
11.13861 -3.0089426 1.7252829
11.129746 -3.0086546 1.712433
11.3431 -3.0273321 1.7022563
11.343526 -3.0176134 1.7070744
11.347432 -3.0072017 1.6916522
11.544745 -3.044636 1.6831372
11.553423 -3.0139678 1.681725
11.548759 -3.0089965 1.6796006
11.549952 -2.994693 1.6855932
11.744331 -3.0329473 1.6547183
11.75681 -3.0023832 1.6503392
11.754266 -2.9848895 1.650713
11.951497 -3.0190997 1.6262738
11.968155 -3.0079222 1.6379446
11.969608 -2.9970505 1.6242064
12.168467 -3.0133362 1.6058084
12.168209 -2.9967945 1.604184
15.077287 -0.9745819 1.3153137
15.07931 -0.97182202 1.3233135
15.084308 -0.94446582 1.3157133
15.083961 -0.91961628 1.3189307
15.078825 -0.89856601 1.3168745
15.085862 -0.87287265 1.3320717
15.090724 -0.8602584 1.321797
15.093125 -0.83812898 1.3164704
15.084243 -0.82110459 1.3250583
15.094813 -0.80198175 1.3156294
15.105543 -0.77695125 1.3144231
15.089622 -0.75126696 1.31493
15.101672 -0.72192776 1.3217444
15.106091 -0.71424693 1.3123581
15.093699 -0.69298476 1.3229699
15.099222 -0.66593909 1.3182209
15.099912 -0.65525544 1.3250304
15.110298 -0.62336451 1.3129121
15.095328 -0.60152215 1.316759
15.108916 -0.59024429 1.318668
15.113047 -0.56934339 1.3245454
15.115941 -0.54544055 1.3150432
15.099313 -0.51053602 1.313815
15.109469 -0.49223009 1.3192009
15.11021 -0.48730528 1.3247809
15.101534 -0.45781794 1.3163371
15.108079 -0.42857087 1.3175061
15.101404 -0.40983877 1.329494
15.102581 -0.38694841 1.322251
15.107575 -0.37131172 1.3252113
15.11445 -0.35235775 1.327997
15.107172 -0.3312929 1.3136086
15.110363 -0.3076103 1.3130469
15.112296 -0.29449543 1.3297123
15.119585 -0.26133472 1.3302226
15.112426 -0.23751649 1.3191395
15.116793 -0.22778973 1.3162216
15.122298 -0.20534493 1.3309532
15.119763 -0.18230054 1.3274919
15.109956 -0.15480968 1.3185829
15.123079 -0.14096333 1.327543
15.118958 -0.11488421 1.3164823
15.12042 -0.10607453 1.3280178
15.12129 -0.075762548 1.3315812
15.118796 -0.058562376 1.3272178
15.116784 -0.028894076 1.3255847
15.123659 -0.015201505 1.3125896
15.716278 0.0064835967 1.3691349
15.714903 0.023400469 1.3794506
15.730036 0.050255429 1.3761673
15.716229 0.07000877 1.3656403
15.731353 0.10544604 1.3801018
15.715384 0.12217887 1.3622824
15.730921 0.13964553 1.373684
15.72999 0.15451136 1.3611947
15.724665 0.18728662 1.3772826
15.717676 0.20688808 1.3659717
15.717662 0.23039788 1.3724552
15.725978 0.25254762 1.3739146
15.724579 0.26987588 1.3802875
15.719866 0.29347369 1.3644729
15.724595 0.31230107 1.3621545
15.723755 0.3352972 1.3746281
15.725065 0.35399762 1.3626279
15.717747 0.39196569 1.363553
15.717908 0.404838 1.3753135
15.714127 0.43098131 1.3647358
15.719003 0.45740053 1.3757286
15.710333 0.47245637 1.3669323
15.723092 0.4864645 1.3735257
15.722193 0.51614153 1.3617792
15.725449 0.53096044 1.3669227
15.706355 0.56538272 1.3731257
15.719705 0.58158886 1.3760928
15.721024 0.61098057 1.3750927
15.703237 0.62106842 1.3650303
15.71718 0.64794022 1.3791772
15.720515 0.66028506 1.3778104
15.714812 0.68458647 1.369567
15.700282 0.70230359 1.3734004
15.712316 0.73980957 1.3649806
15.712571 0.76128954 1.3694502
15.69794 0.78442508 1.3664137
15.709481 0.8016898 1.3776561
15.703959 0.82108337 1.376364
15.697406 0.84353101 1.3632345
15.70076 0.86079317 1.3750532
15.69823 0.88229203 1.3772939
15.694303 0.91902035 1.3619148
15.702102 0.92218173 1.3623328
15.693704 0.95836967 1.3783381
15.696855 0.97583759 1.3739063
15.684445 0.99972886 1.370694
10.211197 -4.9289627 1.8312256
10.228471 -4.9123416 1.8240126
10.226727 -4.9089518 1.8325189
10.241867 -4.8972683 1.830212
10.241103 -4.8746228 1.8305104
10.252048 -4.862381 1.8265462
10.26423 -4.8427777 1.8251106
10.262002 -4.8338985 1.8281838
10.267138 -4.8157349 1.8315785
10.274191 -4.8090849 1.8270798
10.290998 -4.7874813 1.8218482
10.291849 -4.7754865 1.8189861
10.285467 -4.7520995 1.8252524
10.307571 -4.7404156 1.828931
10.307348 -4.7363191 1.8209745
10.307404 -4.7280807 1.83097
10.323475 -4.7144446 1.8262691
10.33809 -4.6897998 1.8361384
10.335758 -4.6667638 1.8298527
10.336802 -4.6633983 1.8358891
10.353326 -4.649929 1.8291923
10.344598 -4.642293 1.8201432
10.352988 -4.6277032 1.8201257
10.367624 -4.5976529 1.8174267
10.365919 -4.5944495 1.8244495
10.376237 -4.5777946 1.8253272
10.39653 -4.551652 1.8254479
10.209945 -4.4575343 1.8565642
10.215254 -4.4524698 1.8555521
10.214258 -4.4328861 1.843485
10.239279 -4.4232812 1.8504574
10.237582 -4.4088879 1.8506273
10.246818 -4.3925672 1.8509395
10.256015 -4.3880534 1.8468453
10.262493 -4.3716679 1.8514886
10.255975 -4.3513675 1.8383124
10.270314 -4.3371558 1.856795
10.264754 -4.3137345 1.8549789
10.269537 -4.311234 1.8439804
10.293287 -4.2959404 1.8383102
10.284951 -4.2818174 1.8479803
10.303567 -4.2555609 1.8577708
10.302333 -4.2462211 1.8496002
10.301391 -4.2338152 1.8516532
10.316335 -4.2210417 1.8557929
10.315902 -4.2008781 1.845926
10.322272 -4.1924472 1.8559548
10.327105 -4.1756277 1.8550806
10.330102 -4.1600571 1.8423741
10.34208 -4.1467466 1.8506199
10.348368 -4.1277647 1.8386396
10.364305 -4.116138 1.8385575
10.370014 -4.1116967 1.853449
10.367532 -4.0941291 1.8463722
10.367082 -4.0875292 1.857686
10.370751 -4.0672536 1.8547721
10.384534 -4.0464787 1.8458899
10.388325 -4.026722 1.8394197
10.391222 -4.0297995 1.8541048
10.215846 -3.9350016 1.8684291
10.214142 -3.9116735 1.8665506
10.220437 -3.8981788 1.8618587
10.22663 -3.8847265 1.86716
10.227695 -3.8794873 1.8755727
10.241663 -3.8604083 1.8761213
10.246925 -3.8433499 1.8624735
10.249253 -3.8381786 1.8751205
10.26268 -3.8148663 1.8730366
10.269615 -3.8142867 1.8733796
10.271216 -3.7891467 1.8623089
10.266369 -3.7712002 1.8603138
10.279622 -3.7524278 1.8775535
10.288164 -3.7529116 1.8739779
10.281986 -3.7377601 1.8613664
10.304202 -3.7140498 1.8735509
10.306946 -3.7104673 1.8685037
10.296022 -3.6899266 1.8743297
10.317726 -3.6813097 1.8691627
10.317325 -3.6710865 1.8702624
10.317247 -3.6445727 1.8621819
10.326078 -3.6281967 1.8777201
10.332894 -3.6238372 1.8776958
10.33693 -3.5961859 1.8628452
10.33737 -3.579942 1.8687965
10.345179 -3.5666926 1.8641009
10.345151 -3.5558889 1.8686234
10.360056 -3.5411789 1.8593153
10.360767 -3.5299158 1.8642453
10.376291 -3.5241833 1.8650124
10.372894 -3.5036385 1.8779004
10.381397 -3.479352 1.8727641
10.385418 -3.4733193 1.8775799
10.389394 -3.4683003 1.8756326
10.398499 -3.447871 1.8755077
10.393536 -3.4246428 1.8742039
10.214942 -3.344136 1.8900213
10.209679 -3.3362517 1.8853531
10.215086 -3.3326056 1.8974987
10.225405 -3.3183644 1.8809205
10.23647 -3.2924287 1.8904241
10.240403 -3.2828786 1.8897442
10.239181 -3.2741764 1.88062
10.242754 -3.246346 1.8820312
10.244359 -3.2342381 1.8893814
10.24582 -3.2319019 1.8854629
10.265958 -3.2040324 1.8852524
10.261139 -3.2061076 1.8986793
10.271632 -3.1874354 1.8814993
10.274251 -3.1630857 1.8843007
10.280272 -3.1522915 1.8987718
10.275776 -3.1421652 1.8885201
10.290581 -3.1178427 1.8926919
10.296241 -3.1145084 1.8904085
10.283292 -3.0941093 1.8859411
10.297673 -3.0767708 1.8895121
10.308116 -3.0637965 1.8866478
10.298328 -3.0601223 1.8873979
10.301948 -3.0304163 1.8925031
10.308366 -3.0225329 1.8876349
10.317567 -3.0130506 1.8992312
10.321218 -2.9924655 1.8866185
10.525648 -3.036855 1.8632333
10.523256 -3.024282 1.8695879
10.518561 -3.0089993 1.8619876
10.529378 -2.9836566 1.8773659
10.735102 -3.0265021 1.8505994
10.72666 -3.0088203 1.8538884
10.738947 -3.0117805 1.8525054
10.927901 -3.0460904 1.8238686
10.940458 -3.021626 1.8310777
10.944591 -3.0177114 1.8244762
10.936089 -3.0045981 1.8344809
11.136812 -3.0305715 1.8016313
11.152062 -3.012733 1.8101375
11.139691 -3.0082746 1.8093004
11.334774 -3.0452785 1.7845023
11.351797 -3.023035 1.7831745
11.352086 -3.0127153 1.7839156
11.35097 -2.9892139 1.7888979
11.554331 -3.0279782 1.762341
11.552567 -3.0159853 1.7651961
11.564178 -2.996695 1.7659025
11.758366 -3.0225127 1.7370716
11.76791 -3.0072691 1.751291
11.765938 -2.988606 1.7344213
11.955905 -3.0201111 1.7158937
11.969073 -3.0095971 1.7245353
11.98089 -2.9830096 1.7276635
12.166428 -3.0298896 1.6977006
12.163988 -3.0015357 1.7044606
15.684693 -0.97221351 1.3724869
15.695106 -0.96141297 1.3736297
15.690467 -0.93895406 1.3708384
15.704275 -0.92098665 1.3641505
15.696441 -0.8843475 1.3628554
15.695339 -0.87696254 1.3777014
15.694679 -0.84987801 1.3619748
15.710596 -0.82577229 1.3661551
15.700002 -0.7995947 1.3620523
15.713437 -0.7757144 1.3638927
15.710548 -0.7526238 1.3612911
15.703598 -0.74048597 1.3675913
15.71776 -0.71432126 1.37445
15.709101 -0.69565248 1.3773737
15.713722 -0.66609067 1.3750323
15.717018 -0.6588738 1.37817
15.71513 -0.63352913 1.3664846
15.717484 -0.61344892 1.3769957
15.703988 -0.58511454 1.3717735
15.706359 -0.56446546 1.3685188
15.710539 -0.54779518 1.3664409
15.712087 -0.5191344 1.3745852
15.719905 -0.49734035 1.366977
15.714551 -0.48520437 1.3761193
15.71209 -0.4494144 1.3729035
15.727256 -0.4312655 1.3749833
15.725531 -0.41591179 1.3804855
15.712089 -0.37907988 1.3641442
15.729127 -0.35658947 1.3742124
15.720912 -0.35254347 1.3630036
15.729412 -0.32510158 1.3665378
15.715804 -0.29686546 1.3768047
15.730309 -0.28153494 1.3669363
15.717175 -0.25225133 1.3672736
15.713154 -0.22609101 1.3614696
15.725885 -0.20539531 1.3718826
15.720667 -0.18702656 1.3757161
15.72092 -0.16267021 1.3744478
15.7248 -0.14181522 1.3737353
15.718718 -0.12968394 1.3751335
15.721396 -0.10953099 1.3620377
15.727579 -0.08343441 1.3752413
15.723997 -0.063249998 1.3618382
15.730516 -0.036585882 1.3757808
15.717343 -0.014299885 1.3739455
15.729897 0.0033041949 1.4857584
15.741267 0.032498296 1.4791095
15.73644 0.061680421 1.4948773
15.730313 0.074509218 1.4895601
15.743444 0.1010528 1.4944339
15.737942 0.11010233 1.4775201
15.739314 0.14519206 1.4847622
15.733858 0.15658875 1.4902476
15.734969 0.19442397 1.4804562
15.729992 0.19903502 1.4910096
15.743149 0.2246179 1.4943137
15.733196 0.24158545 1.4848547
15.736565 0.27377123 1.4826205
15.73567 0.29990682 1.4912578
15.729427 0.31927979 1.4844816
15.728028 0.33328828 1.484798
15.729684 0.36883637 1.4782473
15.738552 0.37912765 1.4811369
15.732874 0.41075891 1.4799056
15.737374 0.41767284 1.4813296
15.732397 0.45803398 1.4863809
15.730694 0.46876392 1.4864448
15.719501 0.48321363 1.47674
15.726043 0.51715088 1.4912167
15.721191 0.54525846 1.4831129
15.729533 0.55241007 1.4870647
15.718161 0.58169198 1.4846125
15.720207 0.60034609 1.4904999
15.725112 0.63385791 1.4860678
15.728756 0.6524359 1.4865996
15.713793 0.66663337 1.4855434
15.723849 0.6997546 1.4932686
15.713941 0.72234035 1.4934961
15.714295 0.7321564 1.4857143
15.709097 0.75783998 1.4840946
15.715763 0.77261484 1.487682
15.726352 0.79679734 1.4786078
15.714457 0.8238368 1.4862453
15.708419 0.83662283 1.4854535
15.717918 0.87392408 1.4812998
15.707918 0.89716446 1.4894047
15.716832 0.91139525 1.4886934
15.71344 0.93668026 1.4886317
15.710245 0.96331471 1.4764514
15.699238 0.96577513 1.4880213
15.70658 0.99595779 1.492434
10.222853 -4.9577641 1.9192439
10.223384 -4.9328909 1.9035572
10.220983 -4.9307637 1.9013962
10.2316 -4.9136691 1.9023473
10.247683 -4.8988214 1.9076471
10.25815 -4.8706975 1.9186591
10.264324 -4.8650327 1.9104457
10.260402 -4.8460307 1.9145269
10.262759 -4.8326721 1.9124506
10.273102 -4.8207951 1.9183856
10.28986 -4.8081241 1.9022425
10.295857 -4.8018303 1.91672
10.306148 -4.7848263 1.9190626
10.294258 -4.7640734 1.9042276
10.303299 -4.754086 1.9099591
10.317619 -4.7404599 1.9095232
10.322932 -4.7274685 1.900452
10.320011 -4.7051883 1.9160725
10.341151 -4.6873188 1.9107322
10.340196 -4.6858559 1.9029398
10.345154 -4.6743646 1.9134802
10.35395 -4.6435838 1.9159662
10.357203 -4.6292009 1.9010992
10.362778 -4.6133771 1.9126185
10.373497 -4.6151614 1.9197495
10.389929 -4.5892529 1.9061216
10.385903 -4.584641 1.9110909
10.210608 -4.4893017 1.9232355
10.212979 -4.4598813 1.9195379
10.229991 -4.4579663 1.9228811
10.239191 -4.4376206 1.923285
10.238911 -4.434988 1.920029
10.241096 -4.4155908 1.9367067
10.248396 -4.3970861 1.9347497
10.247194 -4.3743095 1.9365414
10.253104 -4.3615294 1.929765
10.265366 -4.3591809 1.9331154
10.282577 -4.3363366 1.9370741
10.272614 -4.3173752 1.9362041
10.278933 -4.3076372 1.9229918
10.288574 -4.2949152 1.9358588
10.2986 -4.2886686 1.9370837
10.30535 -4.2664118 1.9234225
10.308758 -4.263011 1.9339736
10.310188 -4.2469478 1.9330007
10.313391 -4.2310905 1.9304988
10.329797 -4.2090678 1.9360271
10.329533 -4.19591 1.9300735
10.333207 -4.1787715 1.9287466
10.335991 -4.1613498 1.9228141
10.345543 -4.1603017 1.9352522
10.347942 -4.1352234 1.9195766
10.371546 -4.1293707 1.9317898
10.361467 -4.1060667 1.9330266
10.381921 -4.0872674 1.9359417
10.381381 -4.0711823 1.9203204
10.378319 -4.0645866 1.9323202
10.400764 -4.0441303 1.923068
10.211755 -3.9735768 1.9558352
10.226779 -3.9586117 1.952299
10.215851 -3.9399102 1.9553765
10.237341 -3.9246051 1.9490898
10.243135 -3.9114714 1.9542049
10.241123 -3.8941705 1.9481655
10.240328 -3.8821516 1.9464585
10.242427 -3.8563871 1.9463621
10.248885 -3.8593793 1.9583788
10.267323 -3.8455999 1.9563608
10.25649 -3.8210022 1.9581193
10.279104 -3.8069136 1.9405953
10.278163 -3.7892663 1.9475178
10.280278 -3.7756224 1.9554825
10.296087 -3.7616575 1.9423105
10.296991 -3.7551584 1.9521611
10.291836 -3.7348883 1.9397451
10.304954 -3.7179322 1.9388001
10.317955 -3.6999116 1.9405621
10.322952 -3.6888263 1.9417952
10.325912 -3.6739287 1.95331
10.33061 -3.6617506 1.94459
10.337764 -3.655828 1.9391866
10.33182 -3.6330836 1.9530889
10.33382 -3.6198044 1.9466105
10.342629 -3.6108749 1.9522783
10.341269 -3.5923345 1.9438558
10.347471 -3.5858908 1.9580216
10.35271 -3.5716395 1.9558336
10.359689 -3.5575643 1.9503485
10.367882 -3.5256832 1.9453717
10.367569 -3.5142379 1.9581765
10.378516 -3.5007522 1.9425001
10.384039 -3.4983037 1.9551573
10.383445 -3.4789279 1.9466758
10.396352 -3.4557965 1.9526988
10.394906 -3.439059 1.94283
10.216051 -3.3785272 1.9642649
10.220222 -3.3606186 1.9662061
10.222183 -3.3407035 1.9677693
10.21864 -3.3375483 1.9667536
10.230101 -3.3196385 1.9627165
10.234346 -3.2956941 1.9776912
10.242895 -3.2911184 1.9606338
10.244081 -3.2720094 1.9684647
10.256765 -3.2648454 1.9649328
10.255453 -3.2439585 1.9636372
10.264253 -3.2377713 1.9657613
10.255167 -3.2121179 1.9715431
10.268003 -3.2091868 1.9629829
10.282383 -3.1944625 1.9633143
10.275726 -3.1729221 1.9672852
10.285013 -3.1517611 1.9609238
10.289254 -3.1466553 1.964855
10.296418 -3.124948 1.9736058
10.291392 -3.1151209 1.9752246
10.302815 -3.0911503 1.9634281
10.312922 -3.0829058 1.9635102
10.305134 -3.0682509 1.9749304
10.323106 -3.0652447 1.9749607
10.312499 -3.0323238 1.9753877
10.322203 -3.0305042 1.9630213
10.335857 -3.0038228 1.9774761
10.32313 -2.9973052 1.9626906
10.525506 -3.0434468 1.9559611
10.525497 -3.0232732 1.9439995
10.527088 -3.0160217 1.941644
10.536861 -3.0029876 1.9531624
10.738194 -3.036417 1.9256604
10.739505 -3.0215209 1.9260809
10.740825 -3.0014968 1.9250337
10.934275 -3.0495801 1.9121127
10.943687 -3.0343986 1.9107717
10.947534 -3.0161479 1.9015421
10.956573 -2.9908972 1.907197
11.150182 -3.0423908 1.8990414
11.15986 -3.023751 1.8827454
11.147161 -2.9995379 1.8847866
11.358196 -3.0413604 1.8737667
11.348841 -3.014148 1.8619657
11.359883 -3.00983 1.8752069
11.369857 -2.9879789 1.8789443
11.55871 -3.0315778 1.843303
11.573748 -3.0046701 1.849944
11.579532 -2.9929271 1.8465627
11.763683 -3.0335879 1.8296055
11.76629 -3.0187268 1.8350337
11.772578 -3.0007777 1.8291161
11.973825 -3.0372238 1.8182033
11.970456 -3.0179956 1.8179625
11.975263 -2.9919436 1.8061951
12.186432 -3.0283079 1.801129
12.188237 -3.004055 1.7865224
12.193676 -2.9889886 1.8026921
15.713853 -0.98306388 1.4833765
15.711041 -0.95626444 1.477517
15.715694 -0.93662369 1.4773835
15.712594 -0.91893703 1.4865074
15.711637 -0.89695865 1.4893615
15.70542 -0.87703615 1.4860862
15.704514 -0.84436768 1.487
15.719785 -0.83223635 1.4901067
15.709605 -0.79520899 1.4947089
15.7228 -0.78958434 1.4831581
15.71641 -0.76885742 1.4904343
15.725458 -0.73230767 1.4825951
15.728617 -0.71244037 1.4924799
15.711612 -0.69697827 1.4781331
15.7237 -0.6637482 1.4838443
15.718612 -0.65797788 1.487556
15.730217 -0.63432795 1.4820124
15.722706 -0.61658871 1.4866747
15.718271 -0.59018165 1.4864372
15.718408 -0.57170033 1.4898958
15.726962 -0.54070103 1.4921511
15.722763 -0.52171296 1.4890244
15.730694 -0.50059569 1.4838319
15.728478 -0.47748277 1.4921669
15.731886 -0.46325022 1.491796
15.720974 -0.43504399 1.4952582
15.733743 -0.41613948 1.4804317
15.740937 -0.38562301 1.4814047
15.732763 -0.36038786 1.4868436
15.724322 -0.33583188 1.4888217
15.739308 -0.32350585 1.4798558
15.736519 -0.29613373 1.4879336
15.730573 -0.2815547 1.4951832
15.739403 -0.24988396 1.4835994
15.736538 -0.23546842 1.4843007
15.733271 -0.21259689 1.4912601
15.733436 -0.19755775 1.4951748
15.738744 -0.17589465 1.4876561
15.744993 -0.14294536 1.4834218
15.736651 -0.11894736 1.4817921
15.730257 -0.1004421 1.4905362
15.734866 -0.085174292 1.4846996
15.727522 -0.056270666 1.4914888
15.727397 -0.038923766 1.4879947
15.735658 -0.024798637 1.4769616
15.755312 0.0086479997 1.601818
15.751168 0.039064825 1.6047853
15.750908 0.054524541 1.6074599
15.743098 0.07600002 1.6011277
15.751024 0.088930167 1.5968372
15.737289 0.11529306 1.6090951
15.752268 0.14612277 1.594664
15.74138 0.16949701 1.6071794
15.737249 0.19266541 1.5950844
15.749595 0.20404404 1.5951574
15.750875 0.22433423 1.6038053
15.74201 0.26049528 1.6008978
15.736081 0.27644187 1.5914778
15.752796 0.30465522 1.601561
15.743148 0.32090104 1.6026022
15.749179 0.34354952 1.6080345
15.747437 0.3613447 1.6023247
15.751233 0.38845009 1.5980178
15.747514 0.41165471 1.5949082
15.731669 0.4274644 1.6012064
15.735867 0.44484612 1.6058245
15.748682 0.47368336 1.6046335
15.738559 0.49694341 1.5974196
15.738984 0.51730084 1.5964501
15.729463 0.52842343 1.609758
15.740952 0.56602049 1.6037465
15.737843 0.58235002 1.5935631
15.728993 0.60298079 1.6085186
15.735806 0.62042814 1.6047128
15.739479 0.6425972 1.5947517
15.729419 0.66956073 1.6002082
15.723947 0.68996674 1.5925386
15.737252 0.72090769 1.6061666
15.723313 0.73296344 1.5981904
15.728374 0.75621718 1.5993764
15.726713 0.77171004 1.5962001
15.719009 0.80487436 1.6073948
15.721092 0.83000034 1.597263
15.718099 0.84278101 1.6026224
15.73127 0.86010671 1.6081958
15.714449 0.88827556 1.5987791
15.723053 0.91190559 1.6078161
15.723958 0.9298057 1.6058428
15.71846 0.9547621 1.5939757
15.724955 0.98580515 1.6034138
15.712605 0.99624288 1.6063981
10.214864 -4.9740667 1.9933518
10.214994 -4.9501858 1.9940181
10.220821 -4.9488072 1.9998171
10.239306 -4.9351993 1.987977
10.251802 -4.9029446 1.9933617
10.247447 -4.9049349 1.987615
10.25311 -4.8843088 1.9952482
10.271278 -4.8742628 1.9850924
10.268555 -4.857213 2.0000834
10.275424 -4.8471637 1.9889414
10.288381 -4.8224974 1.9941312
10.285556 -4.8046331 1.9889493
10.303377 -4.7878542 1.9908838
10.306978 -4.7794833 1.992154
10.318718 -4.7654896 1.9913976
10.315823 -4.7627048 1.9943596
10.327161 -4.7410903 1.9836469
10.326112 -4.7281208 1.9886695
10.334888 -4.7046676 1.9964223
10.338634 -4.7011189 1.9998951
10.351218 -4.6913667 1.9936954
10.348971 -4.6711731 1.9910119
10.361523 -4.6598706 1.9907497
10.375989 -4.6316614 1.9844917
10.371705 -4.6183853 1.9978508
10.386644 -4.6146579 1.9996091
10.384525 -4.586225 1.9885871
10.391673 -4.5854545 1.9961306
10.403824 -4.5625014 1.9927138
10.403707 -4.5423756 1.998423
10.407043 -4.5362182 1.9994525
10.424158 -4.5188398 1.9862351
10.41857 -4.5154223 1.9898697
10.432699 -4.4840312 1.9872544
10.44055 -4.4833965 1.9834471
10.44174 -4.4742746 1.9888903
10.444667 -4.4537034 1.9882798
10.456553 -4.4323959 1.9939449
10.455961 -4.4253292 1.9880586
10.471932 -4.4047508 1.9877853
10.473593 -4.387188 1.9991475
10.476262 -4.37884 1.9933573
10.485693 -4.362391 1.9964446
10.498738 -4.3381028 1.9963745
10.509149 -4.3322334 2.0023818
10.515731 -4.3114238 1.9829448
10.507735 -4.3139157 1.9895043
10.519109 -4.2907314 2.0027881
10.516128 -4.2743273 1.9885461
10.527239 -4.2681198 2.000282
10.538057 -4.2463999 1.9949716
10.540216 -4.2281389 1.983391
10.556565 -4.2065535 1.9936332
10.555981 -4.198009 1.9935285
10.555305 -4.1851211 1.9846498
10.560617 -4.1716971 2.0019286
10.566471 -4.1522937 2.0020549
10.578864 -4.1475215 1.9906968
10.58452 -4.1317153 2.0010657
10.595914 -4.1107616 1.9829566
10.599023 -4.1049337 1.9918733
10.5968 -4.0828691 1.9843489
10.602977 -4.0703588 1.9836996
10.619374 -4.0443149 1.996876
10.615647 -4.0448074 1.9882134
10.623021 -4.0258298 1.9982399
10.627652 -4.0068183 1.9929264
10.632389 -4.001214 1.9976339
10.645747 -3.975733 1.9833881
10.649454 -3.9646173 1.9953284
10.65503 -3.956131 1.9983211
10.649503 -3.9355843 1.9885947
10.65643 -3.9145579 1.9965872
10.662687 -3.9028099 1.9958242
10.6821 -3.880445 1.9997611
10.67283 -3.8763416 1.9878604
10.693565 -3.8532212 2.0001478
10.688966 -3.8509574 1.9832085
10.689054 -3.8209085 1.9969114
10.694875 -3.8127053 1.9868835
10.712615 -3.8044572 1.9904877
10.713326 -3.7872474 1.9997765
10.724292 -3.7686005 1.9952219
10.723228 -3.7491658 1.9875379
10.721381 -3.7357669 1.9873338
10.72345 -3.7170663 1.9963404
10.733597 -3.7030377 1.9935672
10.736011 -3.6989946 1.99815
10.741465 -3.6802294 1.9978664
10.760599 -3.6609881 1.9908633
10.749686 -3.6493304 1.9971782
10.762356 -3.6422634 1.9857651
10.764294 -3.629514 1.9980538
10.781655 -3.6030893 1.9948248
10.771313 -3.5837526 1.9900349
10.780745 -3.5675669 1.9889787
10.779162 -3.5664327 1.9869766
10.794785 -3.548063 1.9940362
10.794971 -3.5293968 1.9848721
10.794851 -3.5167315 1.9999532
10.807708 -3.5000949 1.9916888
10.806857 -3.4758828 1.995481
10.814573 -3.4748063 1.9970052
10.814557 -3.4614205 1.9899296
10.831291 -3.4434092 1.9871591
10.823214 -3.4209764 1.985536
10.834059 -3.4051158 1.9900012
10.842881 -3.3986003 1.9977837
10.838741 -3.3768475 1.9891728
10.845417 -3.3601406 1.998161
10.847152 -3.3554828 1.9887125
10.860602 -3.3365595 1.988396
10.857822 -3.3147838 1.9940691
10.876547 -3.2978668 1.9980342
10.868174 -3.2890379 1.9849102
10.877009 -3.2730865 1.9991119
10.8842 -3.2510693 1.9940603
10.895836 -3.244988 2.0004036
10.895232 -3.2277834 1.9933727
10.905996 -3.2086194 1.9879149
10.905727 -3.1924152 1.9919745
10.915989 -3.1874349 1.9998103
10.905913 -3.1698864 1.9942685
10.921489 -3.1582456 1.9904836
10.921008 -3.1395881 2.0003614
10.927382 -3.1166844 1.9910178
10.927938 -3.1111577 1.9885123
10.923419 -3.0985429 1.9969023
10.945223 -3.0710576 1.9873052
10.939974 -3.0573125 2.0016737
10.949246 -3.0483196 1.9970419
10.942557 -3.0335274 2.0021799
10.963682 -3.0132523 1.9896491
10.959245 -3.0018213 1.993536
11.163152 -3.0278003 1.9830076
11.164837 -3.0189829 1.9779909
11.157157 -3.0139668 1.9832591
11.16695 -2.9978037 1.9658945
11.357553 -3.0356073 1.9629179
11.366167 -3.0112257 1.9562702
11.369127 -3.0018425 1.9633498
11.560089 -3.0340486 1.9321064
11.563581 -3.0184381 1.943704
11.574521 -2.9914722 1.9314493
11.78219 -3.0267794 1.9126137
11.784356 -3.0145257 1.9248755
11.781482 -2.9941673 1.9265839
11.976926 -3.037245 1.9110366
11.981978 -3.0170293 1.9114052
11.981874 -2.9924214 1.9002997
12.188375 -3.0372791 1.8848723
12.188723 -3.0195122 1.8898655
12.195647 -3.0024791 1.8943268
15.724658 -0.98108768 1.5908363
15.7243 -0.960172 1.5979298
15.709348 -0.92788768 1.60148
15.715902 -0.9204421 1.608238
15.71804 -0.88954884 1.6063366
15.71247 -0.87350184 1.5926694
15.713698 -0.84354728 1.5998366
15.725472 -0.83572465 1.6090131
15.720239 -0.80172372 1.596346
15.734977 -0.77394468 1.6002136
15.733617 -0.75309861 1.6101412
15.735153 -0.73397666 1.5990547
15.723753 -0.71114385 1.598321
15.735872 -0.70306259 1.6030993
15.734719 -0.674119 1.5968359
15.731633 -0.65198916 1.6046823
15.73485 -0.62984574 1.6005447
15.725204 -0.61711144 1.6022892
15.744702 -0.59076387 1.5960927
15.731503 -0.57080024 1.5957317
15.742142 -0.53328782 1.5942715
15.742677 -0.51529962 1.6099867
15.732095 -0.48974216 1.6065866
15.740748 -0.47306523 1.6093181
15.73415 -0.45851097 1.5990423
15.741257 -0.42798081 1.6089442
15.73618 -0.41514203 1.599036
15.746935 -0.39282745 1.5999072
15.739403 -0.37186062 1.60517
15.745645 -0.34490862 1.6084394
15.751494 -0.32810384 1.607263
15.735853 -0.29151881 1.6021153
15.735896 -0.28624004 1.6005647
15.752509 -0.25300133 1.5937297
15.751822 -0.22702429 1.5994866
15.740829 -0.2145725 1.5938106
15.739707 -0.18779954 1.5990092
15.748647 -0.17084312 1.6045574
15.738426 -0.14195871 1.6091068
15.753438 -0.12734284 1.5986418
15.751689 -0.10735659 1.6030145
15.748733 -0.083460189 1.6020044
15.740598 -0.059938535 1.6043048
15.750881 -0.040191792 1.5978749
15.754299 -0.021488447 1.5954527
15.753325 0.0088118836 1.7185603
15.75676 0.034792446 1.7114226
15.765361 0.049447309 1.7192705
15.75948 0.0736477 1.7140317
15.758118 0.092656448 1.7214375
15.76626 0.12974285 1.7068578
15.758744 0.14373036 1.7142026
15.750187 0.16947131 1.7230971
15.7639 0.1854151 1.709766
15.751152 0.20472665 1.7131661
15.755952 0.23316287 1.7219779
15.74878 0.24504761 1.7147843
15.75444 0.2655794 1.7202594
15.747917 0.3003065 1.7079489
15.756125 0.31377819 1.7126613
15.751708 0.33552948 1.7124743
15.75268 0.36993295 1.7242894
15.760966 0.37597856 1.7198602
15.758117 0.39596656 1.7093899
15.741905 0.42346716 1.7162465
15.749063 0.45605797 1.7095551
15.745003 0.46179867 1.7127649
15.753717 0.49355137 1.714523
15.747876 0.51916397 1.7090254
15.749694 0.53339773 1.7150173
15.756194 0.56365824 1.7207788
15.742476 0.57536578 1.7189629
15.740542 0.59586519 1.7212123
15.754149 0.63405085 1.72147
15.737255 0.65659171 1.7072496
15.747187 0.66688782 1.723642
15.750396 0.69375092 1.723798
15.736784 0.70998734 1.7137305
15.744901 0.74107218 1.7073002
15.747488 0.75469476 1.7131294
15.736037 0.77556753 1.7072458
15.730317 0.80350351 1.7110977
15.74275 0.83031762 1.7134778
15.737402 0.85158074 1.7120738
15.732281 0.87682247 1.7112417
15.732909 0.89289945 1.7187383
15.729899 0.91312021 1.7111319
15.727015 0.94069439 1.7177969
15.734031 0.95738012 1.7135834
15.734587 0.97767979 1.7210302
15.720942 1.0075852 1.7073894
11.307516 -4.9772644 1.9894553
11.31732 -4.9619656 1.9927421
11.319945 -4.9518094 1.9963235
11.332117 -4.930613 1.9917457
11.342598 -4.933188 1.9854392
11.344761 -4.9171982 1.9945984
11.356806 -4.8899856 1.9887246
11.361334 -4.885694 1.9994847
11.368501 -4.8598499 1.9989544
11.377897 -4.852941 1.9914563
11.373135 -4.8325548 1.991177
11.385343 -4.8093219 1.9904099
11.400815 -4.7903972 1.9840031
11.399846 -4.7862139 2.0029867
11.414278 -4.7584391 2.0035799
11.42238 -4.7553701 1.9843383
11.419621 -4.7271023 1.9964745
11.430964 -4.7211313 1.9970579
11.433045 -4.6947947 1.9876316
11.434574 -4.685842 1.9892511
11.448583 -4.6684093 1.9953843
11.46229 -4.6455045 1.9888682
11.455208 -4.633841 1.9853854
11.461696 -4.6298375 1.9901854
11.467146 -4.5980716 1.9868497
11.473166 -4.5848498 1.9906634
11.479923 -4.5810132 1.986816
11.498794 -4.5524354 1.9930019
11.498225 -4.5483565 1.9895773
11.508207 -4.5293069 1.9991487
11.519788 -4.5027843 1.9901874
11.517478 -4.4890685 1.9881561
11.52863 -4.4689264 2.0018044
11.536278 -4.4687648 2.0034633
11.528702 -4.4496002 2.0008864
11.537768 -4.4308391 1.9955201
11.550625 -4.4117236 1.9979707
11.559613 -4.4001174 1.9929702
11.554764 -4.3754373 1.9960109
11.566467 -4.3671093 2.0020549
11.56772 -4.3535142 1.998566
11.579989 -4.3285184 1.9927287
11.590204 -4.3186383 1.9909607
11.594045 -4.3073568 1.9932724
11.599522 -4.2898736 1.9986583
11.602399 -4.2695251 1.9867059
11.619888 -4.2424974 1.9977611
11.619804 -4.2326374 1.9843061
11.614698 -4.2137599 1.9994063
11.632609 -4.2092891 1.9867011
11.636542 -4.1896539 1.991449
11.636964 -4.1638155 1.9850421
11.651525 -4.1538053 1.9923562
11.644296 -4.1459751 1.9947844
11.659356 -4.1186657 1.9985195
11.659779 -4.1144543 1.9864191
11.668226 -4.0987072 1.9851538
11.667706 -4.068974 1.9975474
11.673709 -4.0502548 1.9926094
11.694789 -4.0395093 1.9959247
11.683142 -4.0306931 2.0026495
11.696218 -4.0072956 1.9989791
11.702866 -3.9951541 1.9890769
11.716805 -3.9760363 1.9907547
11.713149 -3.9676309 2.0034838
11.713205 -3.9445517 1.984158
11.721138 -3.9187512 1.984305
11.727783 -3.9191744 1.9979032
11.726799 -3.8992763 1.9939303
11.740854 -3.8839564 1.984405
11.738201 -3.8659203 1.9873897
11.74225 -3.84042 1.9974579
11.762607 -3.8338625 2.003346
11.753037 -3.8189337 1.9920223
11.765123 -3.7932057 1.9927669
11.769916 -3.772943 2.0002456
11.775359 -3.7702465 1.9971721
11.780926 -3.746381 1.997315
11.780068 -3.7289534 2.0009882
11.795216 -3.7029014 2.0036056
11.800814 -3.7049098 1.9878757
11.809374 -3.6882536 2.0012555
11.80798 -3.6566038 1.9847943
11.812449 -3.6398623 1.9868561
11.825574 -3.6363513 1.9982327
11.819419 -3.6133418 1.9934515
11.82072 -3.5901597 1.9949389
11.838924 -3.586658 2.0038564
11.837249 -3.5692382 1.9937588
11.839223 -3.5418737 1.9932632
11.843792 -3.5340896 1.9943022
11.852608 -3.5229011 1.9955325
11.85478 -3.4982405 1.9919411
11.860468 -3.4742193 1.9886124
11.868196 -3.4621615 1.9923087
11.867275 -3.4413223 2.0025215
11.881552 -3.4242232 1.9994165
11.877292 -3.4139376 2.0033062
11.881927 -3.3903227 1.9881011
11.896441 -3.3897052 2.0037398
11.890435 -3.369468 1.9906346
11.905446 -3.3453407 1.9921827
11.901665 -3.3239441 2.0018499
11.914268 -3.321739 1.9989893
11.923519 -3.2966638 1.9916313
11.916444 -3.2773416 1.9885501
11.919559 -3.268554 1.9859991
11.939545 -3.2488134 1.9971582
11.943397 -3.2292027 1.9953499
11.932021 -3.2198191 1.99757
11.93626 -3.2011585 2.0034318
11.947371 -3.1921818 1.9968187
11.960008 -3.1716588 1.9949933
11.962287 -3.1431808 1.998758
11.961683 -3.1300766 1.9909761
11.973698 -3.10865 1.9858882
11.962607 -3.1086881 1.9929533
11.968944 -3.0732958 2.003118
11.986415 -3.058584 1.996246
11.982055 -3.0397575 2.002104
11.979892 -3.0411777 1.9899626
11.983566 -3.0159497 1.9901316
12.000606 -3.0025253 1.9941512
12.189194 -3.039494 1.973583
12.208192 -3.0129337 1.9858215
12.199385 -2.9987288 1.9827956
15.734064 -0.98482287 1.7236795
15.725393 -0.95380843 1.7198952
15.71904 -0.93207049 1.7111884
15.728255 -0.91923857 1.720109
15.729501 -0.9027977 1.7062294
15.733921 -0.87254745 1.7177415
15.730971 -0.85573816 1.7141876
15.730906 -0.82340211 1.720751
15.733521 -0.81242043 1.7144072
15.740684 -0.7896505 1.7091068
15.737617 -0.769247 1.7159214
15.736951 -0.73888165 1.711807
15.732468 -0.71620721 1.7074852
15.739248 -0.70562339 1.7140481
15.734919 -0.67507023 1.7151029
15.736678 -0.66134191 1.7244571
15.749919 -0.6317783 1.7086682
15.739576 -0.60346365 1.7232612
15.735765 -0.59368831 1.7068802
15.745581 -0.55787253 1.7113116
15.750064 -0.54621524 1.7141876
15.741332 -0.51628691 1.7054687
15.748455 -0.49187198 1.7174621
15.751225 -0.48167723 1.7180761
15.740527 -0.45678222 1.7072785
15.750854 -0.43106657 1.7082433
15.750504 -0.41301826 1.7168041
15.754334 -0.38619119 1.7117113
15.752728 -0.36402193 1.714424
15.754708 -0.35285434 1.7109815
15.76109 -0.31798896 1.7172242
15.750318 -0.29261121 1.7114222
15.750794 -0.28083548 1.7080609
15.763235 -0.24698363 1.7129192
15.756259 -0.24449278 1.7206964
15.758453 -0.2123082 1.7122123
15.761583 -0.18107563 1.7197986
15.753242 -0.16658404 1.7122332
15.759778 -0.1542405 1.7248577
