# .PCD v0.7 - Point Cloud Data file format
VERSION 0.7
FIELDS x y z
SIZE 4 4 4
TYPE F F F
COUNT 1 1 1
WIDTH 1510
HEIGHT 1
VIEWPOINT 0 0 0 1 0 0 0
POINTS 1510
DATA ascii
-1.8767222 -4.2040715 1.7212389
-1.8844812 -4.2083759 1.7152642
-1.8726759 -4.2070761 1.7183946
-1.9509946 -4.3912907 1.6584687
-1.9311721 -4.3961978 1.6583587
-1.9237771 -4.3932004 1.6584868
-1.9274607 -4.39252 1.6756887
-1.9097736 -4.3931637 1.676114
-1.9058336 -4.4041772 1.6602172
-1.9011525 -4.4125609 1.6658864
-1.8918625 -4.4190974 1.6600593
-1.8946797 -4.4192758 1.6725665
-1.8834677 -4.4135356 1.6690042
-1.8891214 -4.4138718 1.6599386
-1.8809571 -4.4205256 1.6686889
-1.9480702 -4.603301 1.6094105
-1.9396328 -4.598639 1.6072588
-1.9339895 -4.6024404 1.6071606
-1.9279174 -4.6084561 1.6187371
-1.9177381 -4.6159496 1.6046102
-1.921886 -4.6203146 1.6066182
-1.9118572 -4.6136627 1.6111103
-1.8893175 -4.6219678 1.603997
-1.8903363 -4.6220999 1.6191928
-1.8804171 -4.6202445 1.6103717
-1.8817439 -4.6365118 1.6187767
-1.8686049 -4.6307735 1.6145681
-1.9298027 -4.8044353 1.5555331
-1.9386569 -4.8199568 1.5669287
-1.9159309 -4.8117423 1.5535285
-1.9273278 -4.8141222 1.5584517
-1.9167131 -4.8329234 1.5527061
-1.9016025 -4.8356395 1.5613256
-1.8936014 -4.8258314 1.5524741
-1.8904009 -4.8325663 1.5681303
-1.8760177 -4.8270926 1.5501623
-1.8732258 -4.834949 1.5605669
-1.8746389 -4.8382869 1.5585428
-4.8718638 -3.7818983 1.3402789
-4.8679376 -3.7765174 1.3363736
-4.8624949 -3.7851481 1.3270183
-4.8595891 -3.8017673 1.3434932
-4.8494701 -3.7994585 1.3316187
-4.8471489 -3.8140752 1.3298297
-4.8288598 -3.8267796 1.3447839
-4.8385115 -3.8298562 1.3306496
-3.7684562 -2.9974442 1.7040131
-3.7586901 -2.9929671 1.7095549
-3.7694893 -3.0115032 1.6964631
-3.7504063 -3.0114019 1.6955602
-3.7552214 -3.0111566 1.692827
-3.7493842 -3.0133128 1.7002677
-3.7470648 -3.0306673 1.6968029
-3.7366128 -3.0310278 1.7054996
-3.7279425 -3.0384355 1.7082627
-3.7243106 -3.0408404 1.6947126
-3.7348056 -3.0364134 1.6996605
-3.7182472 -3.0464103 1.6943575
-3.7161398 -3.0514035 1.6957848
-3.7071168 -3.0615182 1.7025738
-3.6989899 -3.0606594 1.6948627
-3.7135885 -3.0781827 1.7102441
-3.7007394 -3.0776129 1.6935135
-3.6913478 -3.0908248 1.7016592
-3.6932521 -3.0796075 1.7076284
-3.6923862 -3.0890064 1.6964175
-3.6850634 -3.0931559 1.6948525
-3.6727853 -3.10501 1.7085036
-3.665803 -3.0990269 1.7023686
-3.677386 -3.1082981 1.7113203
-3.5151575 -2.9886353 1.7586567
-3.5078232 -2.9927492 1.761328
-3.5051007 -3.0083134 1.7497522
-3.4991021 -2.9987926 1.7501414
-3.5049508 -3.0154898 1.7469192
-3.5048234 -3.0156422 1.7594631
-3.4959002 -3.0127997 1.7530164
-3.4885352 -3.0220144 1.7598685
-3.4875121 -3.0285895 1.7578508
-3.4726174 -3.0310974 1.7517027
-3.4687641 -3.0427492 1.7452606
-3.4698985 -3.0512559 1.7596281
-3.4683549 -3.0412364 1.7633488
-3.4583805 -3.0494208 1.7615023
-3.4680099 -3.0676639 1.7478644
-3.4608548 -3.0699964 1.758974
-3.4411492 -3.0676291 1.7578201
-3.4478834 -3.0821269 1.7523397
-3.4477587 -3.0798388 1.7451665
-3.4296451 -3.0868995 1.7603618
-3.4376729 -3.0943577 1.7487756
-3.4321361 -3.087208 1.753547
-3.432225 -3.1027789 1.7531965
-3.4285865 -3.1126461 1.7495139
-3.4067879 -3.116421 1.7524347
-3.4186203 -3.1173251 1.7578636
-3.3993368 -3.1228147 1.7504946
-3.2590036 -2.9887934 1.8057873
-3.2465231 -2.9892969 1.8158596
-3.2612097 -2.9959986 1.8036876
-3.2406945 -3.0150464 1.8088677
-3.2517593 -3.0128825 1.806002
-3.2380462 -3.0151393 1.8123639
-3.2446773 -3.0180962 1.8136506
-3.2349846 -3.0235996 1.815949
-3.2223649 -3.0252874 1.8021233
-3.2243099 -3.0320501 1.8075821
-3.2136178 -3.0450413 1.8012868
-3.2199576 -3.0497417 1.7990514
-3.2162189 -3.0533242 1.814672
-3.2046459 -3.0605938 1.8157963
-3.2078865 -3.0631366 1.8036304
-3.1939867 -3.056181 1.8137475
-3.1937184 -3.0600777 1.8054419
-3.1921575 -3.0785091 1.8161609
-3.1882918 -3.0685546 1.8097144
-3.1782455 -3.0847852 1.8010216
-3.1827343 -3.0745699 1.8038478
-3.173512 -3.0949471 1.8064781
-3.1665189 -3.0958443 1.8100244
-3.1638992 -3.0894337 1.8107936
-3.1601491 -3.0905352 1.8135067
-3.1485586 -3.1020145 1.8076559
-3.1468449 -3.1175096 1.8023831
-3.1534305 -3.1157336 1.8031473
-3.149291 -3.1143885 1.7983286
-3.1315918 -3.1272995 1.801736
-2.9859738 -2.992625 1.8521402
-2.9943197 -2.9892359 1.8542808
-2.9800291 -3.0031753 1.8599626
-2.9821866 -2.9988225 1.8564875
-2.9835691 -3.0150533 1.8563372
-2.9822326 -3.0040338 1.849128
-2.9667411 -3.0156465 1.8508381
-2.9565165 -3.0181973 1.8587322
-2.9655221 -3.0209668 1.8523736
-2.9593403 -3.0304019 1.8574998
-2.9497454 -3.0351951 1.8653072
-2.9420717 -3.0325205 1.860697
-2.9522517 -3.0397475 1.8663347
-2.936744 -3.0533302 1.8605067
-2.9447057 -3.0524988 1.8626232
-2.932812 -3.0545404 1.8599291
-2.9281218 -3.0653062 1.849786
-2.9217157 -3.0700684 1.8612502
-2.9274096 -3.068063 1.8540967
-2.9194567 -3.0641088 1.8616542
-2.9063718 -3.0747983 1.8685585
-2.9054737 -3.0820587 1.8622718
-2.9091802 -3.0837488 1.8528863
-2.9072435 -3.094187 1.8540406
-2.891129 -3.0968487 1.8601427
-2.8928921 -3.0918839 1.8683134
-2.8773439 -3.1065018 1.849823
-2.8719332 -3.0989923 1.8506689
-2.8750525 -3.1014616 1.8576125
-2.8653197 -3.1002681 1.8525968
-2.8680239 -3.1102855 1.8609719
-2.8638179 -3.1237063 1.8661615
-2.8658934 -3.1251409 1.8537294
-2.8573484 -3.1289515 1.8549215
-2.8476439 -3.1209662 1.8575083
-2.7220511 -2.9961751 1.9014413
-2.7182622 -3.0028777 1.9024698
-2.7129583 -2.9885054 1.9150456
-2.7068033 -3.0015938 1.9091846
-2.6936994 -3.0092964 1.9085431
-2.6856058 -3.004056 1.9019043
-2.689132 -3.0189676 1.9058586
-2.687463 -3.0203185 1.9123863
-2.6782212 -3.0174942 1.9191051
-2.6677821 -3.02934 1.9178047
-2.6747508 -3.0297539 1.9023917
-2.6701121 -3.0305655 1.9040781
-2.6644402 -3.0302646 1.9039335
-2.6661868 -3.0480061 1.9144911
-2.6537895 -3.0368457 1.9011307
-2.6420283 -3.0417995 1.9167897
-2.6569006 -3.0544925 1.90131
-2.6478136 -3.0497346 1.9082463
-2.6321938 -3.0599582 1.9017683
-2.6298499 -3.0639713 1.9071997
-2.6288016 -3.0591867 1.9159664
-2.6231608 -3.0740027 1.9076651
-2.6158285 -3.0673912 1.903402
-2.6086357 -3.0667756 1.9051292
-2.6108801 -3.0780175 1.9017421
-2.6064799 -3.0817578 1.9171209
-2.6064155 -3.084636 1.9035206
-2.601826 -3.0826972 1.9183859
-2.5902948 -3.0894139 1.9067292
-2.5852365 -3.0980673 1.9147553
-2.5947418 -3.1099579 1.9112557
-2.5754755 -3.1004989 1.9166238
-2.5845051 -3.1080034 1.9122814
-2.5777931 -3.1126163 1.9122262
-2.5693486 -3.1237798 1.9045951
-2.5642862 -3.1148543 1.9168831
-2.5638402 -3.1301811 1.9099469
-2.5569894 -3.1252396 1.9085971
-2.5552683 -3.1330936 1.9041722
-2.5451989 -3.1402211 1.9147294
-2.5470982 -3.1411908 1.9170253
-2.4110999 -2.9971509 1.9647348
-2.4113307 -2.996403 1.9562261
-2.415899 -2.9932952 1.9667159
-2.4005179 -3.0061002 1.9696474
-2.3927631 -2.9982049 1.9651033
-2.3927155 -3.014231 1.9688255
-2.3995996 -3.0077784 1.9610759
-2.3878288 -3.0239818 1.969053
-2.3804781 -3.0144982 1.9534775
-2.3825657 -3.031301 1.9605008
-2.3823526 -3.0178902 1.9650416
-2.3667564 -3.0288975 1.9537174
-2.3596642 -3.0286655 1.9688818
-2.3620777 -3.0372491 1.9546167
-2.3615551 -3.0422795 1.9716158
-2.345572 -3.0514686 1.9559525
-2.3458619 -3.0517528 1.9700993
-2.3538971 -3.0444818 1.9713942
-2.3339503 -3.0540805 1.9655186
-2.3295746 -3.0499916 1.9661798
-2.338171 -3.0499196 1.9635859
-2.3222218 -3.0584855 1.9733126
-2.3175926 -3.0641983 1.9665935
-2.3177941 -3.0765679 1.954607
-2.3122563 -3.0726631 1.9609003
-2.309715 -3.077028 1.9613088
-2.3028324 -3.0859404 1.9647313
-2.3017986 -3.0871496 1.9587172
-2.2994652 -3.092679 1.9663908
-2.3030031 -3.0781035 1.9614336
-2.2858751 -3.0964003 1.9598231
-2.2913365 -3.1030281 1.9729152
-2.2870669 -3.0893116 1.9635569
-2.2695119 -3.100086 1.9650855
-2.2639389 -3.1096165 1.9537693
-2.272068 -3.1009042 1.9613329
-2.2597842 -3.1096122 1.9632225
-2.2640736 -3.121594 1.9671352
-2.2543726 -3.1155541 1.9687451
-2.2569935 -3.1173687 1.9681509
-2.2445674 -3.1263762 1.9724741
-2.2337472 -3.1251707 1.9733779
-2.2298307 -3.1240253 1.9712005
-2.2352681 -3.1296594 1.9614449
-2.2191725 -3.1340592 1.9653487
-2.2343886 -3.1309314 1.9611491
-2.2220368 -3.1398678 1.9714193
-2.2077911 -3.1374454 1.97288
-2.2096283 -3.1496787 1.9635463
-2.2098513 -3.1488938 1.9555577
-2.2106643 -3.160048 1.9617152
-2.2071497 -3.164752 1.9722259
-2.2027271 -3.1499133 1.9670231
-2.1804774 -3.1648908 1.9593217
-2.1879792 -3.1681552 1.9703496
-2.1715727 -3.1710231 1.9676284
-2.1793616 -3.165931 1.9590877
-2.1768761 -3.1709888 1.9560802
-2.1729257 -3.1822844 1.963944
-2.1583047 -3.1782074 1.9556911
-2.1516681 -3.1793523 1.9593763
-2.1588695 -3.1813955 1.9614438
-2.1555564 -3.1834338 1.9614297
-2.1374416 -3.1876442 1.9695121
-2.1470242 -3.2037826 1.9573975
-2.1455746 -3.2079449 1.9654764
-2.126842 -3.2043307 1.9617027
-2.136646 -3.2026696 1.9559201
-2.1294534 -3.2015014 1.9618849
-2.1143928 -3.2101593 1.9549631
-2.1075809 -3.2166324 1.969927
-2.1170795 -3.2147629 1.9658713
-2.1045067 -3.21404 1.9627955
-2.0919437 -3.2196667 1.9585208
-2.0912943 -3.2193444 1.9611131
-2.0827556 -3.2220449 1.9625424
-2.0861337 -3.23049 1.9705789
-2.0732813 -3.2332196 1.963263
-2.0862076 -3.233242 1.9600958
-2.0731652 -3.2426929 1.9712446
-2.0670402 -3.2498252 1.9588881
-2.0659475 -3.2509537 1.9713627
-2.0689061 -3.2440112 1.9675155
-2.0549369 -3.2490115 1.9609904
-2.045238 -3.2578721 1.9577304
-2.052943 -3.2627082 1.9547062
-2.0392146 -3.2554402 1.966167
-2.0374458 -3.2598422 1.9578216
-2.0229888 -3.2616966 1.9723713
-2.0316951 -3.2750387 1.9603813
-2.0292485 -3.2667904 1.9641637
-2.0191545 -3.2819877 1.9697157
-2.016582 -3.2846861 1.9651024
-2.0178528 -3.2779615 1.9583745
-2.0056446 -3.2860887 1.9656651
-1.9966925 -3.2864754 1.9709927
-1.9907608 -3.2976921 1.9664549
-1.9933645 -3.2917025 1.9603752
-1.9843094 -3.2958221 1.9552948
-1.9807007 -3.2932186 1.9597198
-1.9690783 -3.2927432 1.9552341
-1.9736696 -3.306752 1.9583858
-1.9727051 -3.3027704 1.9616674
-1.95635 -3.304646 1.9544953
-1.9667189 -3.3189034 1.9620113
-1.9497935 -3.3088031 1.9719496
-1.9475365 -3.317369 1.9534738
-1.9498135 -3.3131402 1.9637837
-1.9381665 -3.3244624 1.9727637
-1.9315959 -3.3167856 1.9671302
-1.9205967 -3.3220997 1.9647491
-1.9340794 -3.336623 1.9711297
-1.9244065 -3.3348026 1.9642555
-1.9114485 -3.3412523 1.9582633
-1.9056586 -3.3427002 1.9607644
-1.9123491 -3.3318551 1.9561105
-1.9090974 -3.3433897 1.9656287
-1.904318 -3.3418419 1.9621072
-1.8892248 -3.3532915 1.9699885
-1.8851479 -3.3428183 1.9682651
-1.8867009 -3.3459978 1.9639394
-1.8706312 -3.3473158 1.9677962
-1.8681773 -3.36362 1.9561722
-1.966552 -3.5402513 1.9084599
-1.9567217 -3.5272686 1.9143168
-1.9443864 -3.5456469 1.9136982
-1.956701 -3.5454473 1.9042177
-1.9394938 -3.5451462 1.9189515
-1.9458042 -3.5544331 1.9048957
-1.9242296 -3.5443287 1.9039661
-1.9243746 -3.5404658 1.9025038
-1.9288414 -3.5452259 1.9023638
-1.9094477 -3.5522282 1.908553
-1.9216741 -3.5483472 1.9093601
-1.9092783 -3.5595748 1.905901
-1.9110216 -3.5634098 1.9068083
-1.8933799 -3.5645065 1.9106526
-1.8852149 -3.5733461 1.917529
-1.8823124 -3.5734508 1.9178421
-1.8934621 -3.5769389 1.9109766
-1.8855375 -3.5855339 1.9106839
-1.8790717 -3.5835614 1.9083341
-1.9621946 -3.7582192 1.8493469
-1.9494332 -3.7591469 1.8492609
-1.9558611 -3.7526553 1.8606296
-1.9457442 -3.7528872 1.8508382
-1.9347161 -3.7604616 1.8626186
-1.9398398 -3.7648587 1.8682203
-1.9180835 -3.7713449 1.8563719
-1.9160103 -3.7739761 1.8636825
-1.9207988 -3.7736814 1.8650385
-1.9058762 -3.7719235 1.8510004
-1.9132998 -3.7888424 1.8559854
-1.9073757 -3.7782488 1.8627868
-1.901534 -3.7793355 1.8588165
-1.8843198 -3.7955616 1.8573436
-1.8768932 -3.78602 1.8510182
-1.8776827 -3.7868662 1.8630103
-1.8728666 -3.791224 1.8512235
-1.9452629 -3.9719095 1.8071744
-1.9447355 -3.9696484 1.7984436
-1.9428483 -3.9777434 1.8141557
-1.9349955 -3.9785442 1.8156267
-1.9221538 -3.9787076 1.810362
-1.922507 -3.9783187 1.8066734
-1.9268267 -3.9860096 1.8094143
-1.9126155 -3.9915712 1.8043449
-1.904726 -4.0032229 1.80107
-1.9048406 -3.9953637 1.8160708
-1.8967383 -3.9998417 1.8061416
-1.9003503 -4.009346 1.8012111
-1.8926895 -4.0025206 1.8109154
-1.8893129 -4.0134039 1.8025407
-1.8844615 -4.0170107 1.796717
-1.9465944 -4.1814194 1.7616574
-1.9504447 -4.1809549 1.7539366
-1.9315504 -4.1918554 1.7633452
-1.9377217 -4.2004461 1.7637848
-1.9271641 -4.1947355 1.754759
-1.9216019 -4.2065096 1.7639227
-1.9259652 -4.2074871 1.7462418
-1.9152551 -4.2063985 1.758038
-1.894837 -4.2075319 1.7615949
-1.90279 -4.2094159 1.7441809
-1.8965628 -4.2173157 1.7598661
-1.8930606 -4.2149196 1.7587503
-1.8772752 -4.2194862 1.7494601
-1.8720778 -4.2160864 1.754297
-1.9447265 -4.4044366 1.6952235
-1.9478614 -4.39676 1.6994084
-1.9418288 -4.3993187 1.7053093
-1.9334733 -4.4170432 1.694984
-1.9133178 -4.4202299 1.7062023
-1.9096018 -4.417253 1.6982054
-1.9032959 -4.4139361 1.7049692
-1.901301 -4.4130077 1.6967816
-1.9004183 -4.4221892 1.706671
-1.8888221 -4.4320712 1.7025964
-1.8923852 -4.4222145 1.7092422
-1.8826871 -4.4216452 1.7062933
-1.8688005 -4.4411988 1.7035055
-1.9440833 -4.6163921 1.653373
-1.9343654 -4.6198626 1.6550877
-1.9334253 -4.6257839 1.6424735
-1.9204785 -4.6315703 1.6558614
-1.9207639 -4.6215358 1.6528542
-1.9092332 -4.636797 1.6433338
-1.9078094 -4.6266437 1.6465908
-1.8904564 -4.6262388 1.6423552
-1.8864539 -4.6423254 1.6413312
-1.8853966 -4.6307182 1.643387
-1.8871235 -4.6455159 1.6507095
-1.8666481 -4.6370449 1.6572824
-1.9365383 -4.8331537 1.5883144
-1.9267051 -4.8238044 1.5885941
-1.9234802 -4.8211999 1.601602
-1.9232587 -4.833528 1.6020334
-1.9125537 -4.8308997 1.5952938
-1.8985881 -4.837389 1.5916256
-1.8888543 -4.8463502 1.5945284
-1.8801408 -4.8407321 1.5916873
-1.8893678 -4.8433228 1.5966876
-1.8712685 -4.8519235 1.5927895
-3.7736177 -2.9910154 1.7381051
-3.7840753 -3.0055187 1.7302482
-3.7642739 -2.9983158 1.7425474
-3.772321 -3.0074904 1.7340748
-3.771476 -3.0065506 1.7460759
-3.7500982 -3.0254655 1.7277138
-3.7478802 -3.0332685 1.7369863
-3.7411072 -3.0326984 1.7348704
-3.7520068 -3.0380037 1.7427602
-3.7349887 -3.047806 1.7385362
-3.7376199 -3.0369759 1.7304928
-3.7422719 -3.0607939 1.7332348
-3.7347734 -3.0490084 1.7284619
-3.7149684 -3.0694749 1.739791
-3.723629 -3.0733094 1.7373307
-3.7202809 -3.0799861 1.7412202
-3.7152877 -3.0686722 1.7425656
-3.7010148 -3.0748198 1.7297341
-3.7088506 -3.0961089 1.7368443
-3.6887894 -3.0846293 1.7393932
-3.6929448 -3.1000376 1.7380074
-3.6851363 -3.1043615 1.7380329
-3.6945786 -3.1054583 1.7350672
-3.688787 -3.1110287 1.7368522
-3.5241809 -2.9844148 1.7909327
-3.5296807 -3.0036705 1.7926229
-3.5112841 -3.0022335 1.7908264
-3.5115352 -3.0108311 1.7880754
-3.504611 -3.0115793 1.7892227
-3.5105696 -3.0165887 1.7870308
-3.5139725 -3.0300827 1.7946057
-3.4987545 -3.0201049 1.7830257
-3.5035038 -3.0239136 1.795512
-3.4912121 -3.0462811 1.7875849
-3.4971287 -3.0358789 1.7862922
-3.479877 -3.055167 1.7906829
-3.4809282 -3.060256 1.7814437
-3.4837689 -3.0498002 1.7885342
-3.4693542 -3.0566313 1.7797977
-3.4737852 -3.0736392 1.7909673
-3.4604013 -3.078275 1.7935525
-3.4594355 -3.0719242 1.791019
-3.4500432 -3.0745614 1.7895746
-3.4481578 -3.0891521 1.7906544
-3.4541929 -3.0939119 1.7870222
-3.4415138 -3.0856788 1.7889819
-3.4444373 -3.1027625 1.7907265
-3.4365933 -3.1069598 1.7877948
-3.4216521 -3.1010213 1.782894
-3.4154408 -3.1238 1.7858413
-3.4180529 -3.1174877 1.7890029
-3.2754164 -2.9839098 1.8342781
-3.258146 -2.9956467 1.8308353
-3.2623138 -3.0098114 1.8376335
-3.2653954 -3.0143311 1.8444979
-3.2521026 -3.010499 1.8444154
-3.256844 -3.0139236 1.8320628
-3.2398343 -3.0138447 1.8403208
-3.24575 -3.0231717 1.839319
-3.2365601 -3.0306408 1.8403339
-3.2244167 -3.0250826 1.8324507
-3.2291055 -3.0439117 1.8323292
-3.2194314 -3.0496619 1.8450491
-3.2131939 -3.0437772 1.8481768
-3.2201519 -3.0451782 1.831351
-3.2202394 -3.0574968 1.8429183
-3.200403 -3.0587735 1.8356153
-3.2129128 -3.0672634 1.8329401
-3.1971583 -3.0658984 1.845481
-3.2023995 -3.0795794 1.8350897
-3.1866195 -3.0853589 1.8347877
-3.1787164 -3.0800753 1.8401817
-3.1909287 -3.0893724 1.8443447
-3.1704147 -3.096693 1.8389056
-3.1667669 -3.0952387 1.8365728
-3.1599388 -3.0981452 1.8464227
-3.1615372 -3.1054952 1.8394914
-3.1504323 -3.1096411 1.8485593
-3.1619964 -3.1223247 1.8434755
-3.1610134 -3.1245482 1.8291881
-3.1504157 -3.1152964 1.8335927
-3.0030506 -2.9859941 1.8986648
-3.007539 -2.9894884 1.8879803
-2.9878588 -2.9967926 1.8944286
-2.9936118 -3.0047789 1.8867781
-2.9816918 -3.010273 1.8806622
-2.9799161 -3.021708 1.8916314
-2.9850657 -3.0263863 1.8828838
-2.9811416 -3.0269835 1.8858752
-2.9622955 -3.0309587 1.8910601
-2.957731 -3.028703 1.8899075
-2.968756 -3.0405183 1.8860033
-2.9656219 -3.0410111 1.8828118
-2.9531667 -3.0460179 1.8965175
-2.9542575 -3.040978 1.8864324
-2.9429929 -3.0482242 1.8950428
-2.9378383 -3.0579066 1.8964021
-2.941709 -3.0569563 1.8972608
-2.9343216 -3.0563059 1.8816942
-2.9239368 -3.0610385 1.8863186
-2.9283614 -3.0654418 1.8973587
-2.913933 -3.0651116 1.8807375
-2.9234033 -3.0858939 1.8877722
-2.9160593 -3.0784738 1.8939422
-2.9150035 -3.0964026 1.8892884
-2.9040275 -3.0873311 1.881519
-2.9044352 -3.0973749 1.8881915
-2.9034781 -3.0955651 1.8799326
-2.8816566 -3.1106493 1.8964369
-2.895396 -3.0996358 1.8923149
-2.8845055 -3.1173398 1.88789
-2.8825691 -3.1249139 1.8878899
-2.8772483 -3.1262627 1.8911959
-2.8648872 -3.124577 1.8860046
-2.8663504 -3.1261516 1.8869607
-2.8524618 -3.1410713 1.8810588
-2.7161036 -2.997735 1.9400963
-2.7235005 -3.0005832 1.934083
-2.719151 -3.0059485 1.9370377
-2.718292 -3.0093977 1.9350522
-2.7015495 -3.0063062 1.9394026
-2.7092268 -3.0056338 1.9402127
-2.6968987 -3.0240016 1.9437022
-2.7012596 -3.0143752 1.932899
-2.6908064 -3.0305843 1.944537
-2.6793919 -3.0172827 1.9452647
-2.6738739 -3.0222402 1.9503415
-2.680232 -3.0387838 1.9363854
-2.6725986 -3.0351725 1.9408737
-2.6620049 -3.0349023 1.9457169
-2.6733916 -3.0420947 1.9374495
-2.6604226 -3.0411751 1.9336467
-2.6666384 -3.0521433 1.9352623
-2.6493592 -3.0516934 1.9502847
-2.6428783 -3.065017 1.9328724
-2.6447542 -3.0711572 1.9325302
-2.6458969 -3.0760167 1.9309931
-2.641958 -3.0714762 1.936669
-2.6319699 -3.0835497 1.9497069
-2.6174886 -3.0692818 1.9467599
-2.6181588 -3.0906587 1.9403591
-2.6270912 -3.0833297 1.9386109
-2.6198213 -3.0864844 1.9496214
-2.6109307 -3.0966334 1.9448028
-2.6070125 -3.1045802 1.9503757
-2.6005015 -3.0986865 1.9335171
-2.5943277 -3.0982244 1.9355023
-2.5896859 -3.1181178 1.9457248
-2.5793633 -3.1123221 1.947565
-2.5759976 -3.1163495 1.9473578
-2.5755737 -3.1253567 1.9494526
-2.5815456 -3.1276107 1.9425497
-2.5692606 -3.1269147 1.9361589
-2.5659602 -3.1216531 1.9432797
-2.5674734 -3.1368029 1.9461087
-2.5634089 -3.1297772 1.9384801
-2.4341486 -2.99088 1.9858751
-2.4251568 -3.0015535 1.9860945
-2.4259379 -3.0062551 1.9957398
-2.4248741 -2.9919465 1.9849824
-2.4240127 -3.0015748 1.9888361
-2.4010515 -3.0015407 1.9940479
-2.4049888 -3.0135922 1.9835619
-2.3953121 -3.0067194 1.9819376
-2.39851 -3.0257404 1.9887573
-2.398874 -3.0250826 1.9861906
-2.3868618 -3.0216043 1.9960649
-2.3783691 -3.0333204 1.9986708
-2.3896523 -3.0300088 1.9999746
-2.3712854 -3.0298285 1.9989805
-2.3636715 -3.0329876 1.9917458
-2.3721991 -3.0373907 1.987927
-2.3555102 -3.0499406 1.9954324
-2.3493028 -3.0570285 1.9931808
-2.3647151 -3.0515335 1.995272
-2.3533032 -3.0506263 2.0013795
-2.3444531 -3.0619354 1.9943173
-2.3457243 -3.0689852 1.9988853
-2.3443851 -3.0715563 1.9901056
-2.3417373 -3.060003 1.9848405
-2.3200791 -3.0650828 1.9997449
-2.3256512 -3.0829422 1.9935689
-2.3150373 -3.0683692 1.9981596
-2.3169136 -3.0718501 1.9989733
-2.3210371 -3.0750086 1.9885868
-2.3030643 -3.0910256 1.9824063
-2.29898 -3.0824676 1.9882094
-2.3019533 -3.0994601 1.9902494
-2.300354 -3.0993974 1.9929994
-2.2875299 -3.1009758 1.9905776
-2.2799666 -3.1051891 1.9863447
-2.2774944 -3.099272 1.9875153
-2.2811935 -3.1070437 1.9865158
-2.2802975 -3.1209981 1.9852864
-2.2585835 -3.1233876 1.9841431
-2.2672515 -3.1121204 1.9902216
-2.2620955 -3.1210892 1.988091
-2.2511322 -3.1173563 1.9921944
-2.2581241 -3.1363535 1.9995812
-2.242362 -3.1268604 1.9886042
-2.249017 -3.1341424 1.9966223
-2.2399006 -3.1432948 1.99376
-2.2296093 -3.1404939 1.9863225
-2.2203131 -3.1411486 1.9881207
-2.2322419 -3.1444454 1.9907136
-2.2253096 -3.1407709 1.987752
-2.2122943 -3.1563056 1.9989934
-2.2014055 -3.1652462 1.9971339
-2.206409 -3.1655529 1.999437
-2.2040212 -3.1544755 1.9943868
-2.1926062 -3.1744359 1.9852022
-2.1931689 -3.169667 1.9900066
-2.1965895 -3.178998 2.0007472
-2.1874433 -3.1834288 1.9939623
-2.1764946 -3.1841884 1.9870034
-2.1829488 -3.1824203 1.986836
-2.1723602 -3.1920459 1.9942446
-2.170526 -3.1951959 1.9958171
-2.1705472 -3.1877668 2.0001812
-2.1482611 -3.2023718 1.9987148
-2.151021 -3.1899879 2.0003741
-2.142961 -3.2025971 1.989882
-2.1500926 -3.2030616 1.9931325
-2.1464794 -3.1988189 1.9950197
-2.1296468 -3.2080708 1.9992083
-2.1397688 -3.2082243 1.98822
-2.1300542 -3.2222414 1.9906548
-2.1129267 -3.2188802 1.9929821
-2.1142228 -3.2200005 1.9857749
-2.1111505 -3.223299 1.9869926
-2.1095405 -3.2338262 1.983618
-2.106267 -3.2207663 1.9906518
-2.0934815 -3.2393153 2.0002325
-2.0974414 -3.2387323 1.9970607
-2.09951 -3.2458022 1.9876357
-2.0773859 -3.247484 2.0010495
-2.086246 -3.2439449 1.9834328
-2.0726671 -3.2477765 1.9921571
-2.076757 -3.2574062 1.9827348
-2.0680501 -3.2484701 1.9929812
-2.0581212 -3.2624342 1.9956614
-2.051563 -3.2576396 1.9943562
-2.0579669 -3.2645781 1.9974504
-2.0547864 -3.2599993 1.9840696
-2.0547736 -3.2620161 1.9865547
-2.0441816 -3.2664397 1.9902875
-2.0401716 -3.2642584 2.0004823
-2.0337746 -3.2730374 1.9897625
-2.0186493 -3.2704496 1.9923232
-2.0129423 -3.2837019 1.9867241
-2.0169852 -3.2915769 1.9900585
-2.0183434 -3.2774489 2.0010788
-2.0010033 -3.2942843 1.9880456
-2.0005651 -3.2925026 1.9824696
-1.9935035 -3.2952752 1.9977491
-2.003953 -3.2920275 1.9914708
-1.9906657 -3.309345 1.9902332
-1.9871796 -3.3048451 1.9830694
-1.9744096 -3.309803 2.0013402
-1.979075 -3.3136413 1.9891984
-1.9693357 -3.3061135 1.9920157
-1.976258 -3.3245394 1.9917883
-1.9521562 -3.3102243 1.9975463
-1.9610839 -3.3200738 1.9879005
-1.9555836 -3.3274689 1.9982901
-1.9548 -3.3299241 1.994729
-1.9402909 -3.3237071 1.9966456
-1.9470156 -3.3386228 1.9858507
-1.9409004 -3.3253908 1.9928802
-1.9365107 -3.3414509 1.9988471
-1.9242587 -3.3324018 1.995111
-1.9291856 -3.3349094 1.9957118
-1.9143363 -3.3379531 1.9933841
-1.9137254 -3.3545663 1.9839567
-1.9027563 -3.3503251 1.9898776
-1.901394 -3.3499496 1.99608
-1.903589 -3.3597186 1.9912299
-1.8838638 -3.3608692 1.9941878
-1.8949296 -3.3605657 1.993095
-1.8789624 -3.3605368 1.9986531
-1.8770245 -3.3729246 1.9959643
-1.878819 -3.3749118 1.9934658
-1.9539149 -3.5358081 1.9396958
-1.9571928 -3.5518217 1.9429163
-1.9498943 -3.5415492 1.9330561
-1.956671 -3.5546014 1.9462429
-1.9372416 -3.5545392 1.932326
-1.9426584 -3.5594461 1.9399166
-1.9251136 -3.5601168 1.9504628
-1.9286577 -3.5695219 1.9436831
-1.92664 -3.5616946 1.9471543
-1.9073073 -3.5603709 1.9312705
-1.9104694 -3.56495 1.9461985
-1.9164786 -3.5777595 1.9478629
-1.8992639 -3.5682268 1.9425428
-1.8919054 -3.5704312 1.9469066
-1.8913565 -3.5781701 1.9340616
-1.8847208 -3.5762937 1.9390321
-1.8904908 -3.5818439 1.9460471
-1.8857108 -3.5959136 1.9463651
-1.867707 -3.5929451 1.9372118
-1.9556162 -3.7671406 1.8811576
-1.9497781 -3.7580957 1.8941307
-1.9490082 -3.7600501 1.8969747
-1.94657 -3.7697833 1.8920248
-1.9294481 -3.7771559 1.887537
-1.9279587 -3.7689805 1.8979697
-1.9193105 -3.7791746 1.8929313
-1.9256879 -3.7801473 1.8849881
-1.9050466 -3.7813523 1.8856136
-1.9040836 -3.7895696 1.891839
-1.9122702 -3.7813277 1.8980074
-1.9055882 -3.7925107 1.8959628
-1.8859295 -3.7881906 1.8946985
-1.883423 -3.8067026 1.8864282
-1.8858628 -3.7933674 1.8935055
-1.8727866 -3.8038206 1.8914706
-1.8692741 -3.8109074 1.8819467
-1.9560883 -3.9832444 1.8432291
-1.9453076 -3.9867616 1.8369157
-1.9338977 -3.9946082 1.8450682
-1.9362584 -3.9959381 1.844138
-1.9324471 -3.9958863 1.834693
-1.9306766 -4.0014796 1.8322289
-1.9101665 -3.9898741 1.8339061
-1.9179229 -4.0060201 1.8315645
-1.8985983 -3.9944048 1.8414083
-1.901305 -4.0045958 1.8467962
-1.8935318 -4.0016313 1.8360579
-1.8935535 -4.0134544 1.8445377
-1.879885 -4.0194402 1.8478981
-1.8780602 -4.0133624 1.8326483
-1.877162 -4.0290537 1.8401619
-1.9473432 -4.2038932 1.7938672
-1.9381019 -4.2085881 1.7927929
-1.9471796 -4.2066307 1.7782611
-1.9385951 -4.2109432 1.778025
-1.9201629 -4.2035608 1.7902707
-1.9163392 -4.2140074 1.7881458
-1.9232498 -4.2100811 1.7968545
-1.9016769 -4.2180958 1.7822268
-1.89674 -4.2098989 1.7963178
-1.8870491 -4.2264209 1.7973512
-1.8898408 -4.2171063 1.7815061
-1.8880047 -4.2244191 1.7836971
-1.8872391 -4.2266827 1.7905691
-1.8810017 -4.2262383 1.7958435
-1.9531921 -4.4101396 1.7402884
-1.9346907 -4.419313 1.7279043
-1.9383105 -4.4212847 1.742137
-1.9332176 -4.4275746 1.7310371
-1.9227488 -4.4148226 1.730808
-1.9181852 -4.4182782 1.7367229
-1.9125844 -4.4304285 1.7346101
-1.902825 -4.4266486 1.7278334
-1.8908708 -4.4280133 1.7414341
-1.892041 -4.4290543 1.7381119
-1.887933 -4.430007 1.7304101
-1.8684577 -4.4386263 1.7362603
-1.8613625 -4.4370375 1.7428554
-1.9350029 -4.6348186 1.6949496
-1.9245188 -4.630127 1.6934139
-1.9342599 -4.6270547 1.6911129
-1.9180822 -4.624568 1.6793437
-1.9040138 -4.6385121 1.6940275
-1.9167182 -4.6466956 1.6900114
-1.8958182 -4.6422472 1.6876106
-1.8982368 -4.6398921 1.6869042
-1.8883533 -4.6442666 1.6802169
-1.8726161 -4.6477542 1.6777489
-1.8702799 -4.6561232 1.6784085
-1.937152 -4.839891 1.6355578
-1.9330806 -4.8405509 1.6294065
-1.9313064 -4.8315053 1.6284409
-1.9212976 -4.8348675 1.6362212
-1.9166012 -4.8374138 1.6384987
-1.9159172 -4.8455434 1.6278965
-1.8976302 -4.8425789 1.6423123
-1.900046 -4.8562217 1.6350074
-1.8891451 -4.8606215 1.6268591
-1.8807088 -4.8491836 1.6329776
-1.8716091 -4.8588943 1.6373729
-3.7957373 -2.9851747 1.7624099
-3.7902141 -2.9901223 1.7771667
-3.7803311 -3.0087824 1.7745304
-3.7800651 -3.0165422 1.7626685
-3.7823822 -3.0215728 1.7688116
-3.7614315 -3.0146635 1.763579
-3.7583165 -3.0201204 1.7734267
-3.7536733 -3.0310354 1.779386
-3.7632186 -3.0316067 1.7630291
-3.7545578 -3.0406582 1.7756513
-3.7395253 -3.0405762 1.7738425
-3.7352428 -3.0591619 1.77239
-3.7361965 -3.0520632 1.7775759
-3.739779 -3.0689042 1.7802943
-3.7352161 -3.0722756 1.7632686
-3.7245028 -3.0789173 1.7784331
-3.7190149 -3.0866716 1.7734154
-3.7236719 -3.0740182 1.7627517
-3.7223623 -3.0951526 1.7767795
-3.7174025 -3.0918765 1.7670127
-3.6998131 -3.0978251 1.7625791
-3.7040255 -3.103756 1.7648048
-3.689683 -3.1149123 1.7793684
-3.6901474 -3.1139305 1.7823241
-3.5399535 -2.9875112 1.8166394
-3.5348856 -2.9996271 1.8200306
-3.5346465 -3.0105565 1.8208824
-3.519418 -3.0104516 1.8195969
-3.5148463 -3.0133529 1.8223798
-3.5162399 -3.0156176 1.8136361
-3.5073934 -3.0246234 1.8241347
-3.5029738 -3.0221791 1.8138875
-3.5163214 -3.029737 1.8176627
-3.4950988 -3.0421114 1.8275926
-3.4909134 -3.0365839 1.8239475
-3.50191 -3.0501802 1.8131405
-3.4895086 -3.0477357 1.8163526
-3.4762487 -3.0542681 1.824612
-3.4842675 -3.060441 1.8149066
-3.4694965 -3.0722268 1.8278672
-3.4634624 -3.079392 1.8167467
-3.466923 -3.0863702 1.8129896
-3.460624 -3.0909362 1.8265873
-3.4505429 -3.0785258 1.8127177
-3.450525 -3.0861838 1.8292766
-3.4541457 -3.0890985 1.8171341
-3.4485667 -3.1038787 1.8123255
-3.4397688 -3.109673 1.8258677
-3.4427047 -3.1077666 1.818114
-3.4353392 -3.1153769 1.8234459
-3.291714 -2.9907997 1.8759818
-3.2826772 -3.0042317 1.8768946
-3.2773914 -2.9956727 1.8780947
-3.2785013 -3.0013475 1.8765523
-3.2734745 -3.0113263 1.8721931
-3.2718823 -3.0092537 1.8697543
-3.2624261 -3.0259373 1.8773642
-3.2577724 -3.0181646 1.8640026
-3.2595701 -3.0176766 1.8773643
-3.249115 -3.034178 1.8679266
-3.2533216 -3.034709 1.877423
-3.2344902 -3.0503895 1.8780863
-3.2347395 -3.0449769 1.8719012
-3.2337825 -3.0448735 1.8646282
-3.2343616 -3.0639486 1.8719575
-3.2192936 -3.0656435 1.8659344
-3.2266579 -3.0621009 1.867797
-3.2064064 -3.0581288 1.8619957
-3.1995099 -3.0801857 1.88124
-3.1992455 -3.0760248 1.8685342
-3.2084124 -3.0803144 1.8798431
-3.1880767 -3.0900226 1.8800111
-3.1870716 -3.0842364 1.8701254
-3.1922452 -3.1017559 1.864871
-3.1846857 -3.1041236 1.8650633
-3.1697907 -3.0956984 1.8680764
-3.1809125 -3.0989192 1.8791422
-3.1701653 -3.1061764 1.8786837
-3.1652133 -3.110831 1.8806663
-3.161011 -3.1195219 1.8713014
-3.1495082 -3.1216867 1.8621329
-3.0091765 -2.9913027 1.9172401
-3.0063751 -3.0005667 1.9131032
-3.0134537 -2.99933 1.9159145
-3.0057807 -3.0148659 1.9208199
-2.9979095 -3.0198445 1.9186059
-2.9870193 -3.0202894 1.9176207
-2.9850576 -3.0143378 1.9138218
-2.9835484 -3.0277908 1.9298055
-2.980051 -3.0214045 1.9215298
-2.9859126 -3.0278842 1.9155145
-2.9809368 -3.0359216 1.9277763
-2.9703519 -3.0453482 1.9149954
-2.9638982 -3.0460501 1.9276663
-2.9546275 -3.0432811 1.9290109
-2.9604456 -3.0568492 1.92958
-2.948472 -3.0637414 1.9139019
-2.9374776 -3.0528917 1.9283673
-2.9502764 -3.064759 1.9135652
-2.9470859 -3.0773604 1.9293294
-2.9321651 -3.0800607 1.9227875
-2.9232543 -3.0820286 1.9123765
-2.9220755 -3.0776608 1.9167008
-2.913672 -3.0910943 1.9244796
-2.9125919 -3.0795176 1.9191775
-2.9101617 -3.0980256 1.9244514
-2.9071565 -3.0888319 1.9269713
-2.8998237 -3.0929222 1.9244732
-2.89802 -3.114095 1.914234
-2.8910127 -3.1163664 1.9155138
-2.8882353 -3.1080127 1.9182074
-2.8919942 -3.1150489 1.9230416
-2.8861585 -3.1252131 1.9163457
-2.8759928 -3.1312864 1.9203126
-2.8780427 -3.1205978 1.9199466
-2.7345088 -2.9889052 1.9746606
-2.7367754 -3.0012519 1.9731424
-2.7365167 -2.9906011 1.971606
-2.7187507 -3.0024879 1.9729627
-2.7312186 -3.011714 1.976108
-2.7224014 -3.0025153 1.9716607
-2.7108853 -3.0214336 1.9642249
-2.7145298 -3.0188801 1.9706665
-2.7048647 -3.0305305 1.9750704
-2.6912274 -3.0286055 1.9741924
-2.6979511 -3.0384078 1.9661328
-2.6994593 -3.0346632 1.9695611
-2.6824806 -3.0348518 1.967469
-2.6870329 -3.0414717 1.977313
-2.6702232 -3.0447624 1.9617479
-2.6702633 -3.0434434 1.9791925
-2.6747451 -3.0548217 1.961524
-2.6666577 -3.0540631 1.9702083
-2.6721234 -3.0678632 1.9710357
-2.6531799 -3.0722551 1.9775755
-2.6551094 -3.067605 1.9780948
-2.6450934 -3.0687027 1.9661342
-2.6516435 -3.0770667 1.9777547
-2.640281 -3.0742331 1.9665191
-2.6390691 -3.0788453 1.9757508
-2.6334169 -3.0877583 1.9700532
-2.6303153 -3.0854189 1.9767232
-2.624877 -3.0992632 1.9678919
-2.610749 -3.1028495 1.9689945
-2.6157887 -3.0917737 1.9694333
-2.6142833 -3.1069143 1.9782442
-2.6122539 -3.1163306 1.9696733
-2.6021795 -3.1165943 1.9764484
-2.6004798 -3.1097975 1.9697611
-2.5900106 -3.1260962 1.9621596
-2.5903046 -3.1210554 1.9693371
-2.5762911 -3.1172304 1.96254
-2.5756025 -3.1322901 1.9655784
-2.5837402 -3.1375499 1.9687045
-2.5707703 -3.1321824 1.9665738
-2.5573566 -3.1296477 1.9729644
-2.5551269 -3.1494267 1.9735943
-2.5614634 -3.1434801 1.9776101
-2.5610194 -3.1601868 1.9720663
-2.5472577 -3.1507831 1.9738611
-2.5410926 -3.1660368 1.9643281
-2.547745 -3.1516457 1.9622451
-2.5411894 -3.1609399 1.9687216
-2.5315907 -3.1627505 1.9735513
-2.5188608 -3.1759748 1.9673553
-2.5282567 -3.1801744 1.9672947
-2.5112569 -3.1865382 1.9710495
-2.5136225 -3.1836369 1.9643397
-2.5119672 -3.1846955 1.9645053
-2.495851 -3.1964014 1.9776508
-2.4979348 -3.1863561 1.9791125
-2.489547 -3.1873817 1.978529
-2.4832373 -3.2062757 1.9722089
-2.4904461 -3.1999996 1.9676296
-2.4728203 -3.2054272 1.973371
-2.4813857 -3.2046893 1.978452
-2.4700069 -3.2113953 1.9607019
-2.4748685 -3.224915 1.9693798
-2.466435 -3.2212329 1.9605193
-2.4578309 -3.2258928 1.9634671
-2.4560766 -3.2370999 1.9799682
-2.4528558 -3.2243872 1.9789451
-2.4502139 -3.2298374 1.9625235
-2.4338872 -3.2469742 1.9758672
-2.4421351 -3.2509682 1.967266
-2.4246368 -3.2480149 1.9628793
-2.4220526 -3.2381752 1.9752572
-2.4172137 -3.2576942 1.9775791
-2.4236922 -3.2532816 1.967041
-2.4190266 -3.2647717 1.9752944
-2.4114084 -3.2590194 1.9757859
-2.4072845 -3.2745626 1.9724289
-2.4041789 -3.2719851 1.9670541
-2.39749 -3.277607 1.9679687
-2.3974531 -3.2760074 1.9683093
-2.3860126 -3.281445 1.9750166
-2.3789539 -3.2888386 1.9749708
-2.3795128 -3.2759387 1.9788069
-2.3777449 -3.2940669 1.97045
-2.3665109 -3.292084 1.973991
-2.3670185 -3.2870419 1.9666662
-2.3670301 -3.3024399 1.9671733
-2.3503942 -3.2993009 1.9736271
-2.3591282 -3.3140464 1.9778215
-2.3469431 -3.3133328 1.9669716
-2.3344131 -3.3057616 1.9740341
-2.335171 -3.3157189 1.977046
-2.3359699 -3.3108273 1.9762949
-2.3329284 -3.3287644 1.9607462
-2.3182392 -3.3200688 1.9705045
-2.3200045 -3.3364866 1.9686223
-2.3090899 -3.3375268 1.9746535
-2.3176637 -3.3265462 1.9671284
-2.2997794 -3.3289192 1.9681561
-2.2976961 -3.3437316 1.9731891
-2.286458 -3.3506429 1.9690789
-2.2881532 -3.3429453 1.9782901
-2.2868321 -3.3406851 1.9756655
-2.2862573 -3.3600259 1.9783695
-2.2812269 -3.3493247 1.9730288
-2.2664337 -3.3650405 1.9745229
-2.2735181 -3.3544979 1.9782234
-2.2545671 -3.3571901 1.9761447
-2.2631366 -3.3666632 1.974926
-2.250674 -3.3787227 1.9621217
-2.2531741 -3.3842187 1.9656267
-2.2397799 -3.3760884 1.9800429
-2.2371702 -3.3913202 1.9799266
-2.2371807 -3.3906648 1.9636701
-2.2344828 -3.3896713 1.961309
-2.2171214 -3.3985815 1.9664197
-2.2182612 -3.399277 1.9652539
-2.2156963 -3.4057269 1.9645704
-2.2152059 -3.4054563 1.9775817
-2.1959298 -3.3974376 1.9616947
-2.2094536 -3.4166377 1.9634665
-2.1994681 -3.4071667 1.9765166
-2.1950622 -3.4198134 1.9774765
-2.1907685 -3.4172025 1.9622263
-2.1827266 -3.41663 1.9710978
-2.1770418 -3.4234366 1.9741809
-2.1662419 -3.4161282 1.9796836
-2.1566036 -3.431004 1.9618446
-2.1676445 -3.4301431 1.9673778
-2.1656699 -3.4347641 1.9640248
-2.1595781 -3.4376709 1.9645602
-2.1517103 -3.4353592 1.9776481
-2.1507883 -3.4534123 1.9611645
-2.128902 -3.4519465 1.97036
-2.142262 -3.4472187 1.9631898
-2.1267459 -3.4615896 1.9722679
-2.1281428 -3.4499485 1.9717028
-2.1240327 -3.4534614 1.9793035
-2.1177578 -3.4528115 1.9708
-2.1059453 -3.4549878 1.9607038
-2.0974817 -3.475877 1.9707222
-2.0884788 -3.4737074 1.9660672
-2.0863836 -3.4754291 1.9663671
-2.0807679 -3.480082 1.9711339
-2.0859525 -3.4829164 1.9636234
-2.0783036 -3.4750607 1.9647298
-2.0815723 -3.4934318 1.9604583
-2.065402 -3.492527 1.9756482
-2.0616269 -3.4901853 1.9744556
-2.0663514 -3.5008736 1.9740474
-2.061168 -3.4879448 1.9757042
-2.0459621 -3.4908638 1.9624776
-2.0354073 -3.4965425 1.9704698
-2.0445485 -3.5014641 1.9767429
-2.028919 -3.5164332 1.9631084
-2.0207961 -3.5086205 1.9802496
-2.0315628 -3.5089474 1.9619331
-2.026597 -3.5179794 1.967428
-2.0064373 -3.5281153 1.978164
-2.0074663 -3.5278587 1.9611044
-2.0088995 -3.5273061 1.9798596
-2.008672 -3.5364389 1.9785749
-2.0016673 -3.5399122 1.974484
-1.9866662 -3.537426 1.9683369
-1.9853883 -3.5442135 1.9700791
-1.9777409 -3.5477853 1.9624858
-1.9729484 -3.547035 1.9774104
-1.9664686 -3.5462341 1.9661413
-1.97449 -3.5501926 1.9675673
-1.9517717 -3.5601032 1.972074
-1.9461091 -3.5563738 1.9799508
-1.9416875 -3.557348 1.9615052
-1.9385468 -3.5562522 1.9623898
-1.9394931 -3.565094 1.9685574
-1.9265827 -3.5576007 1.9707272
-1.9319263 -3.5674064 1.972108
-1.9248593 -3.5773702 1.977015
-1.922864 -3.5658083 1.965492
-1.9121341 -3.5672262 1.9727726
-1.9199743 -3.5708873 1.9728978
-1.9033041 -3.5738518 1.9795005
-1.8987535 -3.5773644 1.9678702
-1.8926449 -3.5827096 1.9800702
-1.8856477 -3.5939784 1.9661555
-1.8924793 -3.5973177 1.9624547
-1.8771374 -3.5909855 1.9716614
-1.880411 -3.6025751 1.9736109
-1.8787739 -3.5971615 1.9698216
-1.9579736 -3.7779787 1.917803
-1.9403315 -3.7797961 1.9143127
-1.9425602 -3.7699468 1.9305365
-1.9381826 -3.7805538 1.9259192
-1.9254313 -3.7900629 1.9186213
-1.9204763 -3.7775891 1.9227121
-1.9294322 -3.7969654 1.926114
-1.9220852 -3.7860215 1.9184914
-1.9055276 -3.8033767 1.9219158
-1.907017 -3.8041239 1.9133831
-1.8922918 -3.7997863 1.91862
-1.9000772 -3.8030832 1.9247793
-1.8913494 -3.8138895 1.9235204
-1.8863941 -3.8056023 1.9143797
-1.8860524 -3.8098519 1.9184476
-1.8730049 -3.8144386 1.9176995
-1.9613169 -3.9871933 1.870774
-1.9405265 -3.984103 1.8669921
-1.9473549 -3.989758 1.868543
-1.930755 -4.0022087 1.8720273
-1.9426841 -4.0052447 1.8625224
-1.9293724 -4.0013804 1.8723865
-1.9298978 -4.0141058 1.8741027
-1.9116781 -4.0071979 1.866757
-1.9025955 -4.0052729 1.8778054
-1.9094412 -4.0156293 1.8669029
-1.8970313 -4.0141764 1.8797911
-1.9020392 -4.0175118 1.87851
-1.890825 -4.0132589 1.8743062
-1.8780564 -4.0179925 1.8803762
-1.8817999 -4.020246 1.866127
-1.8750445 -4.0347819 1.8784513
-1.9399691 -4.2112231 1.8312473
-1.9413806 -4.2193785 1.8231491
-1.9301338 -4.2240558 1.8196613
-1.9278351 -4.2211885 1.8284947
-1.9164349 -4.2115235 1.8214511
-1.9121428 -4.2124829 1.8137337
-1.9091281 -4.2278481 1.8129236
-1.9103134 -4.2360687 1.830026
-1.905425 -4.2336602 1.8275136
-1.8947819 -4.2301273 1.8130958
-1.891811 -4.2356062 1.8206414
-1.8865362 -4.2283807 1.8227605
-1.8693562 -4.235796 1.822922
-1.8756601 -4.2468042 1.8286632
-1.9512233 -4.4296498 1.777269
-1.9354824 -4.4168692 1.777115
-1.9274552 -4.4269762 1.7642829
-1.9202342 -4.4241748 1.7659094
-1.9159071 -4.4423947 1.7726153
-1.9140887 -4.4358854 1.7655164
-1.9066843 -4.4323225 1.7755928
-1.8917304 -4.4494061 1.7755409
-1.8946539 -4.4352345 1.7707113
-1.8774121 -4.4532948 1.7775028
-1.8744254 -4.4547544 1.781412
-1.8733252 -4.4466567 1.7808238
-1.9474894 -4.6353445 1.7233375
-1.9391184 -4.6444817 1.7208612
-1.9291171 -4.6354856 1.7228605
-1.9324061 -4.6508698 1.714056
-1.9227903 -4.645051 1.7314928
-1.9030943 -4.6504846 1.7145158
-1.9034464 -4.6450505 1.7143717
-1.8886245 -4.6485877 1.7188193
-1.8870074 -4.6553555 1.7244509
-1.8814774 -4.667243 1.7208155
-1.8765317 -4.6644049 1.7297442
-1.8795648 -4.6596727 1.7322582
-1.9371812 -4.8512797 1.676977
-1.9204328 -4.8529019 1.6785202
-1.932485 -4.8513961 1.6685768
-1.9070966 -4.8566866 1.6758864
-1.9186815 -4.848825 1.6713066
-1.9104068 -4.8526406 1.6658573
-1.8976808 -4.8613424 1.6762993
-1.8993193 -4.8710213 1.6775033
-1.8845896 -4.8622646 1.664186
-1.8809274 -4.8630552 1.6782321
-3.8030071 -3.0000293 1.8105226
-3.7972617 -2.9894907 1.8159047
-3.8029258 -3.0075717 1.8039623
-3.7941782 -3.0074227 1.8062742
-3.7921681 -3.0199769 1.8056076
-3.7866006 -3.014679 1.7997912
-3.7702305 -3.0265048 1.8137014
-3.7771883 -3.0300798 1.8156577
-3.765636 -3.0456536 1.8072321
-3.7708807 -3.0401685 1.8031421
-3.7690587 -3.0561793 1.8066859
-3.7521007 -3.0506358 1.8060879
-3.749753 -3.0549555 1.812723
-3.7393405 -3.0547335 1.8048153
-3.7466087 -3.0767155 1.8096555
-3.7345364 -3.0773506 1.8050902
-3.7282729 -3.0858443 1.8139893
-3.7280922 -3.0855317 1.8045977
-3.7259476 -3.0979097 1.804911
-3.7122214 -3.0997827 1.8159821
-3.722578 -3.1040916 1.8163091
-3.7093835 -3.0957079 1.8074402
-3.7167799 -3.1092489 1.7995064
-3.6975336 -3.116657 1.8170432
-3.5578084 -2.9904363 1.8459276
-3.5417902 -3.001415 1.8513268
-3.5503304 -3.0104325 1.8534633
-3.5299647 -3.0035782 1.8611372
-3.5389836 -3.0188959 1.8616518
-3.5276821 -3.0248113 1.8655061
-3.5253029 -3.0254145 1.8502579
-3.5225897 -3.0371616 1.8485942
-3.5087383 -3.0406506 1.858584
-3.522814 -3.0292461 1.846354
-3.499346 -3.0508561 1.8603426
-3.4950736 -3.0406404 1.8483217
-3.5053949 -3.0631642 1.8522468
-3.493573 -3.0495284 1.8479836
-3.4940701 -3.0691247 1.8533541
-3.494046 -3.0616395 1.8577548
-3.4901607 -3.0760019 1.8464922
-3.4815168 -3.0718849 1.8484162
-3.4745297 -3.0781574 1.8517793
-3.4775462 -3.0827529 1.8514688
-3.4727857 -3.088135 1.8544642
-3.4540298 -3.0935059 1.8525854
-3.4472883 -3.093466 1.8530869
-3.4566147 -3.1058791 1.8521224
-3.4501977 -3.103071 1.8564538
-3.4384034 -3.1245275 1.8531564
-3.2984631 -2.9959068 1.9084635
-3.2936997 -2.9932311 1.9046751
-3.2870057 -3.0078776 1.8994825
-3.2769423 -3.0098562 1.8945563
-3.2871828 -3.0113974 1.9091041
-3.2744217 -3.0185122 1.9031311
-3.2635329 -3.0232215 1.9020422
-3.2721362 -3.0216005 1.9133779
-3.2616975 -3.0379124 1.9123534
-3.266921 -3.0267863 1.8946983
-3.2554357 -3.0438221 1.899996
-3.2567234 -3.0402818 1.9125826
-3.2417932 -3.0542414 1.8951299
-3.2320492 -3.0423384 1.9002997
-3.2272251 -3.0648825 1.9085238
-3.2278471 -3.0588791 1.8942226
-3.2344353 -3.0662065 1.8997955
-3.2221067 -3.0663631 1.9115671
-3.2184358 -3.0803134 1.9115987
-3.2157829 -3.0837264 1.907322
-3.2107792 -3.0798991 1.9105698
-3.2004712 -3.0816109 1.9019117
-3.1975703 -3.0926507 1.9038419
-3.1921158 -3.0982103 1.9022173
-3.2014854 -3.1032166 1.9025846
-3.1826248 -3.1131217 1.9134854
-3.1780591 -3.1138983 1.901583
-3.1879141 -3.1066356 1.8940421
-3.1859915 -3.1199977 1.897063
-3.164031 -3.1150093 1.901177
-3.0281925 -2.9929335 1.9617052
-3.0274391 -3.0010633 1.956929
-3.0153377 -2.9906135 1.9456011
-3.0213003 -2.9990368 1.9531955
-3.0088818 -3.001163 1.9602593
-3.0160899 -3.0087686 1.9618882
-3.0123913 -3.0161545 1.9472041
-3.0005894 -3.0177479 1.9442406
-2.9963224 -3.0217772 1.9523665
-2.9890285 -3.0282106 1.9499265
-2.9776149 -3.0413251 1.9576099
-2.9737537 -3.0378726 1.9614041
-2.974663 -3.0465112 1.9598829
-2.9668944 -3.045311 1.9541672
-2.9715257 -3.0558963 1.9505482
-2.9690871 -3.0579 1.9435407
-2.965014 -3.060421 1.9533585
-2.9556191 -3.055362 1.9457883
-2.949182 -3.0702636 1.9583881
-2.9546132 -3.0621052 1.948748
-2.9424787 -3.0667725 1.950181
-2.9426548 -3.0718238 1.9592482
-2.9390314 -3.0820355 1.9438522
-2.936923 -3.0887356 1.9538262
-2.9205248 -3.0843298 1.9573787
-2.9277399 -3.1017537 1.9430854
-2.9219565 -3.0993791 1.9504229
-2.9063499 -3.1118896 1.9469651
-2.9183078 -3.1022489 1.9527456
-2.89766 -3.1023309 1.9508185
-2.9066467 -3.1145761 1.9483521
-2.8941946 -3.1113005 1.9449562
-2.8926697 -3.12871 1.9554642
-2.8865354 -3.1283262 1.943382
-2.8904212 -3.1358645 1.9598095
-2.7394278 -2.9919667 1.9909972
-2.7342427 -2.9894114 2.0005648
-2.7417152 -2.9955869 2.0017073
-2.7326398 -2.998064 1.9965703
-2.7377787 -3.0042424 1.9954245
-2.7248392 -3.0037622 2.0061011
-2.714361 -3.0151906 2.0041146
-2.7272732 -3.0094602 2.0087736
-2.709672 -3.0219672 1.9978654
-2.7041478 -3.0227375 2.0034621
-2.7021909 -3.0282185 1.9940162
-2.6971273 -3.0327034 1.9909731
-2.7024913 -3.0288551 2.0055962
-2.686707 -3.0401309 2.0015779
-2.6960547 -3.0407507 1.995211
-2.686543 -3.0526414 1.9931483
-2.6863492 -3.0582695 2.0034754
-2.6681368 -3.0610306 2.003345
-2.6652603 -3.0704172 1.994514
-2.6732867 -3.058511 2.008713
-2.6557112 -3.0688848 2.0012257
-2.6675763 -3.0784373 1.9930418
-2.6624794 -3.0776012 1.9924889
-2.6427541 -3.0852334 2.0044367
-2.6470423 -3.0864716 1.9995357
-2.6376917 -3.0824611 2.0065086
-2.6303988 -3.0825253 1.9916123
-2.6327736 -3.0886509 1.9977076
-2.6352737 -3.096179 1.9981632
-2.6265996 -3.0960176 1.9942659
-2.6237214 -3.1025701 2.0037298
-2.6083255 -3.1052821 2.0073698
-2.6011083 -3.107197 1.9955689
-2.6144388 -3.1136918 1.9998525
-2.5958164 -3.1287849 2.006609
-2.6020899 -3.1188426 2.0010808
-2.6013856 -3.1259282 1.9991869
-2.5955722 -3.139714 1.9948602
-2.5836587 -3.1403306 2.0066922
-2.5712843 -3.1366091 2.0023661
-2.5828023 -3.1343505 1.995162
-2.5648515 -3.141042 2.0089142
-2.5632555 -3.1448677 2.0044141
-2.5534554 -3.1463802 1.9970753
-2.5593667 -3.1536319 1.9982938
-2.5585165 -3.1515236 1.9930984
-2.5431898 -3.1730824 2.0044558
-2.5497518 -3.1732047 2.0056591
-2.5406353 -3.1657951 2.0098715
-2.5396821 -3.1703982 2.001425
-2.5230501 -3.1709108 1.9988507
-2.5336168 -3.1778698 1.9931921
-2.5304265 -3.1876347 2.007309
-2.5117316 -3.1920061 2.0035083
-2.5203705 -3.1867011 1.9960451
-2.5077858 -3.2049627 1.9942727
-2.5003917 -3.1923194 1.994518
-2.5016356 -3.210665 1.9982113
-2.5016708 -3.2043262 1.9928783
-2.497489 -3.2014709 2.0065002
-2.4817488 -3.2064254 2.0031612
-2.4885781 -3.2063935 1.9964087
-2.481061 -3.227623 2.0034306
-2.4794221 -3.2146139 2.0096142
-2.4615791 -3.2347054 2.0046296
-2.4711945 -3.2266788 2.004904
-2.4625773 -3.2357297 2.0013359
-2.4537103 -3.2305002 2.0029304
-2.4411449 -3.2497873 1.9943656
-2.453908 -3.2493787 1.9921515
-2.4330442 -3.2377207 2.0084722
-2.4355147 -3.2573876 2.0083079
-2.4247329 -3.2540381 1.9903908
-2.4269245 -3.2535551 2.0089531
-2.4229276 -3.2597394 1.9908879
-2.4239106 -3.2600541 2.004307
-2.4046147 -3.2762718 1.9921271
-2.4088819 -3.2681472 2.0086217
-2.41155 -3.2719867 2.009268
-2.4027781 -3.2731235 1.9937553
-2.3962159 -3.2779357 1.9933269
-2.393328 -3.2897623 1.9966514
-2.3906 -3.2953558 2.0067389
-2.3857841 -3.2876942 2.0007162
-2.3824015 -3.3005939 1.9919101
-2.3770795 -3.2990394 2.0061834
-2.3583333 -3.3027565 2.007627
-2.3717628 -3.2953131 2.000577
-2.3686929 -3.315115 1.9930625
-2.3449721 -3.3107269 2.0077798
-2.3567593 -3.3243628 2.0010476
-2.3489704 -3.3197019 2.0058446
-2.3378522 -3.3169088 2.0083976
-2.3366423 -3.3339005 2.0019553
-2.3214505 -3.3321145 2.00595
-2.3350599 -3.3296161 1.9948294
-2.3143916 -3.3329864 2.0033154
-2.3122752 -3.3344049 2.002562
-2.3172042 -3.3373771 2.0053174
-2.3096433 -3.3412569 1.9957656
-2.3073602 -3.3415568 1.9958757
-2.2918053 -3.358705 2.003938
-2.2914486 -3.3493774 1.9980783
-2.2885346 -3.3634863 1.9985056
-2.2920582 -3.3670545 2.0039907
-2.2715828 -3.3688879 1.9952394
-2.2822235 -3.3747134 2.006377
-2.2643738 -3.3630872 1.9993485
-2.2672729 -3.3810594 1.9925935
-2.2674122 -3.3761444 2.0051982
-2.2570989 -3.373625 2.0007358
-2.246671 -3.3802333 2.0023513
-2.2481766 -3.3911726 1.9965142
-2.2355373 -3.3838897 1.9997814
-2.2424664 -3.3848267 2.0026867
-2.2239063 -3.3899894 2.006959
-2.2340927 -3.3904977 2.0085988
-2.2131371 -3.397866 2.0050519
-2.2192061 -3.4128478 2.0067129
-2.2120254 -3.4126873 1.9964627
-2.2122357 -3.4069366 1.991899
-2.1969042 -3.4154854 2.0038874
-2.1999528 -3.4102716 2.0080905
-2.1888342 -3.417155 2.0027237
-2.1944442 -3.4157078 1.9995604
-2.1771443 -3.4204454 1.9943686
-2.1755681 -3.4201188 1.9917957
-2.1723478 -3.4235907 2.0049751
-2.1726701 -3.4378891 2.0062866
-2.1713271 -3.4297693 1.9908662
-2.1602299 -3.4466267 2.0042973
-2.1536925 -3.4529233 1.9922734
-2.1551623 -3.4470439 2.0085509
-2.1524251 -3.4548256 2.0010257
-2.1350503 -3.4530013 1.9980217
-2.1408346 -3.4586651 1.9933474
-2.1318066 -3.4675455 1.9920603
-2.1253471 -3.4580021 1.9903555
-2.1257043 -3.4735823 1.9973993
-2.1247456 -3.4726243 1.9956034
-2.1192033 -3.465379 1.9999841
-2.1002257 -3.4764099 2.0010951
-2.0932677 -3.4737287 1.9911058
-2.0900283 -3.4731319 1.9963483
-2.0943098 -3.4799869 2.006422
-2.0815914 -3.4774568 1.993832
-2.0735431 -3.4907331 1.995355
-2.0867777 -3.4823892 2.0094078
-2.0817132 -3.4992454 1.9908605
-2.0696008 -3.49999 1.9962438
-2.0592804 -3.5000434 1.9918389
-2.064575 -3.5059748 1.9993626
-2.0487547 -3.5098078 1.9925202
-2.0429196 -3.515265 2.0092204
-2.0518382 -3.5098715 2.0020044
-2.030679 -3.5166316 2.0002511
-2.0421057 -3.5202191 2.0081465
-2.0320055 -3.5219214 2.0073049
-2.0278485 -3.5234432 1.9925188
-2.0222349 -3.517741 1.999893
-2.011234 -3.5266101 2.0101118
-2.0046341 -3.5256705 1.9972906
-2.0105064 -3.5338106 2.0035207
-2.0032175 -3.5410199 2.0071714
-1.9992243 -3.5420561 1.9990861
-1.9824432 -3.5468454 2.0071049
-1.9874116 -3.5479774 1.9943929
-1.9844805 -3.5439298 2.0028288
-1.9823873 -3.5606494 1.992586
-1.9750763 -3.5566835 1.9908819
-1.9603872 -3.5666487 2.0031378
-1.9554753 -3.55495 1.9991564
-1.9633809 -3.5540638 2.0098503
-1.9450524 -3.5708325 1.9961435
-1.9430696 -3.5685558 2.0042024
-1.9491682 -3.5744498 1.9902668
-1.9272443 -3.5702677 1.9979872
-1.9380286 -3.568114 1.9925363
-1.9203731 -3.5688307 1.99314
-1.9129566 -3.5872035 2.0004768
-1.9072406 -3.5758584 2.0006084
-1.9092647 -3.5845761 1.9951919
-1.8952668 -3.5861783 1.993408
-1.8905711 -3.5944347 1.9975947
-1.8995786 -3.5856946 2.0067906
-1.8805234 -3.5880432 1.9928179
-1.8754001 -3.5934622 2.0057454
-1.8825527 -3.5946631 2.0035384
-1.8751525 -3.60321 2.0033188
-1.9566268 -3.7816267 1.9593376
-1.9610382 -3.7871804 1.9574784
-1.9453142 -3.7797709 1.9495848
-1.9350027 -3.7833793 1.9427655
-1.9464715 -3.7873123 1.9503592
-1.9337496 -3.7852764 1.9493554
-1.931828 -3.7892127 1.9486581
-1.9238756 -3.7930567 1.9451904
-1.9229916 -3.8090882 1.943163
-1.9043111 -3.802758 1.955223
-1.9058464 -3.813462 1.9437742
-1.9032725 -3.8138642 1.9495167
-1.902554 -3.8038323 1.9454063
-1.8897256 -3.8087833 1.9604174
-1.8837126 -3.8105006 1.9542184
